ply
format ascii 1.0
comment PCL generated
element vertex 1074
property float x
property float y
property float z
property float nx
property float ny
property float nz
property float curvature
element face 0
element camera 0
property float view_px
property float view_py
property float view_pz
property float x_axisx
property float x_axisy
property float x_axisz
property float y_axisx
property float y_axisy
property float y_axisz
property float z_axisx
property float z_axisy
property float z_axisz
property float focal
property float scalex
property float scaley
property float centerx
property float centery
property int viewportx
property int viewporty
property float k1
property float k2
end_header
0.20080566 0.0067901611 -0.3503418 0 0 0 0
0.20300293 0.0068092346 -0.35131836 0 0 0 0
0.20471191 0.0068092346 -0.35131836 0 0 0 0
0.20629883 0.0068092346 -0.35131836 0 0 0 0
0.20861816 0.0068283081 -0.35229492 0 0 0 0
0.21020508 0.0068283081 -0.35229492 0 0 0 0
0.21252441 0.0068511963 -0.35327148 0 0 0 0
0.21411133 0.0068511963 -0.35327148 0 0 0 0
0.21582031 0.0068511963 -0.35327148 0 0 0 0
0.21740723 0.0068511963 -0.35327148 0 0 0 0
0.21911621 0.0068511963 -0.35327148 0 0 0 0
0.22070312 0.0068511963 -0.35327148 0 0 0 0
0.22241211 0.0068511963 -0.35327148 0 0 0 0
0.092956543 0.0055770874 -0.37939453 0 0 0 0
0.094726562 0.0055770874 -0.37939453 0 0 0 0
0.096252441 0.0055618286 -0.37841797 0 0 0 0
0.09777832 0.0055465698 -0.37744141 0 0 0 0
0.09954834 0.0055465698 -0.37744141 0 0 0 0
0.10101318 0.005531311 -0.37646484 0 0 0 0
0.1027832 0.005531311 -0.37646484 0 0 0 0
0.10430908 0.0055160522 -0.37524414 0 0 0 0
0.1060791 0.0055160522 -0.37524414 0 0 0 0
0.10778809 0.0055160522 -0.37524414 0 0 0 0
0.10955811 0.0055160522 -0.37524414 0 0 0 0
0.11132812 0.0055160522 -0.37524414 0 0 0 0
0.11309814 0.0055160522 -0.37524414 0 0 0 0
0.13525391 0.005279541 -0.359375 0 0 0 0
0.13684082 0.005279541 -0.359375 0 0 0 0
0.1385498 0.005279541 -0.359375 0 0 0 0
0.13989258 0.0052642822 -0.35839844 0 0 0 0
0.14160156 0.0052642822 -0.35839844 0 0 0 0
0.14282227 0.0052528381 -0.35717773 0 0 0 0
0.14453125 0.0052528381 -0.35717773 0 0 0 0
0.14611816 0.0052528381 -0.35717773 0 0 0 0
0.14782715 0.0052528381 -0.35717773 0 0 0 0
0.14953613 0.0052528381 -0.35717773 0 0 0 0
0.15124512 0.0052528381 -0.35717773 0 0 0 0
0.15246582 0.0052375793 -0.35620117 0 0 0 0
0.1541748 0.0052375793 -0.35620117 0 0 0 0
0.15576172 0.0052375793 -0.35620117 0 0 0 0
0.1574707 0.0052375793 -0.35620117 0 0 0 0
0.15869141 0.0052223206 -0.35522461 0 0 0 0
0.16040039 0.0052223206 -0.35522461 0 0 0 0
0.1619873 0.0052223206 -0.35522461 0 0 0 0
0.16369629 0.0052223206 -0.35522461 0 0 0 0
0.16540527 0.0052223206 -0.35522461 0 0 0 0
0.16699219 0.0052223206 -0.35522461 0 0 0 0
0.16870117 0.0052223206 -0.35522461 0 0 0 0
0.17041016 0.0052223206 -0.35522461 0 0 0 0
0.17199707 0.0052223206 -0.35522461 0 0 0 0
0.17370605 0.0052223206 -0.35522461 0 0 0 0
0.17590332 0.0052375793 -0.35620117 0 0 0 0
0.17797852 0.0052528381 -0.35717773 0 0 0 0
0.17834473 0.0051612854 -0.35131836 0 0 0 0
0.17993164 0.0051612854 -0.35131836 0 0 0 0
0.18164062 0.0051612854 -0.35131836 0 0 0 0
0.18322754 0.0051612854 -0.35131836 0 0 0 0
0.18493652 0.0051612854 -0.35131836 0 0 0 0
0.18652344 0.0051612854 -0.35131836 0 0 0 0
0.18823242 0.0051612854 -0.35131836 0 0 0 0
0.18933105 0.0051460266 -0.3503418 0 0 0 0
0.19091797 0.0051460266 -0.3503418 0 0 0 0
0.19262695 0.0051460266 -0.3503418 0 0 0 0
0.19421387 0.0051460266 -0.3503418 0 0 0 0
0.19592285 0.0051460266 -0.3503418 0 0 0 0
0.19750977 0.0051460266 -0.3503418 0 0 0 0
0.19921875 0.0051460266 -0.3503418 0 0 0 0
0.20080566 0.0051460266 -0.3503418 0 0 0 0
0.20239258 0.0051460266 -0.3503418 0 0 0 0
0.20471191 0.0051612854 -0.35131836 0 0 0 0
0.20629883 0.0051612854 -0.35131836 0 0 0 0
0.20861816 0.0051765442 -0.35229492 0 0 0 0
0.21020508 0.0051765442 -0.35229492 0 0 0 0
0.21252441 0.005191803 -0.35327148 0 0 0 0
0.21411133 0.005191803 -0.35327148 0 0 0 0
0.21582031 0.005191803 -0.35327148 0 0 0 0
0.21740723 0.005191803 -0.35327148 0 0 0 0
0.21911621 0.005191803 -0.35327148 0 0 0 0
0.094726562 0.0037975311 -0.37939453 0 0 0 0
0.096252441 0.0037879944 -0.37841797 0 0 0 0
0.098022461 0.0037879944 -0.37841797 0 0 0 0
0.09954834 0.0037765503 -0.37744141 0 0 0 0
0.10101318 0.0037670135 -0.37646484 0 0 0 0
0.1027832 0.0037670135 -0.37646484 0 0 0 0
0.10455322 0.0037670135 -0.37646484 0 0 0 0
0.1060791 0.0037574768 -0.37524414 0 0 0 0
0.10778809 0.0037574768 -0.37524414 0 0 0 0
0.10955811 0.0037574768 -0.37524414 0 0 0 0
0.11132812 0.0037574768 -0.37524414 0 0 0 0
0.13122559 0.0036258698 -0.36230469 0 0 0 0
0.13293457 0.0036258698 -0.36230469 0 0 0 0
0.13427734 0.003616333 -0.36132812 0 0 0 0
0.13562012 0.0036067963 -0.36035156 0 0 0 0
0.13684082 0.0035953522 -0.359375 0 0 0 0
0.1385498 0.0035953522 -0.359375 0 0 0 0
0.13989258 0.0035858154 -0.35839844 0 0 0 0
0.14160156 0.0035858154 -0.35839844 0 0 0 0
0.14282227 0.0035762787 -0.35717773 0 0 0 0
0.14453125 0.0035762787 -0.35717773 0 0 0 0
0.14575195 0.0035667419 -0.35620117 0 0 0 0
0.14746094 0.0035667419 -0.35620117 0 0 0 0
0.14904785 0.0035667419 -0.35620117 0 0 0 0
0.15075684 0.0035667419 -0.35620117 0 0 0 0
0.15246582 0.0035667419 -0.35620117 0 0 0 0
0.15368652 0.0035552979 -0.35522461 0 0 0 0
0.15539551 0.0035552979 -0.35522461 0 0 0 0
0.15698242 0.0035552979 -0.35522461 0 0 0 0
0.15869141 0.0035552979 -0.35522461 0 0 0 0
0.16040039 0.0035552979 -0.35522461 0 0 0 0
0.1619873 0.0035552979 -0.35522461 0 0 0 0
0.16369629 0.0035552979 -0.35522461 0 0 0 0
0.16540527 0.0035552979 -0.35522461 0 0 0 0
0.16699219 0.0035552979 -0.35522461 0 0 0 0
0.16821289 0.0035457611 -0.35424805 0 0 0 0
0.16992188 0.0035457611 -0.35424805 0 0 0 0
0.17199707 0.0035552979 -0.35522461 0 0 0 0
0.17370605 0.0035552979 -0.35522461 0 0 0 0
0.17529297 0.0035552979 -0.35522461 0 0 0 0
0.17663574 0.0035152435 -0.35131836 0 0 0 0
0.17834473 0.0035152435 -0.35131836 0 0 0 0
0.17993164 0.0035152435 -0.35131836 0 0 0 0
0.18164062 0.0035152435 -0.35131836 0 0 0 0
0.18322754 0.0035152435 -0.35131836 0 0 0 0
0.18493652 0.0035152435 -0.35131836 0 0 0 0
0.18652344 0.0035152435 -0.35131836 0 0 0 0
0.18762207 0.0035057068 -0.3503418 0 0 0 0
0.18933105 0.0035057068 -0.3503418 0 0 0 0
0.19091797 0.0035057068 -0.3503418 0 0 0 0
0.19262695 0.0035057068 -0.3503418 0 0 0 0
0.19421387 0.0035057068 -0.3503418 0 0 0 0
0.19592285 0.0035057068 -0.3503418 0 0 0 0
0.19750977 0.0035057068 -0.3503418 0 0 0 0
0.19921875 0.0035057068 -0.3503418 0 0 0 0
0.20080566 0.0035057068 -0.3503418 0 0 0 0
0.20239258 0.0035057068 -0.3503418 0 0 0 0
0.20471191 0.0035152435 -0.35131836 0 0 0 0
0.20629883 0.0035152435 -0.35131836 0 0 0 0
0.20861816 0.0035266876 -0.35229492 0 0 0 0
0.21020508 0.0035266876 -0.35229492 0 0 0 0
0.21252441 0.0035362244 -0.35327148 0 0 0 0
0.21411133 0.0035362244 -0.35327148 0 0 0 0
0.21582031 0.0035362244 -0.35327148 0 0 0 0
0.12854004 0.0019378662 -0.36425781 0 0 0 0
0.13024902 0.0019378662 -0.36425781 0 0 0 0
0.1315918 0.0019330978 -0.36328125 0 0 0 0
0.13293457 0.0019273758 -0.36230469 0 0 0 0
0.13427734 0.0019216537 -0.36132812 0 0 0 0
0.13562012 0.0019168854 -0.36035156 0 0 0 0
0.13684082 0.0019111633 -0.359375 0 0 0 0
0.13818359 0.001906395 -0.35839844 0 0 0 0
0.13989258 0.001906395 -0.35839844 0 0 0 0
0.14111328 0.0019006729 -0.35717773 0 0 0 0
0.14282227 0.0019006729 -0.35717773 0 0 0 0
0.14404297 0.0018949509 -0.35620117 0 0 0 0
0.14575195 0.0018949509 -0.35620117 0 0 0 0
0.14746094 0.0018949509 -0.35620117 0 0 0 0
0.14868164 0.0018901825 -0.35522461 0 0 0 0
0.15039062 0.0018901825 -0.35522461 0 0 0 0
0.15197754 0.0018901825 -0.35522461 0 0 0 0
0.15368652 0.0018901825 -0.35522461 0 0 0 0
0.15539551 0.0018901825 -0.35522461 0 0 0 0
0.15698242 0.0018901825 -0.35522461 0 0 0 0
0.15869141 0.0018901825 -0.35522461 0 0 0 0
0.16040039 0.0018901825 -0.35522461 0 0 0 0
0.1619873 0.0018901825 -0.35522461 0 0 0 0
0.16369629 0.0018901825 -0.35522461 0 0 0 0
0.16491699 0.0018844604 -0.35424805 0 0 0 0
0.16650391 0.0018844604 -0.35424805 0 0 0 0
0.16821289 0.0018844604 -0.35424805 0 0 0 0
0.16992188 0.0018844604 -0.35424805 0 0 0 0
0.17150879 0.0018844604 -0.35424805 0 0 0 0
0.17321777 0.0018844604 -0.35424805 0 0 0 0
0.17431641 0.0018796921 -0.35327148 0 0 0 0
0.17553711 0.00187397 -0.35229492 0 0 0 0
0.17663574 0.001868248 -0.35131836 0 0 0 0
0.17834473 0.001868248 -0.35131836 0 0 0 0
0.17993164 0.001868248 -0.35131836 0 0 0 0
0.18103027 0.0018634796 -0.3503418 0 0 0 0
0.18273926 0.0018634796 -0.3503418 0 0 0 0
0.18432617 0.0018634796 -0.3503418 0 0 0 0
0.18603516 0.0018634796 -0.3503418 0 0 0 0
0.18762207 0.0018634796 -0.3503418 0 0 0 0
0.18933105 0.0018634796 -0.3503418 0 0 0 0
0.19091797 0.0018634796 -0.3503418 0 0 0 0
0.19262695 0.0018634796 -0.3503418 0 0 0 0
0.19421387 0.0018634796 -0.3503418 0 0 0 0
0.1953125 0.0018577576 -0.34912109 0 0 0 0
0.19750977 0.0018634796 -0.3503418 0 0 0 0
0.19921875 0.0018634796 -0.3503418 0 0 0 0
0.20080566 0.0018634796 -0.3503418 0 0 0 0
0.20239258 0.0018634796 -0.3503418 0 0 0 0
0.20471191 0.001868248 -0.35131836 0 0 0 0
0.20629883 0.001868248 -0.35131836 0 0 0 0
0.20861816 0.00187397 -0.35229492 0 0 0 0
0.21020508 0.00187397 -0.35229492 0 0 0 0
0.21252441 0.0018796921 -0.35327148 0 0 0 0
0.21411133 0.0018796921 -0.35327148 0 0 0 0
0.12548828 0.00023007393 -0.36523438 0 0 0 0
0.12683105 0.00022935867 -0.36425781 0 0 0 0
0.12854004 0.00022935867 -0.36425781 0 0 0 0
0.12988281 0.00022876263 -0.36328125 0 0 0 0
0.1315918 0.00022876263 -0.36328125 0 0 0 0
0.13293457 0.00022816658 -0.36230469 0 0 0 0
0.13427734 0.00022745132 -0.36132812 0 0 0 0
0.13562012 0.00022685528 -0.36035156 0 0 0 0
0.13684082 0.00022625923 -0.359375 0 0 0 0
0.13818359 0.00022554398 -0.35839844 0 0 0 0
0.13989258 0.00022554398 -0.35839844 0 0 0 0
0.14111328 0.00022494793 -0.35717773 0 0 0 0
0.14245605 0.00022435188 -0.35620117 0 0 0 0
0.14404297 0.00022435188 -0.35620117 0 0 0 0
0.14538574 0.00022375584 -0.35522461 0 0 0 0
0.14697266 0.00022375584 -0.35522461 0 0 0 0
0.14868164 0.00022375584 -0.35522461 0 0 0 0
0.14990234 0.00022304058 -0.35424805 0 0 0 0
0.15161133 0.00022304058 -0.35424805 0 0 0 0
0.15319824 0.00022304058 -0.35424805 0 0 0 0
0.15490723 0.00022304058 -0.35424805 0 0 0 0
0.15661621 0.00022304058 -0.35424805 0 0 0 0
0.15820312 0.00022304058 -0.35424805 0 0 0 0
0.15991211 0.00022304058 -0.35424805 0 0 0 0
0.16149902 0.00022304058 -0.35424805 0 0 0 0
0.16601562 0.00022244453 -0.35327148 0 0 0 0
0.16772461 0.00022244453 -0.35327148 0 0 0 0
0.16943359 0.00022244453 -0.35327148 0 0 0 0
0.17102051 0.00022244453 -0.35327148 0 0 0 0
0.17272949 0.00022244453 -0.35327148 0 0 0 0
0.17431641 0.00022244453 -0.35327148 0 0 0 0
0.17553711 0.00022184849 -0.35229492 0 0 0 0
0.17663574 0.00022113323 -0.35131836 0 0 0 0
0.17834473 0.00022113323 -0.35131836 0 0 0 0
0.17944336 0.00022053719 -0.3503418 0 0 0 0
0.18103027 0.00022053719 -0.3503418 0 0 0 0
0.18273926 0.00022053719 -0.3503418 0 0 0 0
0.18432617 0.00022053719 -0.3503418 0 0 0 0
0.18603516 0.00022053719 -0.3503418 0 0 0 0
0.18762207 0.00022053719 -0.3503418 0 0 0 0
0.18933105 0.00022053719 -0.3503418 0 0 0 0
0.19091797 0.00022053719 -0.3503418 0 0 0 0
0.19262695 0.00022053719 -0.3503418 0 0 0 0
0.19421387 0.00022053719 -0.3503418 0 0 0 0
0.19592285 0.00022053719 -0.3503418 0 0 0 0
0.19750977 0.00022053719 -0.3503418 0 0 0 0
0.19921875 0.00022053719 -0.3503418 0 0 0 0
0.20080566 0.00022053719 -0.3503418 0 0 0 0
0.20239258 0.00022053719 -0.3503418 0 0 0 0
0.20471191 0.00022113323 -0.35131836 0 0 0 0
0.20629883 0.00022113323 -0.35131836 0 0 0 0
0.20861816 0.00022184849 -0.35229492 0 0 0 0
0.21020508 0.00022184849 -0.35229492 0 0 0 0
0.1237793 -0.0014829636 -0.36523438 0 0 0 0
0.12548828 -0.0014829636 -0.36523438 0 0 0 0
0.12683105 -0.0014791489 -0.36425781 0 0 0 0
0.12854004 -0.0014791489 -0.36425781 0 0 0 0
0.12988281 -0.0014753342 -0.36328125 0 0 0 0
0.13122559 -0.0014705658 -0.36230469 0 0 0 0
0.13256836 -0.0014667511 -0.36132812 0 0 0 0
0.13391113 -0.0014629364 -0.36035156 0 0 0 0
0.13525391 -0.0014591217 -0.359375 0 0 0 0
0.13647461 -0.0014543533 -0.35839844 0 0 0 0
0.13818359 -0.0014543533 -0.35839844 0 0 0 0
0.13952637 -0.0014505386 -0.35717773 0 0 0 0
0.14111328 -0.0014505386 -0.35717773 0 0 0 0
0.14245605 -0.0014467239 -0.35620117 0 0 0 0
0.14367676 -0.0014419556 -0.35522461 0 0 0 0
0.14538574 -0.0014419556 -0.35522461 0 0 0 0
0.14660645 -0.0014381409 -0.35424805 0 0 0 0
0.14831543 -0.0014381409 -0.35424805 0 0 0 0
0.14990234 -0.0014381409 -0.35424805 0 0 0 0
0.15161133 -0.0014381409 -0.35424805 0 0 0 0
0.15319824 -0.0014381409 -0.35424805 0 0 0 0
0.15490723 -0.0014381409 -0.35424805 0 0 0 0
0.15661621 -0.0014381409 -0.35424805 0 0 0 0
0.15820312 -0.0014381409 -0.35424805 0 0 0 0
0.16394043 -0.0014305115 -0.35229492 0 0 0 0
0.16564941 -0.0014305115 -0.35229492 0 0 0 0
0.16723633 -0.0014305115 -0.35229492 0 0 0 0
0.16894531 -0.0014305115 -0.35229492 0 0 0 0
0.17053223 -0.0014305115 -0.35229492 0 0 0 0
0.17224121 -0.0014305115 -0.35229492 0 0 0 0
0.17382812 -0.0014305115 -0.35229492 0 0 0 0
0.17504883 -0.0014257431 -0.35131836 0 0 0 0
0.17663574 -0.0014257431 -0.35131836 0 0 0 0
0.17785645 -0.0014219284 -0.3503418 0 0 0 0
0.17944336 -0.0014219284 -0.3503418 0 0 0 0
0.18103027 -0.0014219284 -0.3503418 0 0 0 0
0.18273926 -0.0014219284 -0.3503418 0 0 0 0
0.18493652 -0.0014257431 -0.35131836 0 0 0 0
0.18652344 -0.0014257431 -0.35131836 0 0 0 0
0.18823242 -0.0014257431 -0.35131836 0 0 0 0
0.18933105 -0.0014219284 -0.3503418 0 0 0 0
0.19091797 -0.0014219284 -0.3503418 0 0 0 0
0.19262695 -0.0014219284 -0.3503418 0 0 0 0
0.19421387 -0.0014219284 -0.3503418 0 0 0 0
0.19592285 -0.0014219284 -0.3503418 0 0 0 0
0.19750977 -0.0014219284 -0.3503418 0 0 0 0
0.19921875 -0.0014219284 -0.3503418 0 0 0 0
0.20080566 -0.0014219284 -0.3503418 0 0 0 0
0.20239258 -0.0014219284 -0.3503418 0 0 0 0
0.20471191 -0.0014257431 -0.35131836 0 0 0 0
0.20629883 -0.0014257431 -0.35131836 0 0 0 0
0.20861816 -0.0014305115 -0.35229492 0 0 0 0
0.12237549 -0.0032043457 -0.36621094 0 0 0 0
0.1237793 -0.0031967163 -0.36523438 0 0 0 0
0.12512207 -0.0031871796 -0.36425781 0 0 0 0
0.12683105 -0.0031871796 -0.36425781 0 0 0 0
0.12817383 -0.0031795502 -0.36328125 0 0 0 0
0.1295166 -0.0031700134 -0.36230469 0 0 0 0
0.13122559 -0.0031700134 -0.36230469 0 0 0 0
0.13256836 -0.0031604767 -0.36132812 0 0 0 0
0.13391113 -0.0031528473 -0.36035156 0 0 0 0
0.13525391 -0.0031433105 -0.359375 0 0 0 0
0.13647461 -0.0031356812 -0.35839844 0 0 0 0
0.13781738 -0.0031261444 -0.35717773 0 0 0 0
0.13952637 -0.0031261444 -0.35717773 0 0 0 0
0.14074707 -0.0031166077 -0.35620117 0 0 0 0
0.14196777 -0.0031089783 -0.35522461 0 0 0 0
0.14367676 -0.0031089783 -0.35522461 0 0 0 0
0.14489746 -0.0030994415 -0.35424805 0 0 0 0
0.14660645 -0.0030994415 -0.35424805 0 0 0 0
0.14782715 -0.0030918121 -0.35327148 0 0 0 0
0.14953613 -0.0030918121 -0.35327148 0 0 0 0
0.15161133 -0.0030994415 -0.35424805 0 0 0 0
0.15319824 -0.0030994415 -0.35424805 0 0 0 0
0.15441895 -0.0030918121 -0.35327148 0 0 0 0
0.16345215 -0.0030727386 -0.35131836 0 0 0 0
0.16516113 -0.0030727386 -0.35131836 0 0 0 0
0.16723633 -0.0030822754 -0.35229492 0 0 0 0
0.16894531 -0.0030822754 -0.35229492 0 0 0 0
0.17053223 -0.0030822754 -0.35229492 0 0 0 0
0.17224121 -0.0030822754 -0.35229492 0 0 0 0
0.17333984 -0.0030727386 -0.35131836 0 0 0 0
0.17504883 -0.0030727386 -0.35131836 0 0 0 0
0.17614746 -0.0030651093 -0.3503418 0 0 0 0
0.17785645 -0.0030651093 -0.3503418 0 0 0 0
0.17944336 -0.0030651093 -0.3503418 0 0 0 0
0.18103027 -0.0030651093 -0.3503418 0 0 0 0
0.18273926 -0.0030651093 -0.3503418 0 0 0 0
0.18493652 -0.0030727386 -0.35131836 0 0 0 0
0.18652344 -0.0030727386 -0.35131836 0 0 0 0
0.18823242 -0.0030727386 -0.35131836 0 0 0 0
0.18981934 -0.0030727386 -0.35131836 0 0 0 0
0.19091797 -0.0030651093 -0.3503418 0 0 0 0
0.19262695 -0.0030651093 -0.3503418 0 0 0 0
0.19421387 -0.0030651093 -0.3503418 0 0 0 0
0.19592285 -0.0030651093 -0.3503418 0 0 0 0
0.19750977 -0.0030651093 -0.3503418 0 0 0 0
0.19921875 -0.0030651093 -0.3503418 0 0 0 0
0.20080566 -0.0030651093 -0.3503418 0 0 0 0
0.20239258 -0.0030651093 -0.3503418 0 0 0 0
0.12103271 -0.0049362183 -0.36743164 0 0 0 0
0.12207031 -0.0049095154 -0.36523438 0 0 0 0
0.12347412 -0.0048942566 -0.36425781 0 0 0 0
0.12512207 -0.0048942566 -0.36425781 0 0 0 0
0.12646484 -0.0048828125 -0.36328125 0 0 0 0
0.12780762 -0.0048675537 -0.36230469 0 0 0 0
0.12915039 -0.0048561096 -0.36132812 0 0 0 0
0.13085938 -0.0048561096 -0.36132812 0 0 0 0
0.13220215 -0.0048408508 -0.36035156 0 0 0 0
0.13354492 -0.0048294067 -0.359375 0 0 0 0
0.13476562 -0.0048141479 -0.35839844 0 0 0 0
0.1361084 -0.0048027039 -0.35717773 0 0 0 0
0.13781738 -0.0048027039 -0.35717773 0 0 0 0
0.13903809 -0.0047874451 -0.35620117 0 0 0 0
0.14038086 -0.004776001 -0.35522461 0 0 0 0
0.14196777 -0.004776001 -0.35522461 0 0 0 0
0.14331055 -0.0047607422 -0.35424805 0 0 0 0
0.14453125 -0.0047454834 -0.35327148 0 0 0 0
0.14624023 -0.0047454834 -0.35327148 0 0 0 0
0.14782715 -0.0047454834 -0.35327148 0 0 0 0
0.14904785 -0.0047340393 -0.35229492 0 0 0 0
0.15112305 -0.0047454834 -0.35327148 0 0 0 0
0.15600586 -0.0046920776 -0.34912109 0 0 0 0
0.15722656 -0.0046806335 -0.34814453 0 0 0 0
0.15930176 -0.0046920776 -0.34912109 0 0 0 0
0.16088867 -0.0046920776 -0.34912109 0 0 0 0
0.16296387 -0.0047073364 -0.3503418 0 0 0 0
0.16516113 -0.0047187805 -0.35131836 0 0 0 0
0.16674805 -0.0047187805 -0.35131836 0 0 0 0
0.16845703 -0.0047187805 -0.35131836 0 0 0 0
0.17004395 -0.0047187805 -0.35131836 0 0 0 0
0.17175293 -0.0047187805 -0.35131836 0 0 0 0
0.17333984 -0.0047187805 -0.35131836 0 0 0 0
0.17504883 -0.0047187805 -0.35131836 0 0 0 0
0.17614746 -0.0047073364 -0.3503418 0 0 0 0
0.17785645 -0.0047073364 -0.3503418 0 0 0 0
0.17944336 -0.0047073364 -0.3503418 0 0 0 0
0.18103027 -0.0047073364 -0.3503418 0 0 0 0
0.18322754 -0.0047187805 -0.35131836 0 0 0 0
0.18493652 -0.0047187805 -0.35131836 0 0 0 0
0.18652344 -0.0047187805 -0.35131836 0 0 0 0
0.18823242 -0.0047187805 -0.35131836 0 0 0 0
0.18981934 -0.0047187805 -0.35131836 0 0 0 0
0.19152832 -0.0047187805 -0.35131836 0 0 0 0
0.19311523 -0.0047187805 -0.35131836 0 0 0 0
0.19421387 -0.0047073364 -0.3503418 0 0 0 0
0.19592285 -0.0047073364 -0.3503418 0 0 0 0
0.19750977 -0.0047073364 -0.3503418 0 0 0 0
0.19921875 -0.0047073364 -0.3503418 0 0 0 0
0.20080566 -0.0047073364 -0.3503418 0 0 0 0
0.20239258 -0.0047073364 -0.3503418 0 0 0 0
0.11853027 -0.0067138672 -0.37036133 0 0 0 0
0.11993408 -0.0066947937 -0.36938477 0 0 0 0
0.12103271 -0.0066604614 -0.36743164 0 0 0 0
0.12207031 -0.0066223145 -0.36523438 0 0 0 0
0.12347412 -0.006603241 -0.36425781 0 0 0 0
0.12481689 -0.0065879822 -0.36328125 0 0 0 0
0.12609863 -0.0065689087 -0.36230469 0 0 0 0
0.12744141 -0.0065498352 -0.36132812 0 0 0 0
0.12878418 -0.0065307617 -0.36035156 0 0 0 0
0.13049316 -0.0065307617 -0.36035156 0 0 0 0
0.13183594 -0.0065116882 -0.359375 0 0 0 0
0.13317871 -0.0064964294 -0.35839844 0 0 0 0
0.13439941 -0.006477356 -0.35717773 0 0 0 0
0.13574219 -0.0064582825 -0.35620117 0 0 0 0
0.13745117 -0.0064582825 -0.35620117 0 0 0 0
0.13867188 -0.006439209 -0.35522461 0 0 0 0
0.14001465 -0.0064239502 -0.35424805 0 0 0 0
0.14160156 -0.0064239502 -0.35424805 0 0 0 0
0.14282227 -0.0064048767 -0.35327148 0 0 0 0
0.14453125 -0.0064048767 -0.35327148 0 0 0 0
0.14575195 -0.0063858032 -0.35229492 0 0 0 0
0.14746094 -0.0063858032 -0.35229492 0 0 0 0
0.14904785 -0.0063858032 -0.35229492 0 0 0 0
0.15393066 -0.006313324 -0.34814453 0 0 0 0
0.15551758 -0.006313324 -0.34814453 0 0 0 0
0.15722656 -0.006313324 -0.34814453 0 0 0 0
0.15881348 -0.006313324 -0.34814453 0 0 0 0
0.16088867 -0.0063323975 -0.34912109 0 0 0 0
0.16296387 -0.0063514709 -0.3503418 0 0 0 0
0.16467285 -0.0063514709 -0.3503418 0 0 0 0
0.16625977 -0.0063514709 -0.3503418 0 0 0 0
0.16796875 -0.0063514709 -0.3503418 0 0 0 0
0.16955566 -0.0063514709 -0.3503418 0 0 0 0
0.17175293 -0.0063667297 -0.35131836 0 0 0 0
0.17285156 -0.0063514709 -0.3503418 0 0 0 0
0.17456055 -0.0063514709 -0.3503418 0 0 0 0
0.17614746 -0.0063514709 -0.3503418 0 0 0 0
0.17785645 -0.0063514709 -0.3503418 0 0 0 0
0.17944336 -0.0063514709 -0.3503418 0 0 0 0
0.18103027 -0.0063514709 -0.3503418 0 0 0 0
0.18322754 -0.0063667297 -0.35131836 0 0 0 0
0.18493652 -0.0063667297 -0.35131836 0 0 0 0
0.18652344 -0.0063667297 -0.35131836 0 0 0 0
0.18823242 -0.0063667297 -0.35131836 0 0 0 0
0.18981934 -0.0063667297 -0.35131836 0 0 0 0
0.19152832 -0.0063667297 -0.35131836 0 0 0 0
0.19311523 -0.0063667297 -0.35131836 0 0 0 0
0.19482422 -0.0063667297 -0.35131836 0 0 0 0
0.19641113 -0.0063667297 -0.35131836 0 0 0 0
0.19812012 -0.0063667297 -0.35131836 0 0 0 0
0.19921875 -0.0063514709 -0.3503418 0 0 0 0
0.11712646 -0.0084686279 -0.37133789 0 0 0 0
0.11853027 -0.0084457397 -0.37036133 0 0 0 0
0.11993408 -0.0084228516 -0.36938477 0 0 0 0
0.12103271 -0.0083770752 -0.36743164 0 0 0 0
0.12139893 -0.0082855225 -0.36328125 0 0 0 0
0.1227417 -0.0082626343 -0.36230469 0 0 0 0
0.12414551 -0.0082397461 -0.36132812 0 0 0 0
0.12573242 -0.0082397461 -0.36132812 0 0 0 0
0.1270752 -0.0082168579 -0.36035156 0 0 0 0
0.12841797 -0.0081939697 -0.359375 0 0 0 0
0.12976074 -0.0081710815 -0.35839844 0 0 0 0
0.13146973 -0.0081710815 -0.35839844 0 0 0 0
0.1328125 -0.0081481934 -0.35717773 0 0 0 0
0.1340332 -0.0081253052 -0.35620117 0 0 0 0
0.13537598 -0.008102417 -0.35522461 0 0 0 0
0.13696289 -0.008102417 -0.35522461 0 0 0 0
0.13830566 -0.0080795288 -0.35424805 0 0 0 0
0.14001465 -0.0080795288 -0.35424805 0 0 0 0
0.14123535 -0.0080566406 -0.35327148 0 0 0 0
0.14245605 -0.0080337524 -0.35229492 0 0 0 0
0.14416504 -0.0080337524 -0.35229492 0 0 0 0
0.14538574 -0.0080108643 -0.35131836 0 0 0 0
0.14697266 -0.0080108643 -0.35131836 0 0 0 0
0.14868164 -0.0080108643 -0.35131836 0 0 0 0
0.14990234 -0.0079879761 -0.3503418 0 0 0 0
0.15222168 -0.0079421997 -0.34814453 0 0 0 0
0.15393066 -0.0079421997 -0.34814453 0 0 0 0
0.15551758 -0.0079421997 -0.34814453 0 0 0 0
0.15722656 -0.0079421997 -0.34814453 0 0 0 0
0.15881348 -0.0079421997 -0.34814453 0 0 0 0
0.16088867 -0.0079650879 -0.34912109 0 0 0 0
0.16259766 -0.0079650879 -0.34912109 0 0 0 0
0.16418457 -0.0079650879 -0.34912109 0 0 0 0
0.16625977 -0.0079879761 -0.3503418 0 0 0 0
0.16796875 -0.0079879761 -0.3503418 0 0 0 0
0.16955566 -0.0079879761 -0.3503418 0 0 0 0
0.17126465 -0.0079879761 -0.3503418 0 0 0 0
0.17285156 -0.0079879761 -0.3503418 0 0 0 0
0.17456055 -0.0079879761 -0.3503418 0 0 0 0
0.17614746 -0.0079879761 -0.3503418 0 0 0 0
0.17785645 -0.0079879761 -0.3503418 0 0 0 0
0.17944336 -0.0079879761 -0.3503418 0 0 0 0
0.18103027 -0.0079879761 -0.3503418 0 0 0 0
0.18322754 -0.0080108643 -0.35131836 0 0 0 0
0.18493652 -0.0080108643 -0.35131836 0 0 0 0
0.18652344 -0.0080108643 -0.35131836 0 0 0 0
0.18823242 -0.0080108643 -0.35131836 0 0 0 0
0.19042969 -0.0080337524 -0.35229492 0 0 0 0
0.1920166 -0.0080337524 -0.35229492 0 0 0 0
0.19372559 -0.0080337524 -0.35229492 0 0 0 0
0.19482422 -0.0080108643 -0.35131836 0 0 0 0
0.19641113 -0.0080108643 -0.35131836 0 0 0 0
0.19812012 -0.0080108643 -0.35131836 0 0 0 0
0.11364746 -0.010215759 -0.37133789 0 0 0 0
0.11505127 -0.010185242 -0.37036133 0 0 0 0
0.11712646 -0.010215759 -0.37133789 0 0 0 0
0.11853027 -0.010185242 -0.37036133 0 0 0 0
0.11993408 -0.010162354 -0.36938477 0 0 0 0
0.12103271 -0.010101318 -0.36743164 0 0 0 0
0.12072754 -0.0099411011 -0.36132812 0 0 0 0
0.12207031 -0.0099105835 -0.36035156 0 0 0 0
0.1237793 -0.0099105835 -0.36035156 0 0 0 0
0.12512207 -0.0098800659 -0.359375 0 0 0 0
0.12646484 -0.0098571777 -0.35839844 0 0 0 0
0.12805176 -0.0098571777 -0.35839844 0 0 0 0
0.12939453 -0.0098266602 -0.35717773 0 0 0 0
0.1307373 -0.0097961426 -0.35620117 0 0 0 0
0.13244629 -0.0097961426 -0.35620117 0 0 0 0
0.13366699 -0.0097732544 -0.35522461 0 0 0 0
0.13500977 -0.0097427368 -0.35424805 0 0 0 0
0.13659668 -0.0097427368 -0.35424805 0 0 0 0
0.13793945 -0.0097198486 -0.35327148 0 0 0 0
0.13952637 -0.0097198486 -0.35327148 0 0 0 0
0.14086914 -0.0096893311 -0.35229492 0 0 0 0
0.14245605 -0.0096893311 -0.35229492 0 0 0 0
0.14367676 -0.0096588135 -0.35131836 0 0 0 0
0.14538574 -0.0096588135 -0.35131836 0 0 0 0
0.14660645 -0.0096359253 -0.3503418 0 0 0 0
0.14819336 -0.0096359253 -0.3503418 0 0 0 0
0.14941406 -0.0096054077 -0.34912109 0 0 0 0
0.15112305 -0.0096054077 -0.34912109 0 0 0 0
0.15222168 -0.0095825195 -0.34814453 0 0 0 0
0.15393066 -0.0095825195 -0.34814453 0 0 0 0
0.15551758 -0.0095825195 -0.34814453 0 0 0 0
0.15722656 -0.0095825195 -0.34814453 0 0 0 0
0.15881348 -0.0095825195 -0.34814453 0 0 0 0
0.16088867 -0.0096054077 -0.34912109 0 0 0 0
0.16259766 -0.0096054077 -0.34912109 0 0 0 0
0.16418457 -0.0096054077 -0.34912109 0 0 0 0
0.16625977 -0.0096359253 -0.3503418 0 0 0 0
0.16796875 -0.0096359253 -0.3503418 0 0 0 0
0.16955566 -0.0096359253 -0.3503418 0 0 0 0
0.17126465 -0.0096359253 -0.3503418 0 0 0 0
0.17285156 -0.0096359253 -0.3503418 0 0 0 0
0.17456055 -0.0096359253 -0.3503418 0 0 0 0
0.17614746 -0.0096359253 -0.3503418 0 0 0 0
0.17785645 -0.0096359253 -0.3503418 0 0 0 0
0.17944336 -0.0096359253 -0.3503418 0 0 0 0
0.18103027 -0.0096359253 -0.3503418 0 0 0 0
0.18322754 -0.0096588135 -0.35131836 0 0 0 0
0.18493652 -0.0096588135 -0.35131836 0 0 0 0
0.18652344 -0.0096588135 -0.35131836 0 0 0 0
0.1887207 -0.0096893311 -0.35229492 0 0 0 0
0.19042969 -0.0096893311 -0.35229492 0 0 0 0
0.1920166 -0.0096893311 -0.35229492 0 0 0 0
0.19372559 -0.0096893311 -0.35229492 0 0 0 0
0.19592285 -0.0097198486 -0.35327148 0 0 0 0
0.11157227 -0.011924744 -0.37036133 0 0 0 0
0.11334229 -0.011924744 -0.37036133 0 0 0 0
0.11474609 -0.011894226 -0.36938477 0 0 0 0
0.11682129 -0.011924744 -0.37036133 0 0 0 0
0.11853027 -0.011924744 -0.37036133 0 0 0 0
0.11993408 -0.011894226 -0.36938477 0 0 0 0
0.11834717 -0.011566162 -0.359375 0 0 0 0
0.12005615 -0.011566162 -0.359375 0 0 0 0
0.12176514 -0.011566162 -0.359375 0 0 0 0
0.12310791 -0.011535645 -0.35839844 0 0 0 0
0.12475586 -0.011535645 -0.35839844 0 0 0 0
0.12609863 -0.011505127 -0.35717773 0 0 0 0
0.12768555 -0.011505127 -0.35717773 0 0 0 0
0.12902832 -0.011474609 -0.35620117 0 0 0 0
0.13037109 -0.011436462 -0.35522461 0 0 0 0
0.13195801 -0.011436462 -0.35522461 0 0 0 0
0.13330078 -0.011405945 -0.35424805 0 0 0 0
0.13464355 -0.011375427 -0.35327148 0 0 0 0
0.13623047 -0.011375427 -0.35327148 0 0 0 0
0.13745117 -0.01134491 -0.35229492 0 0 0 0
0.13916016 -0.01134491 -0.35229492 0 0 0 0
0.14038086 -0.011306763 -0.35131836 0 0 0 0
0.14208984 -0.011306763 -0.35131836 0 0 0 0
0.14331055 -0.011276245 -0.3503418 0 0 0 0
0.14489746 -0.011276245 -0.3503418 0 0 0 0
0.14660645 -0.011276245 -0.3503418 0 0 0 0
0.14782715 -0.011245728 -0.34912109 0 0 0 0
0.14941406 -0.011245728 -0.34912109 0 0 0 0
0.15112305 -0.011245728 -0.34912109 0 0 0 0
0.15222168 -0.01121521 -0.34814453 0 0 0 0
0.15393066 -0.01121521 -0.34814453 0 0 0 0
0.15551758 -0.01121521 -0.34814453 0 0 0 0
0.15759277 -0.011245728 -0.34912109 0 0 0 0
0.15930176 -0.011245728 -0.34912109 0 0 0 0
0.16088867 -0.011245728 -0.34912109 0 0 0 0
0.16259766 -0.011245728 -0.34912109 0 0 0 0
0.16418457 -0.011245728 -0.34912109 0 0 0 0
0.16625977 -0.011276245 -0.3503418 0 0 0 0
0.16796875 -0.011276245 -0.3503418 0 0 0 0
0.16955566 -0.011276245 -0.3503418 0 0 0 0
0.17126465 -0.011276245 -0.3503418 0 0 0 0
0.17285156 -0.011276245 -0.3503418 0 0 0 0
0.17504883 -0.011306763 -0.35131836 0 0 0 0
0.17663574 -0.011306763 -0.35131836 0 0 0 0
0.17834473 -0.011306763 -0.35131836 0 0 0 0
0.17944336 -0.011276245 -0.3503418 0 0 0 0
0.18103027 -0.011276245 -0.3503418 0 0 0 0
0.18322754 -0.011306763 -0.35131836 0 0 0 0
0.18493652 -0.011306763 -0.35131836 0 0 0 0
0.18652344 -0.011306763 -0.35131836 0 0 0 0
0.1887207 -0.01134491 -0.35229492 0 0 0 0
0.19042969 -0.01134491 -0.35229492 0 0 0 0
0.19262695 -0.011375427 -0.35327148 0 0 0 0
0.19421387 -0.011375427 -0.35327148 0 0 0 0
0.10955811 -0.013626099 -0.36938477 0 0 0 0
0.11096191 -0.013587952 -0.3684082 0 0 0 0
0.11273193 -0.013587952 -0.3684082 0 0 0 0
0.11444092 -0.013587952 -0.3684082 0 0 0 0
0.11682129 -0.013664246 -0.37036133 0 0 0 0
0.11883545 -0.013694763 -0.37133789 0 0 0 0
0.11669922 -0.013252258 -0.359375 0 0 0 0
0.11804199 -0.013214111 -0.35839844 0 0 0 0
0.11975098 -0.013214111 -0.35839844 0 0 0 0
0.12139893 -0.013214111 -0.35839844 0 0 0 0
0.1227417 -0.013175964 -0.35717773 0 0 0 0
0.12438965 -0.013175964 -0.35717773 0 0 0 0
0.12573242 -0.013145447 -0.35620117 0 0 0 0
0.12731934 -0.013145447 -0.35620117 0 0 0 0
0.12866211 -0.0131073 -0.35522461 0 0 0 0
0.13000488 -0.013069153 -0.35424805 0 0 0 0
0.1315918 -0.013069153 -0.35424805 0 0 0 0
0.13293457 -0.013031006 -0.35327148 0 0 0 0
0.13464355 -0.013031006 -0.35327148 0 0 0 0
0.13586426 -0.012992859 -0.35229492 0 0 0 0
0.13708496 -0.012954712 -0.35131836 0 0 0 0
0.13879395 -0.012954712 -0.35131836 0 0 0 0
0.14001465 -0.012916565 -0.3503418 0 0 0 0
0.14160156 -0.012916565 -0.3503418 0 0 0 0
0.14331055 -0.012916565 -0.3503418 0 0 0 0
0.14453125 -0.012886047 -0.34912109 0 0 0 0
0.14611816 -0.012886047 -0.34912109 0 0 0 0
0.14782715 -0.012886047 -0.34912109 0 0 0 0
0.14941406 -0.012886047 -0.34912109 0 0 0 0
0.15063477 -0.0128479 -0.34814453 0 0 0 0
0.15222168 -0.0128479 -0.34814453 0 0 0 0
0.15429688 -0.012886047 -0.34912109 0 0 0 0
0.15600586 -0.012886047 -0.34912109 0 0 0 0
0.15759277 -0.012886047 -0.34912109 0 0 0 0
0.15930176 -0.012886047 -0.34912109 0 0 0 0
0.16088867 -0.012886047 -0.34912109 0 0 0 0
0.16259766 -0.012886047 -0.34912109 0 0 0 0
0.16467285 -0.012916565 -0.3503418 0 0 0 0
0.16625977 -0.012916565 -0.3503418 0 0 0 0
0.16796875 -0.012916565 -0.3503418 0 0 0 0
0.16955566 -0.012916565 -0.3503418 0 0 0 0
0.17175293 -0.012954712 -0.35131836 0 0 0 0
0.17333984 -0.012954712 -0.35131836 0 0 0 0
0.17504883 -0.012954712 -0.35131836 0 0 0 0
0.17663574 -0.012954712 -0.35131836 0 0 0 0
0.17834473 -0.012954712 -0.35131836 0 0 0 0
0.17993164 -0.012954712 -0.35131836 0 0 0 0
0.18103027 -0.012916565 -0.3503418 0 0 0 0
0.18273926 -0.012916565 -0.3503418 0 0 0 0
0.10894775 -0.015274048 -0.36743164 0 0 0 0
0.11065674 -0.015274048 -0.36743164 0 0 0 0
0.11212158 -0.015228271 -0.36621094 0 0 0 0
0.11383057 -0.015228271 -0.36621094 0 0 0 0
0.11395264 -0.015022278 -0.36132812 0 0 0 0
0.11499023 -0.014938354 -0.359375 0 0 0 0
0.11633301 -0.014900208 -0.35839844 0 0 0 0
0.11773682 -0.014854431 -0.35717773 0 0 0 0
0.11938477 -0.014854431 -0.35717773 0 0 0 0
0.12103271 -0.014854431 -0.35717773 0 0 0 0
0.12237549 -0.014816284 -0.35620117 0 0 0 0
0.12408447 -0.014816284 -0.35620117 0 0 0 0
0.12536621 -0.014770508 -0.35522461 0 0 0 0
0.1270752 -0.014770508 -0.35522461 0 0 0 0
0.1282959 -0.014732361 -0.35424805 0 0 0 0
0.13000488 -0.014732361 -0.35424805 0 0 0 0
0.13122559 -0.014686584 -0.35327148 0 0 0 0
0.13256836 -0.014648438 -0.35229492 0 0 0 0
0.13415527 -0.014648438 -0.35229492 0 0 0 0
0.13549805 -0.014602661 -0.35131836 0 0 0 0
0.13708496 -0.014602661 -0.35131836 0 0 0 0
0.13842773 -0.014564514 -0.3503418 0 0 0 0
0.14001465 -0.014564514 -0.3503418 0 0 0 0
0.14123535 -0.014518738 -0.34912109 0 0 0 0
0.14294434 -0.014518738 -0.34912109 0 0 0 0
0.14453125 -0.014518738 -0.34912109 0 0 0 0
0.14611816 -0.014518738 -0.34912109 0 0 0 0
0.14782715 -0.014518738 -0.34912109 0 0 0 0
0.14904785 -0.014480591 -0.34814453 0 0 0 0
0.15063477 -0.014480591 -0.34814453 0 0 0 0
0.15270996 -0.014518738 -0.34912109 0 0 0 0
0.15429688 -0.014518738 -0.34912109 0 0 0 0
0.15600586 -0.014518738 -0.34912109 0 0 0 0
0.15759277 -0.014518738 -0.34912109 0 0 0 0
0.15930176 -0.014518738 -0.34912109 0 0 0 0
0.16088867 -0.014518738 -0.34912109 0 0 0 0
0.16296387 -0.014564514 -0.3503418 0 0 0 0
0.16467285 -0.014564514 -0.3503418 0 0 0 0
0.16625977 -0.014564514 -0.3503418 0 0 0 0
0.16845703 -0.014602661 -0.35131836 0 0 0 0
0.17004395 -0.014602661 -0.35131836 0 0 0 0
0.17175293 -0.014602661 -0.35131836 0 0 0 0
0.17382812 -0.014648438 -0.35229492 0 0 0 0
0.17553711 -0.014648438 -0.35229492 0 0 0 0
0.17712402 -0.014648438 -0.35229492 0 0 0 0
0.17883301 -0.014648438 -0.35229492 0 0 0 0
0.18041992 -0.014648438 -0.35229492 0 0 0 0
0.10662842 -0.016906738 -0.36523438 0 0 0 0
0.1083374 -0.016906738 -0.36523438 0 0 0 0
0.11004639 -0.016906738 -0.36523438 0 0 0 0
0.11151123 -0.016845703 -0.36425781 0 0 0 0
0.112854 -0.016799927 -0.36328125 0 0 0 0
0.11364746 -0.016662598 -0.36035156 0 0 0 0
0.11499023 -0.016616821 -0.359375 0 0 0 0
0.11633301 -0.016571045 -0.35839844 0 0 0 0
0.11773682 -0.016525269 -0.35717773 0 0 0 0
0.11938477 -0.016525269 -0.35717773 0 0 0 0
0.12072754 -0.016479492 -0.35620117 0 0 0 0
0.12207031 -0.016433716 -0.35522461 0 0 0 0
0.12371826 -0.016433716 -0.35522461 0 0 0 0
0.125 -0.016387939 -0.35424805 0 0 0 0
0.12670898 -0.016387939 -0.35424805 0 0 0 0
0.12792969 -0.016342163 -0.35327148 0 0 0 0
0.12963867 -0.016342163 -0.35327148 0 0 0 0
0.13085938 -0.016296387 -0.35229492 0 0 0 0
0.13256836 -0.016296387 -0.35229492 0 0 0 0
0.13378906 -0.01625061 -0.35131836 0 0 0 0
0.13513184 -0.016204834 -0.3503418 0 0 0 0
0.13671875 -0.016204834 -0.3503418 0 0 0 0
0.13793945 -0.016159058 -0.34912109 0 0 0 0
0.13964844 -0.016159058 -0.34912109 0 0 0 0
0.14123535 -0.016159058 -0.34912109 0 0 0 0
0.14294434 -0.016159058 -0.34912109 0 0 0 0
0.14453125 -0.016159058 -0.34912109 0 0 0 0
0.14611816 -0.016159058 -0.34912109 0 0 0 0
0.14733887 -0.016113281 -0.34814453 0 0 0 0
0.14904785 -0.016113281 -0.34814453 0 0 0 0
0.15112305 -0.016159058 -0.34912109 0 0 0 0
0.15270996 -0.016159058 -0.34912109 0 0 0 0
0.15429688 -0.016159058 -0.34912109 0 0 0 0
0.15600586 -0.016159058 -0.34912109 0 0 0 0
0.15759277 -0.016159058 -0.34912109 0 0 0 0
0.15966797 -0.016204834 -0.3503418 0 0 0 0
0.16137695 -0.016204834 -0.3503418 0 0 0 0
0.16296387 -0.016204834 -0.3503418 0 0 0 0
0.16516113 -0.01625061 -0.35131836 0 0 0 0
0.16674805 -0.01625061 -0.35131836 0 0 0 0
0.16894531 -0.016296387 -0.35229492 0 0 0 0
0.17053223 -0.016296387 -0.35229492 0 0 0 0
0.17224121 -0.016296387 -0.35229492 0 0 0 0
0.17382812 -0.016296387 -0.35229492 0 0 0 0
0.17602539 -0.016342163 -0.35327148 0 0 0 0
0.17773438 -0.016342163 -0.35327148 0 0 0 0
0.17932129 -0.016342163 -0.35327148 0 0 0 0
0.18103027 -0.016342163 -0.35327148 0 0 0 0
0.18310547 -0.016387939 -0.35424805 0 0 0 0
0.10437012 -0.018508911 -0.36328125 0 0 0 0
0.1060791 -0.018508911 -0.36328125 0 0 0 0
0.10809326 -0.018554688 -0.36425781 0 0 0 0
0.10949707 -0.018508911 -0.36328125 0 0 0 0
0.11083984 -0.018463135 -0.36230469 0 0 0 0
0.11224365 -0.0184021 -0.36132812 0 0 0 0
0.11334229 -0.018310547 -0.359375 0 0 0 0
0.11468506 -0.018249512 -0.35839844 0 0 0 0
0.11602783 -0.018203735 -0.35717773 0 0 0 0
0.11737061 -0.018157959 -0.35620117 0 0 0 0
0.11907959 -0.018157959 -0.35620117 0 0 0 0
0.12036133 -0.018096924 -0.35522461 0 0 0 0
0.12207031 -0.018096924 -0.35522461 0 0 0 0
0.12335205 -0.018051147 -0.35424805 0 0 0 0
0.125 -0.018051147 -0.35424805 0 0 0 0
0.12634277 -0.018005371 -0.35327148 0 0 0 0
0.12792969 -0.018005371 -0.35327148 0 0 0 0
0.12927246 -0.017944336 -0.35229492 0 0 0 0
0.13085938 -0.017944336 -0.35229492 0 0 0 0
0.13220215 -0.01789856 -0.35131836 0 0 0 0
0.13342285 -0.017852783 -0.3503418 0 0 0 0
0.13513184 -0.017852783 -0.3503418 0 0 0 0
0.13635254 -0.017791748 -0.34912109 0 0 0 0
0.13793945 -0.017791748 -0.34912109 0 0 0 0
0.13964844 -0.017791748 -0.34912109 0 0 0 0
0.14123535 -0.017791748 -0.34912109 0 0 0 0
0.14294434 -0.017791748 -0.34912109 0 0 0 0
0.14416504 -0.017745972 -0.34814453 0 0 0 0
0.14575195 -0.017745972 -0.34814453 0 0 0 0
0.14733887 -0.017745972 -0.34814453 0 0 0 0
0.14941406 -0.017791748 -0.34912109 0 0 0 0
0.15112305 -0.017791748 -0.34912109 0 0 0 0
0.15270996 -0.017791748 -0.34912109 0 0 0 0
0.15429688 -0.017791748 -0.34912109 0 0 0 0
0.15600586 -0.017791748 -0.34912109 0 0 0 0
0.15808105 -0.017852783 -0.3503418 0 0 0 0
0.15966797 -0.017852783 -0.3503418 0 0 0 0
0.16137695 -0.017852783 -0.3503418 0 0 0 0
0.16345215 -0.01789856 -0.35131836 0 0 0 0
0.16516113 -0.01789856 -0.35131836 0 0 0 0
0.16723633 -0.017944336 -0.35229492 0 0 0 0
0.16894531 -0.017944336 -0.35229492 0 0 0 0
0.17102051 -0.018005371 -0.35327148 0 0 0 0
0.17272949 -0.018005371 -0.35327148 0 0 0 0
0.17431641 -0.018005371 -0.35327148 0 0 0 0
0.17602539 -0.018005371 -0.35327148 0 0 0 0
0.17822266 -0.018051147 -0.35424805 0 0 0 0
0.17980957 -0.018051147 -0.35424805 0 0 0 0
0.18151855 -0.018051147 -0.35424805 0 0 0 0
0.18310547 -0.018051147 -0.35424805 0 0 0 0
0.10095215 -0.020217896 -0.36328125 0 0 0 0
0.10266113 -0.020217896 -0.36328125 0 0 0 0
0.10437012 -0.020217896 -0.36328125 0 0 0 0
0.1060791 -0.020217896 -0.36328125 0 0 0 0
0.10748291 -0.02015686 -0.36230469 0 0 0 0
0.10919189 -0.02015686 -0.36230469 0 0 0 0
0.11053467 -0.020095825 -0.36132812 0 0 0 0
0.11193848 -0.020050049 -0.36035156 0 0 0 0
0.11297607 -0.019927979 -0.35839844 0 0 0 0
0.11437988 -0.019882202 -0.35717773 0 0 0 0
0.11572266 -0.019821167 -0.35620117 0 0 0 0
0.11737061 -0.019821167 -0.35620117 0 0 0 0
0.11871338 -0.019775391 -0.35522461 0 0 0 0
0.12036133 -0.019775391 -0.35522461 0 0 0 0
0.1217041 -0.019714355 -0.35424805 0 0 0 0
0.12335205 -0.019714355 -0.35424805 0 0 0 0
0.12469482 -0.01965332 -0.35327148 0 0 0 0
0.12634277 -0.01965332 -0.35327148 0 0 0 0
0.12756348 -0.019607544 -0.35229492 0 0 0 0
0.12927246 -0.019607544 -0.35229492 0 0 0 0
0.13049316 -0.019546509 -0.35131836 0 0 0 0
0.13183594 -0.019485474 -0.3503418 0 0 0 0
0.13342285 -0.019485474 -0.3503418 0 0 0 0
0.13464355 -0.019439697 -0.34912109 0 0 0 0
0.13635254 -0.019439697 -0.34912109 0 0 0 0
0.13793945 -0.019439697 -0.34912109 0 0 0 0
0.13964844 -0.019439697 -0.34912109 0 0 0 0
0.14086914 -0.019378662 -0.34814453 0 0 0 0
0.14245605 -0.019378662 -0.34814453 0 0 0 0
0.14416504 -0.019378662 -0.34814453 0 0 0 0
0.14575195 -0.019378662 -0.34814453 0 0 0 0
0.14733887 -0.019378662 -0.34814453 0 0 0 0
0.14941406 -0.019439697 -0.34912109 0 0 0 0
0.15112305 -0.019439697 -0.34912109 0 0 0 0
0.15270996 -0.019439697 -0.34912109 0 0 0 0
0.15429688 -0.019439697 -0.34912109 0 0 0 0
0.15649414 -0.019485474 -0.3503418 0 0 0 0
0.15808105 -0.019485474 -0.3503418 0 0 0 0
0.15966797 -0.019485474 -0.3503418 0 0 0 0
0.16186523 -0.019546509 -0.35131836 0 0 0 0
0.16345215 -0.019546509 -0.35131836 0 0 0 0
0.16564941 -0.019607544 -0.35229492 0 0 0 0
0.16772461 -0.01965332 -0.35327148 0 0 0 0
0.16943359 -0.01965332 -0.35327148 0 0 0 0
0.17102051 -0.01965332 -0.35327148 0 0 0 0
0.17321777 -0.019714355 -0.35424805 0 0 0 0
0.17480469 -0.019714355 -0.35424805 0 0 0 0
0.17651367 -0.019714355 -0.35424805 0 0 0 0
0.17822266 -0.019714355 -0.35424805 0 0 0 0
0.17980957 -0.019714355 -0.35424805 0 0 0 0
0.18151855 -0.019714355 -0.35424805 0 0 0 0
0.18310547 -0.019714355 -0.35424805 0 0 0 0
0.097839355 -0.021972656 -0.36425781 0 0 0 0
0.099243164 -0.021911621 -0.36328125 0 0 0 0
0.10095215 -0.021911621 -0.36328125 0 0 0 0
0.10235596 -0.021865845 -0.36230469 0 0 0 0
0.10406494 -0.021865845 -0.36230469 0 0 0 0
0.10577393 -0.021865845 -0.36230469 0 0 0 0
0.10717773 -0.02180481 -0.36132812 0 0 0 0
0.10858154 -0.021743774 -0.36035156 0 0 0 0
0.11022949 -0.021743774 -0.36035156 0 0 0 0
0.1116333 -0.021682739 -0.359375 0 0 0 0
0.1126709 -0.021560669 -0.35717773 0 0 0 0
0.11437988 -0.021560669 -0.35717773 0 0 0 0
0.11572266 -0.021499634 -0.35620117 0 0 0 0
0.11706543 -0.021438599 -0.35522461 0 0 0 0
0.11871338 -0.021438599 -0.35522461 0 0 0 0
0.12005615 -0.021377563 -0.35424805 0 0 0 0
0.1217041 -0.021377563 -0.35424805 0 0 0 0
0.12304688 -0.021316528 -0.35327148 0 0 0 0
0.12469482 -0.021316528 -0.35327148 0 0 0 0
0.12597656 -0.021255493 -0.35229492 0 0 0 0
0.12756348 -0.021255493 -0.35229492 0 0 0 0
0.12890625 -0.021194458 -0.35131836 0 0 0 0
0.13012695 -0.021133423 -0.3503418 0 0 0 0
0.13183594 -0.021133423 -0.3503418 0 0 0 0
0.13305664 -0.021072388 -0.34912109 0 0 0 0
0.13464355 -0.021072388 -0.34912109 0 0 0 0
0.13635254 -0.021072388 -0.34912109 0 0 0 0
0.13757324 -0.021011353 -0.34814453 0 0 0 0
0.13916016 -0.021011353 -0.34814453 0 0 0 0
0.14086914 -0.021011353 -0.34814453 0 0 0 0
0.14245605 -0.021011353 -0.34814453 0 0 0 0
0.14416504 -0.021011353 -0.34814453 0 0 0 0
0.14575195 -0.021011353 -0.34814453 0 0 0 0
0.14782715 -0.021072388 -0.34912109 0 0 0 0
0.14941406 -0.021072388 -0.34912109 0 0 0 0
0.15112305 -0.021072388 -0.34912109 0 0 0 0
0.15270996 -0.021072388 -0.34912109 0 0 0 0
0.15478516 -0.021133423 -0.3503418 0 0 0 0
0.15649414 -0.021133423 -0.3503418 0 0 0 0
0.15808105 -0.021133423 -0.3503418 0 0 0 0
0.16015625 -0.021194458 -0.35131836 0 0 0 0
0.16186523 -0.021194458 -0.35131836 0 0 0 0
0.16394043 -0.021255493 -0.35229492 0 0 0 0
0.16564941 -0.021255493 -0.35229492 0 0 0 0
0.16772461 -0.021316528 -0.35327148 0 0 0 0
0.16992188 -0.021377563 -0.35424805 0 0 0 0
0.17150879 -0.021377563 -0.35424805 0 0 0 0
0.17321777 -0.021377563 -0.35424805 0 0 0 0
0.17529297 -0.021438599 -0.35522461 0 0 0 0
0.17700195 -0.021438599 -0.35522461 0 0 0 0
0.17871094 -0.021438599 -0.35522461 0 0 0 0
0.18029785 -0.021438599 -0.35522461 0 0 0 0
0.18200684 -0.021438599 -0.35522461 0 0 0 0
0.18371582 -0.021438599 -0.35522461 0 0 0 0
0.096130371 -0.023681641 -0.36425781 0 0 0 0
0.09753418 -0.023620605 -0.36328125 0 0 0 0
0.099243164 -0.023620605 -0.36328125 0 0 0 0
0.10064697 -0.02355957 -0.36230469 0 0 0 0
0.10235596 -0.02355957 -0.36230469 0 0 0 0
0.10375977 -0.023498535 -0.36132812 0 0 0 0
0.10516357 -0.023422241 -0.36035156 0 0 0 0
0.10687256 -0.023422241 -0.36035156 0 0 0 0
0.10827637 -0.023361206 -0.359375 0 0 0 0
0.10961914 -0.023300171 -0.35839844 0 0 0 0
0.11132812 -0.023300171 -0.35839844 0 0 0 0
0.1126709 -0.023239136 -0.35717773 0 0 0 0
0.11401367 -0.023162842 -0.35620117 0 0 0 0
0.11535645 -0.023101807 -0.35522461 0 0 0 0
0.11706543 -0.023101807 -0.35522461 0 0 0 0
0.1184082 -0.023040771 -0.35424805 0 0 0 0
0.12005615 -0.023040771 -0.35424805 0 0 0 0
0.12133789 -0.022964478 -0.35327148 0 0 0 0
0.12304688 -0.022964478 -0.35327148 0 0 0 0
0.12432861 -0.022903442 -0.35229492 0 0 0 0
0.12561035 -0.022842407 -0.35131836 0 0 0 0
0.12719727 -0.022842407 -0.35131836 0 0 0 0
0.12854004 -0.022781372 -0.3503418 0 0 0 0
0.13012695 -0.022781372 -0.3503418 0 0 0 0
0.13146973 -0.022705078 -0.34912109 0 0 0 0
0.13305664 -0.022705078 -0.34912109 0 0 0 0
0.13427734 -0.022644043 -0.34814453 0 0 0 0
0.13598633 -0.022644043 -0.34814453 0 0 0 0
0.13757324 -0.022644043 -0.34814453 0 0 0 0
0.13916016 -0.022644043 -0.34814453 0 0 0 0
0.14086914 -0.022644043 -0.34814453 0 0 0 0
0.14245605 -0.022644043 -0.34814453 0 0 0 0
0.14453125 -0.022705078 -0.34912109 0 0 0 0
0.14611816 -0.022705078 -0.34912109 0 0 0 0
0.14782715 -0.022705078 -0.34912109 0 0 0 0
0.14941406 -0.022705078 -0.34912109 0 0 0 0
0.15112305 -0.022705078 -0.34912109 0 0 0 0
0.15319824 -0.022781372 -0.3503418 0 0 0 0
0.15478516 -0.022781372 -0.3503418 0 0 0 0
0.15649414 -0.022781372 -0.3503418 0 0 0 0
0.15856934 -0.022842407 -0.35131836 0 0 0 0
0.16015625 -0.022842407 -0.35131836 0 0 0 0
0.16235352 -0.022903442 -0.35229492 0 0 0 0
0.16394043 -0.022903442 -0.35229492 0 0 0 0
0.16601562 -0.022964478 -0.35327148 0 0 0 0
0.16772461 -0.022964478 -0.35327148 0 0 0 0
0.16992188 -0.023040771 -0.35424805 0 0 0 0
0.17150879 -0.023040771 -0.35424805 0 0 0 0
0.17370605 -0.023101807 -0.35522461 0 0 0 0
0.17529297 -0.023101807 -0.35522461 0 0 0 0
0.17700195 -0.023101807 -0.35522461 0 0 0 0
0.17871094 -0.023101807 -0.35522461 0 0 0 0
0.18029785 -0.023101807 -0.35522461 0 0 0 0
0.18200684 -0.023101807 -0.35522461 0 0 0 0
0.060394287 -0.024765015 -0.35522461 0 0 0 0
0.062072754 -0.024765015 -0.35522461 0 0 0 0
0.063720703 -0.024765015 -0.35522461 0 0 0 0
0.094421387 -0.025390625 -0.36425781 0 0 0 0
0.096130371 -0.025390625 -0.36425781 0 0 0 0
0.09753418 -0.02532959 -0.36328125 0 0 0 0
0.098999023 -0.025253296 -0.36230469 0 0 0 0
0.10064697 -0.025253296 -0.36230469 0 0 0 0
0.10211182 -0.025192261 -0.36132812 0 0 0 0
0.10351562 -0.025115967 -0.36035156 0 0 0 0
0.1048584 -0.025054932 -0.359375 0 0 0 0
0.10656738 -0.025054932 -0.359375 0 0 0 0
0.10797119 -0.024978638 -0.35839844 0 0 0 0
0.10931396 -0.024902344 -0.35717773 0 0 0 0
0.11102295 -0.024902344 -0.35717773 0 0 0 0
0.11236572 -0.024841309 -0.35620117 0 0 0 0
0.1137085 -0.024765015 -0.35522461 0 0 0 0
0.11535645 -0.024765015 -0.35522461 0 0 0 0
0.11669922 -0.024703979 -0.35424805 0 0 0 0
0.1184082 -0.024703979 -0.35424805 0 0 0 0
0.11968994 -0.024627686 -0.35327148 0 0 0 0
0.12133789 -0.024627686 -0.35327148 0 0 0 0
0.12268066 -0.024551392 -0.35229492 0 0 0 0
0.1239624 -0.024490356 -0.35131836 0 0 0 0
0.12561035 -0.024490356 -0.35131836 0 0 0 0
0.12683105 -0.024414062 -0.3503418 0 0 0 0
0.12854004 -0.024414062 -0.3503418 0 0 0 0
0.12976074 -0.024353027 -0.34912109 0 0 0 0
0.13146973 -0.024353027 -0.34912109 0 0 0 0
0.13269043 -0.024276733 -0.34814453 0 0 0 0
0.13427734 -0.024276733 -0.34814453 0 0 0 0
0.13598633 -0.024276733 -0.34814453 0 0 0 0
0.13757324 -0.024276733 -0.34814453 0 0 0 0
0.13916016 -0.024276733 -0.34814453 0 0 0 0
0.14123535 -0.024353027 -0.34912109 0 0 0 0
0.14294434 -0.024353027 -0.34912109 0 0 0 0
0.14453125 -0.024353027 -0.34912109 0 0 0 0
0.14611816 -0.024353027 -0.34912109 0 0 0 0
0.14782715 -0.024353027 -0.34912109 0 0 0 0
0.14941406 -0.024353027 -0.34912109 0 0 0 0
0.15148926 -0.024414062 -0.3503418 0 0 0 0
0.15319824 -0.024414062 -0.3503418 0 0 0 0
0.15478516 -0.024414062 -0.3503418 0 0 0 0
0.15686035 -0.024490356 -0.35131836 0 0 0 0
0.15856934 -0.024490356 -0.35131836 0 0 0 0
0.16064453 -0.024551392 -0.35229492 0 0 0 0
0.16235352 -0.024551392 -0.35229492 0 0 0 0
0.16442871 -0.024627686 -0.35327148 0 0 0 0
0.16601562 -0.024627686 -0.35327148 0 0 0 0
0.16821289 -0.024703979 -0.35424805 0 0 0 0
0.16992188 -0.024703979 -0.35424805 0 0 0 0
0.17199707 -0.024765015 -0.35522461 0 0 0 0
0.17370605 -0.024765015 -0.35522461 0 0 0 0
0.17529297 -0.024765015 -0.35522461 0 0 0 0
0.17700195 -0.024765015 -0.35522461 0 0 0 0
0.17871094 -0.024765015 -0.35522461 0 0 0 0
0.18029785 -0.024765015 -0.35522461 0 0 0 0
0.050262451 -0.026367188 -0.35424805 0 0 0 0
0.0519104 -0.026367188 -0.35424805 0 0 0 0
0.053588867 -0.026367188 -0.35424805 0 0 0 0
0.055236816 -0.026367188 -0.35424805 0 0 0 0
0.056915283 -0.026367188 -0.35424805 0 0 0 0
0.058563232 -0.026367188 -0.35424805 0 0 0 0
0.060394287 -0.026428223 -0.35522461 0 0 0 0
0.062072754 -0.026428223 -0.35522461 0 0 0 0
0.063720703 -0.026428223 -0.35522461 0 0 0 0
0.065368652 -0.026428223 -0.35522461 0 0 0 0
0.092956543 -0.027175903 -0.36523438 0 0 0 0
0.094421387 -0.027099609 -0.36425781 0 0 0 0
0.095825195 -0.027038574 -0.36328125 0 0 0 0
0.097290039 -0.02696228 -0.36230469 0 0 0 0
0.098999023 -0.02696228 -0.36230469 0 0 0 0
0.10040283 -0.026885986 -0.36132812 0 0 0 0
0.10180664 -0.026809692 -0.36035156 0 0 0 0
0.10321045 -0.026733398 -0.359375 0 0 0 0
0.10461426 -0.026657104 -0.35839844 0 0 0 0
0.10626221 -0.026657104 -0.35839844 0 0 0 0
0.10766602 -0.026580811 -0.35717773 0 0 0 0
0.10900879 -0.026504517 -0.35620117 0 0 0 0
0.11071777 -0.026504517 -0.35620117 0 0 0 0
0.11206055 -0.026428223 -0.35522461 0 0 0 0
0.1137085 -0.026428223 -0.35522461 0 0 0 0
0.11505127 -0.026367188 -0.35424805 0 0 0 0
0.11669922 -0.026367188 -0.35424805 0 0 0 0
0.11804199 -0.026290894 -0.35327148 0 0 0 0
0.11968994 -0.026290894 -0.35327148 0 0 0 0
0.12103271 -0.0262146 -0.35229492 0 0 0 0
0.12268066 -0.0262146 -0.35229492 0 0 0 0
0.1239624 -0.026138306 -0.35131836 0 0 0 0
0.12524414 -0.026062012 -0.3503418 0 0 0 0
0.12683105 -0.026062012 -0.3503418 0 0 0 0
0.12817383 -0.025985718 -0.34912109 0 0 0 0
0.12976074 -0.025985718 -0.34912109 0 0 0 0
0.13098145 -0.025909424 -0.34814453 0 0 0 0
0.13269043 -0.025909424 -0.34814453 0 0 0 0
0.13427734 -0.025909424 -0.34814453 0 0 0 0
0.13598633 -0.025909424 -0.34814453 0 0 0 0
0.13757324 -0.025909424 -0.34814453 0 0 0 0
0.13916016 -0.025909424 -0.34814453 0 0 0 0
0.14123535 -0.025985718 -0.34912109 0 0 0 0
0.14294434 -0.025985718 -0.34912109 0 0 0 0
0.14453125 -0.025985718 -0.34912109 0 0 0 0
0.14611816 -0.025985718 -0.34912109 0 0 0 0
0.14782715 -0.025985718 -0.34912109 0 0 0 0
0.14990234 -0.026062012 -0.3503418 0 0 0 0
0.15148926 -0.026062012 -0.3503418 0 0 0 0
