ply
format ascii 1.0
comment PCL generated
element vertex 1071
property float x
property float y
property float z
property float nx
property float ny
property float nz
property float curvature
element face 0
element camera 0
property float view_px
property float view_py
property float view_pz
property float x_axisx
property float x_axisy
property float x_axisz
property float y_axisx
property float y_axisy
property float y_axisz
property float z_axisx
property float z_axisy
property float z_axisz
property float focal
property float scalex
property float scaley
property float centerx
property float centery
property int viewportx
property int viewporty
property float k1
property float k2
end_header
0.014816284 0.035247803 -0.2578125 0 0 0 0
0.02394104 0.048950195 -0.35839844 0 0 0 0
0.025619507 0.048950195 -0.35839844 0 0 0 0
0.027297974 0.048950195 -0.35839844 0 0 0 0
0.028991699 0.048950195 -0.35839844 0 0 0 0
0.030578613 0.048828125 -0.35717773 0 0 0 0
0.03225708 0.048828125 -0.35717773 0 0 0 0
0.033935547 0.048828125 -0.35717773 0 0 0 0
0.035614014 0.048828125 -0.35717773 0 0 0 0
0.037261963 0.048828125 -0.35717773 0 0 0 0
0.03894043 0.048828125 -0.35717773 0 0 0 0
0.040618896 0.048828125 -0.35717773 0 0 0 0
0.042297363 0.048828125 -0.35717773 0 0 0 0
0.04397583 0.048828125 -0.35717773 0 0 0 0
0.045654297 0.048828125 -0.35717773 0 0 0 0
0.047332764 0.048828125 -0.35717773 0 0 0 0
0.04901123 0.048828125 -0.35717773 0 0 0 0
0.050689697 0.048828125 -0.35717773 0 0 0 0
0.052368164 0.048828125 -0.35717773 0 0 0 0
0.054046631 0.048828125 -0.35717773 0 0 0 0
0.055725098 0.048828125 -0.35717773 0 0 0 0
0.057403564 0.048828125 -0.35717773 0 0 0 0
0.059051514 0.048828125 -0.35717773 0 0 0 0
0.060577393 0.048675537 -0.35620117 0 0 0 0
0.062255859 0.048675537 -0.35620117 0 0 0 0
0.063903809 0.048675537 -0.35620117 0 0 0 0
0.065551758 0.048675537 -0.35620117 0 0 0 0
0.067260742 0.048675537 -0.35620117 0 0 0 0
0.068908691 0.048675537 -0.35620117 0 0 0 0
0.070556641 0.048675537 -0.35620117 0 0 0 0
0.072265625 0.048675537 -0.35620117 0 0 0 0
0.073913574 0.048675537 -0.35620117 0 0 0 0
0.075378418 0.048553467 -0.35522461 0 0 0 0
0.077026367 0.048553467 -0.35522461 0 0 0 0
0.078491211 0.048400879 -0.35424805 0 0 0 0
0.08013916 0.048400879 -0.35424805 0 0 0 0
0.081848145 0.048400879 -0.35424805 0 0 0 0
0.083496094 0.048400879 -0.35424805 0 0 0 0
0.085144043 0.048400879 -0.35424805 0 0 0 0
0.086791992 0.048400879 -0.35424805 0 0 0 0
0.088745117 0.048553467 -0.35522461 0 0 0 0
0.090393066 0.048553467 -0.35522461 0 0 0 0
0.092285156 0.048675537 -0.35620117 0 0 0 0
0.093994141 0.048675537 -0.35620117 0 0 0 0
0.09564209 0.048675537 -0.35620117 0 0 0 0
0.097351074 0.048675537 -0.35620117 0 0 0 0
0.098999023 0.048675537 -0.35620117 0 0 0 0
0.10095215 0.048828125 -0.35717773 0 0 0 0
0.1026001 0.048828125 -0.35717773 0 0 0 0
0.10430908 0.048828125 -0.35717773 0 0 0 0
0.10595703 0.048828125 -0.35717773 0 0 0 0
0.10766602 0.048828125 -0.35717773 0 0 0 0
0.10931396 0.048828125 -0.35717773 0 0 0 0
0.11102295 0.048828125 -0.35717773 0 0 0 0
0.1126709 0.048828125 -0.35717773 0 0 0 0
0.11468506 0.048950195 -0.35839844 0 0 0 0
0.11633301 0.048950195 -0.35839844 0 0 0 0
-0.07623291 0.047943115 -0.36328125 0 0 0 0
-0.074707031 0.048065186 -0.36425781 0 0 0 0
-0.072998047 0.048065186 -0.36425781 0 0 0 0
-0.071289062 0.048065186 -0.36425781 0 0 0 0
-0.069580078 0.048065186 -0.36425781 0 0 0 0
-0.067871094 0.048065186 -0.36425781 0 0 0 0
-0.066162109 0.048065186 -0.36425781 0 0 0 0
-0.064453125 0.048065186 -0.36425781 0 0 0 0
-0.062744141 0.048065186 -0.36425781 0 0 0 0
-0.061065674 0.048065186 -0.36425781 0 0 0 0
-0.052886963 0.046875 -0.35522461 0 0 0 0
-0.051239014 0.046875 -0.35522461 0 0 0 0
-0.049560547 0.046875 -0.35522461 0 0 0 0
-0.047912598 0.046875 -0.35522461 0 0 0 0
-0.046234131 0.046875 -0.35522461 0 0 0 0
-0.044555664 0.046875 -0.35522461 0 0 0 0
-0.042907715 0.046875 -0.35522461 0 0 0 0
-0.041229248 0.046875 -0.35522461 0 0 0 0
-0.039581299 0.046875 -0.35522461 0 0 0 0
-0.003118515 0.031921387 -0.24194336 0 0 0 0
-0.0019836426 0.031921387 -0.24194336 0 0 0 0
-0.00085067749 0.031921387 -0.24194336 0 0 0 0
0.00028371811 0.031921387 -0.24194336 0 0 0 0
0.0014181137 0.031921387 -0.24194336 0 0 0 0
0.0025634766 0.032043457 -0.24291992 0 0 0 0
0.0037021637 0.032043457 -0.24291992 0 0 0 0
0.0048408508 0.032043457 -0.24291992 0 0 0 0
0.011184692 0.0340271 -0.2578125 0 0 0 0
0.012397766 0.0340271 -0.2578125 0 0 0 0
0.01361084 0.0340271 -0.2578125 0 0 0 0
0.014816284 0.0340271 -0.2578125 0 0 0 0
0.016021729 0.0340271 -0.2578125 0 0 0 0
0.02394104 0.047271729 -0.35839844 0 0 0 0
0.025619507 0.047271729 -0.35839844 0 0 0 0
0.027297974 0.047271729 -0.35839844 0 0 0 0
0.028900146 0.047149658 -0.35717773 0 0 0 0
0.030578613 0.047149658 -0.35717773 0 0 0 0
0.03225708 0.047149658 -0.35717773 0 0 0 0
0.033935547 0.047149658 -0.35717773 0 0 0 0
0.035614014 0.047149658 -0.35717773 0 0 0 0
0.037261963 0.047149658 -0.35717773 0 0 0 0
0.03894043 0.047149658 -0.35717773 0 0 0 0
0.040618896 0.047149658 -0.35717773 0 0 0 0
0.042297363 0.047149658 -0.35717773 0 0 0 0
0.04397583 0.047149658 -0.35717773 0 0 0 0
0.045654297 0.047149658 -0.35717773 0 0 0 0
0.047332764 0.047149658 -0.35717773 0 0 0 0
0.04901123 0.047149658 -0.35717773 0 0 0 0
0.050689697 0.047149658 -0.35717773 0 0 0 0
0.052368164 0.047149658 -0.35717773 0 0 0 0
0.054046631 0.047149658 -0.35717773 0 0 0 0
0.055725098 0.047149658 -0.35717773 0 0 0 0
0.057403564 0.047149658 -0.35717773 0 0 0 0
0.059051514 0.047149658 -0.35717773 0 0 0 0
0.06072998 0.047149658 -0.35717773 0 0 0 0
0.062255859 0.04699707 -0.35620117 0 0 0 0
0.063903809 0.04699707 -0.35620117 0 0 0 0
0.065551758 0.04699707 -0.35620117 0 0 0 0
0.067260742 0.04699707 -0.35620117 0 0 0 0
0.068908691 0.04699707 -0.35620117 0 0 0 0
0.070556641 0.04699707 -0.35620117 0 0 0 0
0.072265625 0.04699707 -0.35620117 0 0 0 0
0.073913574 0.04699707 -0.35620117 0 0 0 0
0.075622559 0.04699707 -0.35620117 0 0 0 0
0.077026367 0.046875 -0.35522461 0 0 0 0
0.078735352 0.046875 -0.35522461 0 0 0 0
0.080383301 0.046875 -0.35522461 0 0 0 0
0.081848145 0.04675293 -0.35424805 0 0 0 0
0.083496094 0.04675293 -0.35424805 0 0 0 0
0.085144043 0.04675293 -0.35424805 0 0 0 0
0.087036133 0.046875 -0.35522461 0 0 0 0
0.088745117 0.046875 -0.35522461 0 0 0 0
0.090393066 0.046875 -0.35522461 0 0 0 0
0.092285156 0.04699707 -0.35620117 0 0 0 0
0.093994141 0.04699707 -0.35620117 0 0 0 0
0.09564209 0.04699707 -0.35620117 0 0 0 0
0.097351074 0.04699707 -0.35620117 0 0 0 0
0.098999023 0.04699707 -0.35620117 0 0 0 0
0.10064697 0.04699707 -0.35620117 0 0 0 0
0.1026001 0.047149658 -0.35717773 0 0 0 0
0.10430908 0.047149658 -0.35717773 0 0 0 0
0.10595703 0.047149658 -0.35717773 0 0 0 0
0.10766602 0.047149658 -0.35717773 0 0 0 0
0.10931396 0.047149658 -0.35717773 0 0 0 0
0.11102295 0.047149658 -0.35717773 0 0 0 0
0.1126709 0.047149658 -0.35717773 0 0 0 0
0.11468506 0.047271729 -0.35839844 0 0 0 0
-0.077941895 0.046234131 -0.36328125 0 0 0 0
-0.07623291 0.046234131 -0.36328125 0 0 0 0
-0.074523926 0.046234131 -0.36328125 0 0 0 0
-0.072814941 0.046234131 -0.36328125 0 0 0 0
-0.071105957 0.046234131 -0.36328125 0 0 0 0
-0.069396973 0.046234131 -0.36328125 0 0 0 0
-0.067687988 0.046234131 -0.36328125 0 0 0 0
-0.066040039 0.046234131 -0.36328125 0 0 0 0
-0.064331055 0.046234131 -0.36328125 0 0 0 0
-0.06262207 0.046234131 -0.36328125 0 0 0 0
-0.060913086 0.046234131 -0.36328125 0 0 0 0
-0.05456543 0.045196533 -0.35522461 0 0 0 0
-0.052886963 0.045196533 -0.35522461 0 0 0 0
-0.051239014 0.045196533 -0.35522461 0 0 0 0
-0.049560547 0.045196533 -0.35522461 0 0 0 0
-0.047912598 0.045196533 -0.35522461 0 0 0 0
-0.046234131 0.045196533 -0.35522461 0 0 0 0
-0.044555664 0.045196533 -0.35522461 0 0 0 0
-0.042907715 0.045196533 -0.35522461 0 0 0 0
-0.041229248 0.045196533 -0.35522461 0 0 0 0
-0.039581299 0.045196533 -0.35522461 0 0 0 0
-0.0042533875 0.030776978 -0.24194336 0 0 0 0
-0.003118515 0.030776978 -0.24194336 0 0 0 0
-0.0019836426 0.030776978 -0.24194336 0 0 0 0
-0.00085067749 0.030776978 -0.24194336 0 0 0 0
0.00028371811 0.030776978 -0.24194336 0 0 0 0
0.0014181137 0.030776978 -0.24194336 0 0 0 0
0.0025520325 0.030776978 -0.24194336 0 0 0 0
0.0036869049 0.030776978 -0.24194336 0 0 0 0
0.0048217773 0.030776978 -0.24194336 0 0 0 0
0.0059547424 0.030776978 -0.24194336 0 0 0 0
0.012397766 0.032806396 -0.2578125 0 0 0 0
0.01361084 0.032806396 -0.2578125 0 0 0 0
0.014816284 0.032806396 -0.2578125 0 0 0 0
0.016021729 0.032806396 -0.2578125 0 0 0 0
0.025619507 0.045593262 -0.35839844 0 0 0 0
0.02722168 0.045471191 -0.35717773 0 0 0 0
0.028900146 0.045471191 -0.35717773 0 0 0 0
0.030578613 0.045471191 -0.35717773 0 0 0 0
0.03225708 0.045471191 -0.35717773 0 0 0 0
0.033935547 0.045471191 -0.35717773 0 0 0 0
0.035614014 0.045471191 -0.35717773 0 0 0 0
0.037261963 0.045471191 -0.35717773 0 0 0 0
0.03894043 0.045471191 -0.35717773 0 0 0 0
0.040618896 0.045471191 -0.35717773 0 0 0 0
0.042297363 0.045471191 -0.35717773 0 0 0 0
0.04397583 0.045471191 -0.35717773 0 0 0 0
0.045654297 0.045471191 -0.35717773 0 0 0 0
0.047332764 0.045471191 -0.35717773 0 0 0 0
0.04901123 0.045471191 -0.35717773 0 0 0 0
0.050689697 0.045471191 -0.35717773 0 0 0 0
0.052368164 0.045471191 -0.35717773 0 0 0 0
0.054046631 0.045471191 -0.35717773 0 0 0 0
0.055725098 0.045471191 -0.35717773 0 0 0 0
0.057403564 0.045471191 -0.35717773 0 0 0 0
0.059051514 0.045471191 -0.35717773 0 0 0 0
0.06072998 0.045471191 -0.35717773 0 0 0 0
0.062255859 0.045349121 -0.35620117 0 0 0 0
0.063903809 0.045349121 -0.35620117 0 0 0 0
0.065551758 0.045349121 -0.35620117 0 0 0 0
0.067260742 0.045349121 -0.35620117 0 0 0 0
0.068908691 0.045349121 -0.35620117 0 0 0 0
0.070556641 0.045349121 -0.35620117 0 0 0 0
0.072265625 0.045349121 -0.35620117 0 0 0 0
0.073913574 0.045349121 -0.35620117 0 0 0 0
0.075622559 0.045349121 -0.35620117 0 0 0 0
0.077270508 0.045349121 -0.35620117 0 0 0 0
0.078735352 0.045196533 -0.35522461 0 0 0 0
0.080383301 0.045196533 -0.35522461 0 0 0 0
0.08203125 0.045196533 -0.35522461 0 0 0 0
0.083740234 0.045196533 -0.35522461 0 0 0 0
0.085388184 0.045196533 -0.35522461 0 0 0 0
0.087036133 0.045196533 -0.35522461 0 0 0 0
0.088745117 0.045196533 -0.35522461 0 0 0 0
0.090393066 0.045196533 -0.35522461 0 0 0 0
0.092285156 0.045349121 -0.35620117 0 0 0 0
0.093994141 0.045349121 -0.35620117 0 0 0 0
0.09564209 0.045349121 -0.35620117 0 0 0 0
0.097351074 0.045349121 -0.35620117 0 0 0 0
0.098999023 0.045349121 -0.35620117 0 0 0 0
0.10064697 0.045349121 -0.35620117 0 0 0 0
0.1026001 0.045471191 -0.35717773 0 0 0 0
0.10430908 0.045471191 -0.35717773 0 0 0 0
0.10595703 0.045471191 -0.35717773 0 0 0 0
0.10766602 0.045471191 -0.35717773 0 0 0 0
0.10931396 0.045471191 -0.35717773 0 0 0 0
0.11102295 0.045471191 -0.35717773 0 0 0 0
-0.079650879 0.044525146 -0.36328125 0 0 0 0
-0.077941895 0.044525146 -0.36328125 0 0 0 0
-0.07623291 0.044525146 -0.36328125 0 0 0 0
-0.074523926 0.044525146 -0.36328125 0 0 0 0
-0.072814941 0.044525146 -0.36328125 0 0 0 0
-0.071105957 0.044525146 -0.36328125 0 0 0 0
-0.069396973 0.044525146 -0.36328125 0 0 0 0
-0.067687988 0.044525146 -0.36328125 0 0 0 0
-0.066040039 0.044525146 -0.36328125 0 0 0 0
-0.064331055 0.044525146 -0.36328125 0 0 0 0
-0.062438965 0.044403076 -0.36230469 0 0 0 0
-0.060394287 0.044158936 -0.36035156 0 0 0 0
-0.058227539 0.043792725 -0.35717773 0 0 0 0
-0.056396484 0.043670654 -0.35620117 0 0 0 0
-0.05456543 0.043548584 -0.35522461 0 0 0 0
-0.052886963 0.043548584 -0.35522461 0 0 0 0
-0.051239014 0.043548584 -0.35522461 0 0 0 0
-0.049560547 0.043548584 -0.35522461 0 0 0 0
-0.047912598 0.043548584 -0.35522461 0 0 0 0
-0.046234131 0.043548584 -0.35522461 0 0 0 0
-0.044555664 0.043548584 -0.35522461 0 0 0 0
-0.042907715 0.043548584 -0.35522461 0 0 0 0
-0.041351318 0.043670654 -0.35620117 0 0 0 0
-0.0053863525 0.029647827 -0.24194336 0 0 0 0
-0.0042533875 0.029647827 -0.24194336 0 0 0 0
-0.003118515 0.029647827 -0.24194336 0 0 0 0
-0.0019836426 0.029647827 -0.24194336 0 0 0 0
-0.00085067749 0.029647827 -0.24194336 0 0 0 0
0.00028371811 0.029647827 -0.24194336 0 0 0 0
0.0014181137 0.029647827 -0.24194336 0 0 0 0
0.0025520325 0.029647827 -0.24194336 0 0 0 0
0.0036869049 0.029647827 -0.24194336 0 0 0 0
0.0048217773 0.029647827 -0.24194336 0 0 0 0
0.0059547424 0.029647827 -0.24194336 0 0 0 0
0.0070610046 0.029525757 -0.24084473 0 0 0 0
0.0081863403 0.029525757 -0.24084473 0 0 0 0
0.0093536377 0.029647827 -0.24194336 0 0 0 0
0.014816284 0.031616211 -0.2578125 0 0 0 0
0.016021729 0.031616211 -0.2578125 0 0 0 0
0.017166138 0.031494141 -0.25683594 0 0 0 0
0.025558472 0.043792725 -0.35717773 0 0 0 0
0.02722168 0.043792725 -0.35717773 0 0 0 0
0.028900146 0.043792725 -0.35717773 0 0 0 0
0.030578613 0.043792725 -0.35717773 0 0 0 0
0.03225708 0.043792725 -0.35717773 0 0 0 0
0.033935547 0.043792725 -0.35717773 0 0 0 0
0.035614014 0.043792725 -0.35717773 0 0 0 0
0.037261963 0.043792725 -0.35717773 0 0 0 0
0.03894043 0.043792725 -0.35717773 0 0 0 0
0.040618896 0.043792725 -0.35717773 0 0 0 0
0.042297363 0.043792725 -0.35717773 0 0 0 0
0.04397583 0.043792725 -0.35717773 0 0 0 0
0.045654297 0.043792725 -0.35717773 0 0 0 0
0.047332764 0.043792725 -0.35717773 0 0 0 0
0.04901123 0.043792725 -0.35717773 0 0 0 0
0.050689697 0.043792725 -0.35717773 0 0 0 0
0.052368164 0.043792725 -0.35717773 0 0 0 0
0.054046631 0.043792725 -0.35717773 0 0 0 0
0.055725098 0.043792725 -0.35717773 0 0 0 0
0.057403564 0.043792725 -0.35717773 0 0 0 0
0.059051514 0.043792725 -0.35717773 0 0 0 0
0.06072998 0.043792725 -0.35717773 0 0 0 0
0.062408447 0.043792725 -0.35717773 0 0 0 0
0.064086914 0.043792725 -0.35717773 0 0 0 0
0.065734863 0.043792725 -0.35717773 0 0 0 0
0.067260742 0.043670654 -0.35620117 0 0 0 0
0.068908691 0.043670654 -0.35620117 0 0 0 0
0.070556641 0.043670654 -0.35620117 0 0 0 0
0.072265625 0.043670654 -0.35620117 0 0 0 0
0.073913574 0.043670654 -0.35620117 0 0 0 0
0.075622559 0.043670654 -0.35620117 0 0 0 0
0.077270508 0.043670654 -0.35620117 0 0 0 0
0.078918457 0.043670654 -0.35620117 0 0 0 0
0.080383301 0.043548584 -0.35522461 0 0 0 0
0.08203125 0.043548584 -0.35522461 0 0 0 0
0.083740234 0.043548584 -0.35522461 0 0 0 0
0.085388184 0.043548584 -0.35522461 0 0 0 0
0.087036133 0.043548584 -0.35522461 0 0 0 0
0.088745117 0.043548584 -0.35522461 0 0 0 0
0.090637207 0.043670654 -0.35620117 0 0 0 0
0.092285156 0.043670654 -0.35620117 0 0 0 0
0.093994141 0.043670654 -0.35620117 0 0 0 0
0.09564209 0.043670654 -0.35620117 0 0 0 0
0.097351074 0.043670654 -0.35620117 0 0 0 0
0.098999023 0.043670654 -0.35620117 0 0 0 0
0.10064697 0.043670654 -0.35620117 0 0 0 0
0.10235596 0.043670654 -0.35620117 0 0 0 0
0.10430908 0.043792725 -0.35717773 0 0 0 0
0.10595703 0.043792725 -0.35717773 0 0 0 0
0.10766602 0.043792725 -0.35717773 0 0 0 0
0.10931396 0.043792725 -0.35717773 0 0 0 0
-0.081359863 0.042816162 -0.36328125 0 0 0 0
-0.079650879 0.042816162 -0.36328125 0 0 0 0
-0.077941895 0.042816162 -0.36328125 0 0 0 0
-0.07623291 0.042816162 -0.36328125 0 0 0 0
-0.074523926 0.042816162 -0.36328125 0 0 0 0
-0.072814941 0.042816162 -0.36328125 0 0 0 0
-0.071105957 0.042816162 -0.36328125 0 0 0 0
-0.069396973 0.042816162 -0.36328125 0 0 0 0
-0.067687988 0.042816162 -0.36328125 0 0 0 0
-0.065856934 0.042694092 -0.36230469 0 0 0 0
-0.064147949 0.042694092 -0.36230469 0 0 0 0
-0.062438965 0.042694092 -0.36230469 0 0 0 0
-0.060241699 0.042358398 -0.359375 0 0 0 0
-0.058227539 0.042114258 -0.35717773 0 0 0 0
-0.056396484 0.041992188 -0.35620117 0 0 0 0
-0.05456543 0.041870117 -0.35522461 0 0 0 0
-0.052886963 0.041870117 -0.35522461 0 0 0 0
-0.051239014 0.041870117 -0.35522461 0 0 0 0
-0.047912598 0.041870117 -0.35522461 0 0 0 0
-0.044677734 0.041992188 -0.35620117 0 0 0 0
-0.0076560974 0.028503418 -0.24194336 0 0 0 0
-0.0065231323 0.028503418 -0.24194336 0 0 0 0
-0.0053863525 0.028503418 -0.24194336 0 0 0 0
-0.0042533875 0.028503418 -0.24194336 0 0 0 0
-0.003118515 0.028503418 -0.24194336 0 0 0 0
-0.0019760132 0.028396606 -0.24084473 0 0 0 0
-0.00084686279 0.028396606 -0.24084473 0 0 0 0
0.00028252602 0.028396606 -0.24084473 0 0 0 0
0.0014123917 0.028396606 -0.24084473 0 0 0 0
0.0025405884 0.028396606 -0.24084473 0 0 0 0
0.0036716461 0.028396606 -0.24084473 0 0 0 0
0.0047988892 0.028396606 -0.24084473 0 0 0 0
0.0059318542 0.028396606 -0.24084473 0 0 0 0
0.0070610046 0.028396606 -0.24084473 0 0 0 0
0.0081863403 0.028396606 -0.24084473 0 0 0 0
0.0093154907 0.028396606 -0.24084473 0 0 0 0
0.010444641 0.028396606 -0.24084473 0 0 0 0
0.014762878 0.030288696 -0.25683594 0 0 0 0
0.016021729 0.030410767 -0.2578125 0 0 0 0
0.017227173 0.030410767 -0.2578125 0 0 0 0
0.028900146 0.042114258 -0.35717773 0 0 0 0
0.030578613 0.042114258 -0.35717773 0 0 0 0
0.03225708 0.042114258 -0.35717773 0 0 0 0
0.033935547 0.042114258 -0.35717773 0 0 0 0
0.035614014 0.042114258 -0.35717773 0 0 0 0
0.037261963 0.042114258 -0.35717773 0 0 0 0
0.03894043 0.042114258 -0.35717773 0 0 0 0
0.040618896 0.042114258 -0.35717773 0 0 0 0
0.042297363 0.042114258 -0.35717773 0 0 0 0
0.04397583 0.042114258 -0.35717773 0 0 0 0
0.045654297 0.042114258 -0.35717773 0 0 0 0
0.047332764 0.042114258 -0.35717773 0 0 0 0
0.04901123 0.042114258 -0.35717773 0 0 0 0
0.050689697 0.042114258 -0.35717773 0 0 0 0
0.052368164 0.042114258 -0.35717773 0 0 0 0
0.054046631 0.042114258 -0.35717773 0 0 0 0
0.055725098 0.042114258 -0.35717773 0 0 0 0
0.057403564 0.042114258 -0.35717773 0 0 0 0
0.059051514 0.042114258 -0.35717773 0 0 0 0
0.06072998 0.042114258 -0.35717773 0 0 0 0
0.062408447 0.042114258 -0.35717773 0 0 0 0
0.064086914 0.042114258 -0.35717773 0 0 0 0
0.065734863 0.042114258 -0.35717773 0 0 0 0
0.067443848 0.042114258 -0.35717773 0 0 0 0
0.069091797 0.042114258 -0.35717773 0 0 0 0
0.070800781 0.042114258 -0.35717773 0 0 0 0
0.072265625 0.041992188 -0.35620117 0 0 0 0
0.073913574 0.041992188 -0.35620117 0 0 0 0
0.075622559 0.041992188 -0.35620117 0 0 0 0
0.077270508 0.041992188 -0.35620117 0 0 0 0
0.078918457 0.041992188 -0.35620117 0 0 0 0
0.080627441 0.041992188 -0.35620117 0 0 0 0
0.082275391 0.041992188 -0.35620117 0 0 0 0
0.08392334 0.041992188 -0.35620117 0 0 0 0
0.085632324 0.041992188 -0.35620117 0 0 0 0
0.087280273 0.041992188 -0.35620117 0 0 0 0
0.088989258 0.041992188 -0.35620117 0 0 0 0
0.090637207 0.041992188 -0.35620117 0 0 0 0
0.092285156 0.041992188 -0.35620117 0 0 0 0
0.093994141 0.041992188 -0.35620117 0 0 0 0
0.09564209 0.041992188 -0.35620117 0 0 0 0
0.097351074 0.041992188 -0.35620117 0 0 0 0
0.098999023 0.041992188 -0.35620117 0 0 0 0
0.10064697 0.041992188 -0.35620117 0 0 0 0
0.10235596 0.041992188 -0.35620117 0 0 0 0
0.10430908 0.042114258 -0.35717773 0 0 0 0
0.10595703 0.042114258 -0.35717773 0 0 0 0
0.10766602 0.042114258 -0.35717773 0 0 0 0
-0.081359863 0.041107178 -0.36328125 0 0 0 0
-0.079650879 0.041107178 -0.36328125 0 0 0 0
-0.077697754 0.041015625 -0.36230469 0 0 0 0
-0.076049805 0.041015625 -0.36230469 0 0 0 0
-0.07434082 0.041015625 -0.36230469 0 0 0 0
-0.072631836 0.041015625 -0.36230469 0 0 0 0
-0.071105957 0.041107178 -0.36328125 0 0 0 0
-0.069396973 0.041107178 -0.36328125 0 0 0 0
-0.067687988 0.041107178 -0.36328125 0 0 0 0
-0.065856934 0.041015625 -0.36230469 0 0 0 0
-0.064147949 0.041015625 -0.36230469 0 0 0 0
-0.061737061 0.040557861 -0.35839844 0 0 0 0
-0.059906006 0.040435791 -0.35717773 0 0 0 0
-0.058074951 0.040313721 -0.35620117 0 0 0 0
-0.056396484 0.040313721 -0.35620117 0 0 0 0
-0.05456543 0.040222168 -0.35522461 0 0 0 0
-0.0099639893 0.027496338 -0.24291992 0 0 0 0
-0.0088272095 0.027496338 -0.24291992 0 0 0 0
-0.0076560974 0.027374268 -0.24194336 0 0 0 0
-0.0065231323 0.027374268 -0.24194336 0 0 0 0
-0.0053863525 0.027374268 -0.24194336 0 0 0 0
-0.0042533875 0.027374268 -0.24194336 0 0 0 0
-0.0031051636 0.027267456 -0.24084473 0 0 0 0
-0.0019760132 0.027267456 -0.24084473 0 0 0 0
-0.00084686279 0.027267456 -0.24084473 0 0 0 0
0.00028252602 0.027267456 -0.24084473 0 0 0 0
0.0014123917 0.027267456 -0.24084473 0 0 0 0
0.0025405884 0.027267456 -0.24084473 0 0 0 0
0.0036716461 0.027267456 -0.24084473 0 0 0 0
0.0047988892 0.027267456 -0.24084473 0 0 0 0
0.0059318542 0.027267456 -0.24084473 0 0 0 0
0.0070610046 0.027267456 -0.24084473 0 0 0 0
0.0081863403 0.027267456 -0.24084473 0 0 0 0
0.0093154907 0.027267456 -0.24084473 0 0 0 0
0.010444641 0.027267456 -0.24084473 0 0 0 0
0.011627197 0.027374268 -0.24194336 0 0 0 0
0.015960693 0.029083252 -0.25683594 0 0 0 0
0.017227173 0.029190063 -0.2578125 0 0 0 0
0.018447876 0.029190063 -0.2578125 0 0 0 0
0.028823853 0.040313721 -0.35620117 0 0 0 0
0.030487061 0.040313721 -0.35620117 0 0 0 0
0.032165527 0.040313721 -0.35620117 0 0 0 0
0.033935547 0.040435791 -0.35717773 0 0 0 0
0.035614014 0.040435791 -0.35717773 0 0 0 0
0.037261963 0.040435791 -0.35717773 0 0 0 0
0.03894043 0.040435791 -0.35717773 0 0 0 0
0.040618896 0.040435791 -0.35717773 0 0 0 0
0.042297363 0.040435791 -0.35717773 0 0 0 0
0.04397583 0.040435791 -0.35717773 0 0 0 0
0.045654297 0.040435791 -0.35717773 0 0 0 0
0.047332764 0.040435791 -0.35717773 0 0 0 0
0.04901123 0.040435791 -0.35717773 0 0 0 0
0.050689697 0.040435791 -0.35717773 0 0 0 0
0.052368164 0.040435791 -0.35717773 0 0 0 0
0.054046631 0.040435791 -0.35717773 0 0 0 0
0.055725098 0.040435791 -0.35717773 0 0 0 0
0.057403564 0.040435791 -0.35717773 0 0 0 0
0.059051514 0.040435791 -0.35717773 0 0 0 0
0.06072998 0.040435791 -0.35717773 0 0 0 0
0.062408447 0.040435791 -0.35717773 0 0 0 0
0.064086914 0.040435791 -0.35717773 0 0 0 0
0.065734863 0.040435791 -0.35717773 0 0 0 0
0.067443848 0.040435791 -0.35717773 0 0 0 0
0.069091797 0.040435791 -0.35717773 0 0 0 0
0.070800781 0.040435791 -0.35717773 0 0 0 0
0.072265625 0.040313721 -0.35620117 0 0 0 0
0.073913574 0.040313721 -0.35620117 0 0 0 0
0.075622559 0.040313721 -0.35620117 0 0 0 0
0.077270508 0.040313721 -0.35620117 0 0 0 0
0.078918457 0.040313721 -0.35620117 0 0 0 0
0.080627441 0.040313721 -0.35620117 0 0 0 0
0.082275391 0.040313721 -0.35620117 0 0 0 0
0.08392334 0.040313721 -0.35620117 0 0 0 0
0.085632324 0.040313721 -0.35620117 0 0 0 0
0.087280273 0.040313721 -0.35620117 0 0 0 0
0.088989258 0.040313721 -0.35620117 0 0 0 0
0.090637207 0.040313721 -0.35620117 0 0 0 0
0.092285156 0.040313721 -0.35620117 0 0 0 0
0.093994141 0.040313721 -0.35620117 0 0 0 0
0.09564209 0.040313721 -0.35620117 0 0 0 0
0.097351074 0.040313721 -0.35620117 0 0 0 0
0.098999023 0.040313721 -0.35620117 0 0 0 0
0.10064697 0.040313721 -0.35620117 0 0 0 0
0.10235596 0.040313721 -0.35620117 0 0 0 0
0.10430908 0.040435791 -0.35717773 0 0 0 0
0.10595703 0.040435791 -0.35717773 0 0 0 0
-0.084533691 0.039306641 -0.36230469 0 0 0 0
-0.082824707 0.039306641 -0.36230469 0 0 0 0
-0.081115723 0.039306641 -0.36230469 0 0 0 0
-0.079406738 0.039306641 -0.36230469 0 0 0 0
-0.077697754 0.039306641 -0.36230469 0 0 0 0
-0.076049805 0.039306641 -0.36230469 0 0 0 0
-0.07434082 0.039306641 -0.36230469 0 0 0 0
-0.072631836 0.039306641 -0.36230469 0 0 0 0
-0.071105957 0.039398193 -0.36328125 0 0 0 0
-0.069396973 0.039398193 -0.36328125 0 0 0 0
-0.067687988 0.039398193 -0.36328125 0 0 0 0
-0.065856934 0.039306641 -0.36230469 0 0 0 0
-0.064147949 0.039306641 -0.36230469 0 0 0 0
-0.061737061 0.038879395 -0.35839844 0 0 0 0
-0.059906006 0.038757324 -0.35717773 0 0 0 0
-0.058074951 0.038635254 -0.35620117 0 0 0 0
-0.012290955 0.02645874 -0.24389648 0 0 0 0
-0.011146545 0.02645874 -0.24389648 0 0 0 0
-0.010009766 0.02645874 -0.24389648 0 0 0 0
-0.0088272095 0.026351929 -0.24291992 0 0 0 0
-0.0076560974 0.026245117 -0.24194336 0 0 0 0
-0.0065231323 0.026245117 -0.24194336 0 0 0 0
-0.0053863525 0.026245117 -0.24194336 0 0 0 0
-0.004234314 0.026138306 -0.24084473 0 0 0 0
-0.0031051636 0.026138306 -0.24084473 0 0 0 0
-0.0019760132 0.026138306 -0.24084473 0 0 0 0
-0.00084686279 0.026138306 -0.24084473 0 0 0 0
0.00028252602 0.026138306 -0.24084473 0 0 0 0
0.0014057159 0.026016235 -0.23986816 0 0 0 0
0.0025310516 0.026016235 -0.23986816 0 0 0 0
0.0036563873 0.026016235 -0.23986816 0 0 0 0
0.0047988892 0.026138306 -0.24084473 0 0 0 0
0.0059318542 0.026138306 -0.24084473 0 0 0 0
0.0070610046 0.026138306 -0.24084473 0 0 0 0
0.0081863403 0.026138306 -0.24084473 0 0 0 0
0.0093154907 0.026138306 -0.24084473 0 0 0 0
0.010444641 0.026138306 -0.24084473 0 0 0 0
0.011627197 0.026245117 -0.24194336 0 0 0 0
0.012763977 0.026245117 -0.24194336 0 0 0 0
0.015960693 0.027877808 -0.25683594 0 0 0 0
0.017227173 0.027984619 -0.2578125 0 0 0 0
0.018447876 0.027984619 -0.2578125 0 0 0 0
0.028823853 0.038635254 -0.35620117 0 0 0 0
0.030487061 0.038635254 -0.35620117 0 0 0 0
0.032165527 0.038635254 -0.35620117 0 0 0 0
0.033843994 0.038635254 -0.35620117 0 0 0 0
0.035614014 0.038757324 -0.35717773 0 0 0 0
0.037261963 0.038757324 -0.35717773 0 0 0 0
0.03894043 0.038757324 -0.35717773 0 0 0 0
0.040618896 0.038757324 -0.35717773 0 0 0 0
0.042297363 0.038757324 -0.35717773 0 0 0 0
0.04397583 0.038757324 -0.35717773 0 0 0 0
0.045654297 0.038757324 -0.35717773 0 0 0 0
0.047332764 0.038757324 -0.35717773 0 0 0 0
0.04901123 0.038757324 -0.35717773 0 0 0 0
0.050689697 0.038757324 -0.35717773 0 0 0 0
0.052368164 0.038757324 -0.35717773 0 0 0 0
0.054046631 0.038757324 -0.35717773 0 0 0 0
0.055725098 0.038757324 -0.35717773 0 0 0 0
0.057403564 0.038757324 -0.35717773 0 0 0 0
0.059051514 0.038757324 -0.35717773 0 0 0 0
0.06072998 0.038757324 -0.35717773 0 0 0 0
0.062408447 0.038757324 -0.35717773 0 0 0 0
0.064086914 0.038757324 -0.35717773 0 0 0 0
0.065734863 0.038757324 -0.35717773 0 0 0 0
0.067443848 0.038757324 -0.35717773 0 0 0 0
0.069091797 0.038757324 -0.35717773 0 0 0 0
0.070800781 0.038757324 -0.35717773 0 0 0 0
0.072265625 0.038635254 -0.35620117 0 0 0 0
0.073913574 0.038635254 -0.35620117 0 0 0 0
0.075622559 0.038635254 -0.35620117 0 0 0 0
0.077270508 0.038635254 -0.35620117 0 0 0 0
0.078918457 0.038635254 -0.35620117 0 0 0 0
0.080627441 0.038635254 -0.35620117 0 0 0 0
0.082275391 0.038635254 -0.35620117 0 0 0 0
0.08392334 0.038635254 -0.35620117 0 0 0 0
0.085632324 0.038635254 -0.35620117 0 0 0 0
0.087280273 0.038635254 -0.35620117 0 0 0 0
0.088989258 0.038635254 -0.35620117 0 0 0 0
0.090637207 0.038635254 -0.35620117 0 0 0 0
0.092285156 0.038635254 -0.35620117 0 0 0 0
0.093994141 0.038635254 -0.35620117 0 0 0 0
0.09564209 0.038635254 -0.35620117 0 0 0 0
0.097351074 0.038635254 -0.35620117 0 0 0 0
0.098999023 0.038635254 -0.35620117 0 0 0 0
0.10064697 0.038635254 -0.35620117 0 0 0 0
0.1026001 0.038757324 -0.35717773 0 0 0 0
0.10430908 0.038757324 -0.35717773 0 0 0 0
-0.084289551 0.037506104 -0.36132812 0 0 0 0
-0.082580566 0.037506104 -0.36132812 0 0 0 0
-0.081115723 0.037597656 -0.36230469 0 0 0 0
-0.079223633 0.037506104 -0.36132812 0 0 0 0
-0.077697754 0.037597656 -0.36230469 0 0 0 0
-0.076049805 0.037597656 -0.36230469 0 0 0 0
-0.07434082 0.037597656 -0.36230469 0 0 0 0
-0.072631836 0.037597656 -0.36230469 0 0 0 0
-0.071105957 0.037719727 -0.36328125 0 0 0 0
-0.069396973 0.037719727 -0.36328125 0 0 0 0
-0.067871094 0.037811279 -0.36425781 0 0 0 0
-0.013496399 0.025421143 -0.24487305 0 0 0 0
-0.01234436 0.025421143 -0.24487305 0 0 0 0
-0.011146545 0.025314331 -0.24389648 0 0 0 0
-0.010009766 0.025314331 -0.24389648 0 0 0 0
-0.0088272095 0.02520752 -0.24291992 0 0 0 0
-0.007686615 0.02520752 -0.24291992 0 0 0 0
-0.0065231323 0.025100708 -0.24194336 0 0 0 0
-0.0053863525 0.025100708 -0.24194336 0 0 0 0
-0.004234314 0.025009155 -0.24084473 0 0 0 0
-0.0031051636 0.025009155 -0.24084473 0 0 0 0
-0.0019760132 0.025009155 -0.24084473 0 0 0 0
-0.00084686279 0.025009155 -0.24084473 0 0 0 0
0.00028133392 0.024902344 -0.23986816 0 0 0 0
0.0014057159 0.024902344 -0.23986816 0 0 0 0
0.0025310516 0.024902344 -0.23986816 0 0 0 0
0.0036563873 0.024902344 -0.23986816 0 0 0 0
0.0047798157 0.024902344 -0.23986816 0 0 0 0
0.0059051514 0.024902344 -0.23986816 0 0 0 0
0.0070610046 0.025009155 -0.24084473 0 0 0 0
0.0081863403 0.025009155 -0.24084473 0 0 0 0
0.0093154907 0.025009155 -0.24084473 0 0 0 0
0.010444641 0.025009155 -0.24084473 0 0 0 0
0.011627197 0.025100708 -0.24194336 0 0 0 0
0.012763977 0.025100708 -0.24194336 0 0 0 0
0.028823853 0.036987305 -0.35620117 0 0 0 0
0.030487061 0.036987305 -0.35620117 0 0 0 0
0.032165527 0.036987305 -0.35620117 0 0 0 0
0.033843994 0.036987305 -0.35620117 0 0 0 0
0.035614014 0.037078857 -0.35717773 0 0 0 0
0.037261963 0.037078857 -0.35717773 0 0 0 0
0.03894043 0.037078857 -0.35717773 0 0 0 0
0.040618896 0.037078857 -0.35717773 0 0 0 0
0.042297363 0.037078857 -0.35717773 0 0 0 0
0.04397583 0.037078857 -0.35717773 0 0 0 0
0.045654297 0.037078857 -0.35717773 0 0 0 0
0.047332764 0.037078857 -0.35717773 0 0 0 0
0.04901123 0.037078857 -0.35717773 0 0 0 0
0.050689697 0.037078857 -0.35717773 0 0 0 0
0.052368164 0.037078857 -0.35717773 0 0 0 0
0.054046631 0.037078857 -0.35717773 0 0 0 0
0.055725098 0.037078857 -0.35717773 0 0 0 0
0.057403564 0.037078857 -0.35717773 0 0 0 0
0.058898926 0.036987305 -0.35620117 0 0 0 0
0.060577393 0.036987305 -0.35620117 0 0 0 0
0.062255859 0.036987305 -0.35620117 0 0 0 0
0.063903809 0.036987305 -0.35620117 0 0 0 0
0.065551758 0.036987305 -0.35620117 0 0 0 0
0.067260742 0.036987305 -0.35620117 0 0 0 0
0.068908691 0.036987305 -0.35620117 0 0 0 0
0.070556641 0.036987305 -0.35620117 0 0 0 0
0.072265625 0.036987305 -0.35620117 0 0 0 0
0.073913574 0.036987305 -0.35620117 0 0 0 0
0.075622559 0.036987305 -0.35620117 0 0 0 0
0.077270508 0.036987305 -0.35620117 0 0 0 0
0.078918457 0.036987305 -0.35620117 0 0 0 0
0.080627441 0.036987305 -0.35620117 0 0 0 0
0.082275391 0.036987305 -0.35620117 0 0 0 0
0.08392334 0.036987305 -0.35620117 0 0 0 0
0.085632324 0.036987305 -0.35620117 0 0 0 0
0.087280273 0.036987305 -0.35620117 0 0 0 0
0.088989258 0.036987305 -0.35620117 0 0 0 0
0.090637207 0.036987305 -0.35620117 0 0 0 0
0.092285156 0.036987305 -0.35620117 0 0 0 0
0.093994141 0.036987305 -0.35620117 0 0 0 0
0.09564209 0.036987305 -0.35620117 0 0 0 0
0.097351074 0.036987305 -0.35620117 0 0 0 0
0.099304199 0.037078857 -0.35717773 0 0 0 0
0.10095215 0.037078857 -0.35717773 0 0 0 0
0.1026001 0.037078857 -0.35717773 0 0 0 0
0.10430908 0.037078857 -0.35717773 0 0 0 0
-0.085754395 0.035705566 -0.36035156 0 0 0 0
-0.08404541 0.035705566 -0.36035156 0 0 0 0
-0.082580566 0.035797119 -0.36132812 0 0 0 0
-0.080871582 0.035797119 -0.36132812 0 0 0 0
-0.079223633 0.035797119 -0.36132812 0 0 0 0
-0.077514648 0.035797119 -0.36132812 0 0 0 0
-0.075805664 0.035797119 -0.36132812 0 0 0 0
-0.07434082 0.035888672 -0.36230469 0 0 0 0
-0.072631836 0.035888672 -0.36230469 0 0 0 0
-0.071105957 0.036010742 -0.36328125 0 0 0 0
-0.069580078 0.036102295 -0.36425781 0 0 0 0
-0.06829834 0.036315918 -0.36621094 0 0 0 0
-0.0597229 0.035308838 -0.35620117 0 0 0 0
-0.058074951 0.035308838 -0.35620117 0 0 0 0
-0.014701843 0.024368286 -0.24584961 0 0 0 0
-0.013549805 0.024368286 -0.24584961 0 0 0 0
-0.01234436 0.024276733 -0.24487305 0 0 0 0
-0.011146545 0.024169922 -0.24389648 0 0 0 0
-0.010009766 0.024169922 -0.24389648 0 0 0 0
-0.0088272095 0.024078369 -0.24291992 0 0 0 0
-0.007686615 0.024078369 -0.24291992 0 0 0 0
-0.0065231323 0.023971558 -0.24194336 0 0 0 0
-0.0053863525 0.023971558 -0.24194336 0 0 0 0
-0.004234314 0.023864746 -0.24084473 0 0 0 0
-0.0031051636 0.023864746 -0.24084473 0 0 0 0
-0.0019760132 0.023864746 -0.24084473 0 0 0 0
-0.00084352493 0.023773193 -0.23986816 0 0 0 0
0.00028133392 0.023773193 -0.23986816 0 0 0 0
0.0014057159 0.023773193 -0.23986816 0 0 0 0
0.0025310516 0.023773193 -0.23986816 0 0 0 0
0.0036563873 0.023773193 -0.23986816 0 0 0 0
0.0047798157 0.023773193 -0.23986816 0 0 0 0
0.0059051514 0.023773193 -0.23986816 0 0 0 0
0.0070304871 0.023773193 -0.23986816 0 0 0 0
0.0081863403 0.023864746 -0.24084473 0 0 0 0
0.0093154907 0.023864746 -0.24084473 0 0 0 0
0.010444641 0.023864746 -0.24084473 0 0 0 0
0.011627197 0.023971558 -0.24194336 0 0 0 0
0.012763977 0.023971558 -0.24194336 0 0 0 0
0.030487061 0.035308838 -0.35620117 0 0 0 0
0.032165527 0.035308838 -0.35620117 0 0 0 0
0.033843994 0.035308838 -0.35620117 0 0 0 0
0.035491943 0.035308838 -0.35620117 0 0 0 0
0.037261963 0.035400391 -0.35717773 0 0 0 0
0.03894043 0.035400391 -0.35717773 0 0 0 0
0.040618896 0.035400391 -0.35717773 0 0 0 0
0.042297363 0.035400391 -0.35717773 0 0 0 0
0.04397583 0.035400391 -0.35717773 0 0 0 0
0.045654297 0.035400391 -0.35717773 0 0 0 0
0.047332764 0.035400391 -0.35717773 0 0 0 0
0.04901123 0.035400391 -0.35717773 0 0 0 0
0.050689697 0.035400391 -0.35717773 0 0 0 0
0.052368164 0.035400391 -0.35717773 0 0 0 0
0.054046631 0.035400391 -0.35717773 0 0 0 0
0.055725098 0.035400391 -0.35717773 0 0 0 0
0.057220459 0.035308838 -0.35620117 0 0 0 0
0.058898926 0.035308838 -0.35620117 0 0 0 0
0.060577393 0.035308838 -0.35620117 0 0 0 0
0.062255859 0.035308838 -0.35620117 0 0 0 0
0.063903809 0.035308838 -0.35620117 0 0 0 0
0.065551758 0.035308838 -0.35620117 0 0 0 0
0.067260742 0.035308838 -0.35620117 0 0 0 0
0.068908691 0.035308838 -0.35620117 0 0 0 0
0.070556641 0.035308838 -0.35620117 0 0 0 0
0.072265625 0.035308838 -0.35620117 0 0 0 0
0.073913574 0.035308838 -0.35620117 0 0 0 0
0.075622559 0.035308838 -0.35620117 0 0 0 0
0.077270508 0.035308838 -0.35620117 0 0 0 0
0.078918457 0.035308838 -0.35620117 0 0 0 0
0.080627441 0.035308838 -0.35620117 0 0 0 0
0.082275391 0.035308838 -0.35620117 0 0 0 0
0.08392334 0.035308838 -0.35620117 0 0 0 0
0.085632324 0.035308838 -0.35620117 0 0 0 0
0.087280273 0.035308838 -0.35620117 0 0 0 0
0.088989258 0.035308838 -0.35620117 0 0 0 0
0.090637207 0.035308838 -0.35620117 0 0 0 0
0.092285156 0.035308838 -0.35620117 0 0 0 0
0.093994141 0.035308838 -0.35620117 0 0 0 0
0.09564209 0.035308838 -0.35620117 0 0 0 0
0.097351074 0.035308838 -0.35620117 0 0 0 0
0.099304199 0.035400391 -0.35717773 0 0 0 0
0.10095215 0.035400391 -0.35717773 0 0 0 0
-0.087219238 0.033905029 -0.359375 0 0 0 0
-0.085754395 0.0340271 -0.36035156 0 0 0 0
-0.08404541 0.0340271 -0.36035156 0 0 0 0
-0.082336426 0.0340271 -0.36035156 0 0 0 0
-0.080688477 0.0340271 -0.36035156 0 0 0 0
-0.078979492 0.0340271 -0.36035156 0 0 0 0
-0.077270508 0.0340271 -0.36035156 0 0 0 0
-0.075805664 0.034118652 -0.36132812 0 0 0 0
-0.07409668 0.034118652 -0.36132812 0 0 0 0
-0.072631836 0.034210205 -0.36230469 0 0 0 0
-0.071105957 0.034301758 -0.36328125 0 0 0 0
-0.069580078 0.034393311 -0.36425781 0 0 0 0
-0.067871094 0.034393311 -0.36425781 0 0 0 0
-0.065307617 0.033905029 -0.359375 0 0 0 0
-0.063232422 0.033721924 -0.35717773 0 0 0 0
-0.061584473 0.033721924 -0.35717773 0 0 0 0
-0.0597229 0.033630371 -0.35620117 0 0 0 0
-0.058074951 0.033630371 -0.35620117 0 0 0 0
-0.015914917 0.02331543 -0.24694824 0 0 0 0
-0.014701843 0.023208618 -0.24584961 0 0 0 0
-0.013549805 0.023208618 -0.24584961 0 0 0 0
-0.01234436 0.023117065 -0.24487305 0 0 0 0
-0.011146545 0.023025513 -0.24389648 0 0 0 0
-0.010009766 0.023025513 -0.24389648 0 0 0 0
-0.0088272095 0.02293396 -0.24291992 0 0 0 0
-0.007686615 0.02293396 -0.24291992 0 0 0 0
-0.0065231323 0.022842407 -0.24194336 0 0 0 0
-0.0053863525 0.022842407 -0.24194336 0 0 0 0
-0.004234314 0.022735596 -0.24084473 0 0 0 0
-0.0031051636 0.022735596 -0.24084473 0 0 0 0
-0.0019760132 0.022735596 -0.24084473 0 0 0 0
-0.00084352493 0.022644043 -0.23986816 0 0 0 0
0.00028133392 0.022644043 -0.23986816 0 0 0 0
0.0014057159 0.022644043 -0.23986816 0 0 0 0
0.0025310516 0.022644043 -0.23986816 0 0 0 0
0.0036563873 0.022644043 -0.23986816 0 0 0 0
0.0047798157 0.022644043 -0.23986816 0 0 0 0
0.0059051514 0.022644043 -0.23986816 0 0 0 0
0.0070304871 0.022644043 -0.23986816 0 0 0 0
0.0081863403 0.022735596 -0.24084473 0 0 0 0
0.0093154907 0.022735596 -0.24084473 0 0 0 0
0.010444641 0.022735596 -0.24084473 0 0 0 0
0.011627197 0.022842407 -0.24194336 0 0 0 0
0.012763977 0.022842407 -0.24194336 0 0 0 0
0.013954163 0.02293396 -0.24291992 0 0 0 0
0.030487061 0.033630371 -0.35620117 0 0 0 0
0.032165527 0.033630371 -0.35620117 0 0 0 0
0.033843994 0.033630371 -0.35620117 0 0 0 0
0.035491943 0.033630371 -0.35620117 0 0 0 0
0.03717041 0.033630371 -0.35620117 0 0 0 0
0.03894043 0.033721924 -0.35717773 0 0 0 0
0.040618896 0.033721924 -0.35717773 0 0 0 0
0.042297363 0.033721924 -0.35717773 0 0 0 0
0.04397583 0.033721924 -0.35717773 0 0 0 0
0.045654297 0.033721924 -0.35717773 0 0 0 0
0.047332764 0.033721924 -0.35717773 0 0 0 0
0.04901123 0.033721924 -0.35717773 0 0 0 0
0.050689697 0.033721924 -0.35717773 0 0 0 0
0.052368164 0.033721924 -0.35717773 0 0 0 0
0.054046631 0.033721924 -0.35717773 0 0 0 0
0.055541992 0.033630371 -0.35620117 0 0 0 0
0.057220459 0.033630371 -0.35620117 0 0 0 0
0.058898926 0.033630371 -0.35620117 0 0 0 0
0.060577393 0.033630371 -0.35620117 0 0 0 0
0.062255859 0.033630371 -0.35620117 0 0 0 0
0.063903809 0.033630371 -0.35620117 0 0 0 0
0.065551758 0.033630371 -0.35620117 0 0 0 0
0.067260742 0.033630371 -0.35620117 0 0 0 0
0.068908691 0.033630371 -0.35620117 0 0 0 0
0.070556641 0.033630371 -0.35620117 0 0 0 0
0.072265625 0.033630371 -0.35620117 0 0 0 0
0.073913574 0.033630371 -0.35620117 0 0 0 0
0.075622559 0.033630371 -0.35620117 0 0 0 0
0.077270508 0.033630371 -0.35620117 0 0 0 0
0.078918457 0.033630371 -0.35620117 0 0 0 0
0.080627441 0.033630371 -0.35620117 0 0 0 0
0.082275391 0.033630371 -0.35620117 0 0 0 0
0.08392334 0.033630371 -0.35620117 0 0 0 0
0.085632324 0.033630371 -0.35620117 0 0 0 0
0.087280273 0.033630371 -0.35620117 0 0 0 0
0.088989258 0.033630371 -0.35620117 0 0 0 0
0.090637207 0.033630371 -0.35620117 0 0 0 0
0.092285156 0.033630371 -0.35620117 0 0 0 0
0.093994141 0.033630371 -0.35620117 0 0 0 0
0.09564209 0.033630371 -0.35620117 0 0 0 0
0.097351074 0.033630371 -0.35620117 0 0 0 0
0.099304199 0.033721924 -0.35717773 0 0 0 0
-0.089111328 0.032318115 -0.36035156 0 0 0 0
-0.087219238 0.032226562 -0.359375 0 0 0 0
-0.085510254 0.032226562 -0.359375 0 0 0 0
-0.08380127 0.032226562 -0.359375 0 0 0 0
-0.08215332 0.032226562 -0.359375 0 0 0 0
-0.080444336 0.032226562 -0.359375 0 0 0 0
-0.078979492 0.032318115 -0.36035156 0 0 0 0
-0.077270508 0.032318115 -0.36035156 0 0 0 0
-0.075622559 0.032318115 -0.36035156 0 0 0 0
-0.073913574 0.032318115 -0.36035156 0 0 0 0
-0.07244873 0.032409668 -0.36132812 0 0 0 0
-0.071105957 0.032592773 -0.36328125 0 0 0 0
-0.069396973 0.032592773 -0.36328125 0 0 0 0
-0.067138672 0.032318115 -0.36035156 0 0 0 0
-0.065124512 0.03213501 -0.35839844 0 0 0 0
-0.063232422 0.032043457 -0.35717773 0 0 0 0
-0.061401367 0.031951904 -0.35620117 0 0 0 0
-0.0597229 0.031951904 -0.35620117 0 0 0 0
-0.058074951 0.031951904 -0.35620117 0 0 0 0
-0.056396484 0.031951904 -0.35620117 0 0 0 0
-0.017074585 0.022155762 -0.24694824 0 0 0 0
-0.015914917 0.022155762 -0.24694824 0 0 0 0
-0.014701843 0.022064209 -0.24584961 0 0 0 0
-0.013549805 0.022064209 -0.24584961 0 0 0 0
-0.01234436 0.021972656 -0.24487305 0 0 0 0
-0.011199951 0.021972656 -0.24487305 0 0 0 0
-0.010009766 0.021881104 -0.24389648 0 0 0 0
-0.0088272095 0.021789551 -0.24291992 0 0 0 0
-0.007686615 0.021789551 -0.24291992 0 0 0 0
-0.0065231323 0.021697998 -0.24194336 0 0 0 0
-0.0053863525 0.021697998 -0.24194336 0 0 0 0
-0.004234314 0.021606445 -0.24084473 0 0 0 0
-0.0031051636 0.021606445 -0.24084473 0 0 0 0
-0.0019760132 0.021606445 -0.24084473 0 0 0 0
-0.00084352493 0.021514893 -0.23986816 0 0 0 0
0.00028133392 0.021514893 -0.23986816 0 0 0 0
0.0014057159 0.021514893 -0.23986816 0 0 0 0
0.0025310516 0.021514893 -0.23986816 0 0 0 0
0.0036563873 0.021514893 -0.23986816 0 0 0 0
0.0047798157 0.021514893 -0.23986816 0 0 0 0
0.0059051514 0.021514893 -0.23986816 0 0 0 0
0.0070304871 0.021514893 -0.23986816 0 0 0 0
0.0081863403 0.021606445 -0.24084473 0 0 0 0
0.0093154907 0.021606445 -0.24084473 0 0 0 0
0.010444641 0.021606445 -0.24084473 0 0 0 0
0.011627197 0.021697998 -0.24194336 0 0 0 0
0.012763977 0.021697998 -0.24194336 0 0 0 0
0.013954163 0.021789551 -0.24291992 0 0 0 0
0.028823853 0.031951904 -0.35620117 0 0 0 0
0.030487061 0.031951904 -0.35620117 0 0 0 0
0.032165527 0.031951904 -0.35620117 0 0 0 0
0.033843994 0.031951904 -0.35620117 0 0 0 0
0.035491943 0.031951904 -0.35620117 0 0 0 0
0.03717041 0.031951904 -0.35620117 0 0 0 0
0.038848877 0.031951904 -0.35620117 0 0 0 0
0.040527344 0.031951904 -0.35620117 0 0 0 0
0.042175293 0.031951904 -0.35620117 0 0 0 0
0.04385376 0.031951904 -0.35620117 0 0 0 0
0.045654297 0.032043457 -0.35717773 0 0 0 0
0.047332764 0.032043457 -0.35717773 0 0 0 0
0.04901123 0.032043457 -0.35717773 0 0 0 0
0.050689697 0.032043457 -0.35717773 0 0 0 0
0.052368164 0.032043457 -0.35717773 0 0 0 0
0.053894043 0.031951904 -0.35620117 0 0 0 0
0.055541992 0.031951904 -0.35620117 0 0 0 0
0.057220459 0.031951904 -0.35620117 0 0 0 0
0.058898926 0.031951904 -0.35620117 0 0 0 0
0.060577393 0.031951904 -0.35620117 0 0 0 0
0.062255859 0.031951904 -0.35620117 0 0 0 0
0.063903809 0.031951904 -0.35620117 0 0 0 0
0.065551758 0.031951904 -0.35620117 0 0 0 0
0.067260742 0.031951904 -0.35620117 0 0 0 0
0.068908691 0.031951904 -0.35620117 0 0 0 0
0.070556641 0.031951904 -0.35620117 0 0 0 0
0.072265625 0.031951904 -0.35620117 0 0 0 0
0.073913574 0.031951904 -0.35620117 0 0 0 0
0.075622559 0.031951904 -0.35620117 0 0 0 0
0.077270508 0.031951904 -0.35620117 0 0 0 0
0.078918457 0.031951904 -0.35620117 0 0 0 0
0.080627441 0.031951904 -0.35620117 0 0 0 0
0.082275391 0.031951904 -0.35620117 0 0 0 0
0.08392334 0.031951904 -0.35620117 0 0 0 0
0.085632324 0.031951904 -0.35620117 0 0 0 0
0.087280273 0.031951904 -0.35620117 0 0 0 0
0.088989258 0.031951904 -0.35620117 0 0 0 0
0.090637207 0.031951904 -0.35620117 0 0 0 0
0.092285156 0.031951904 -0.35620117 0 0 0 0
0.093994141 0.031951904 -0.35620117 0 0 0 0
0.09564209 0.031951904 -0.35620117 0 0 0 0
0.097351074 0.031951904 -0.35620117 0 0 0 0
0.098999023 0.031951904 -0.35620117 0 0 0 0
-0.088867188 0.030563354 -0.359375 0 0 0 0
-0.087219238 0.030563354 -0.359375 0 0 0 0
-0.085510254 0.030563354 -0.359375 0 0 0 0
-0.08380127 0.030563354 -0.359375 0 0 0 0
-0.08215332 0.030563354 -0.359375 0 0 0 0
-0.080444336 0.030563354 -0.359375 0 0 0 0
-0.078735352 0.030563354 -0.359375 0 0 0 0
-0.077087402 0.030563354 -0.359375 0 0 0 0
-0.075378418 0.030563354 -0.359375 0 0 0 0
-0.073913574 0.030639648 -0.36035156 0 0 0 0
-0.07220459 0.030639648 -0.36035156 0 0 0 0
-0.0703125 0.030563354 -0.359375 0 0 0 0
-0.068664551 0.030563354 -0.359375 0 0 0 0
-0.066955566 0.030563354 -0.359375 0 0 0 0
-0.065124512 0.030471802 -0.35839844 0 0 0 0
-0.063232422 0.030380249 -0.35717773 0 0 0 0
-0.061401367 0.030303955 -0.35620117 0 0 0 0
-0.0597229 0.030303955 -0.35620117 0 0 0 0
-0.057891846 0.030212402 -0.35522461 0 0 0 0
-0.056243896 0.030212402 -0.35522461 0 0 0 0
-0.05456543 0.030212402 -0.35522461 0 0 0 0
-0.017074585 0.020996094 -0.24694824 0 0 0 0
-0.015914917 0.020996094 -0.24694824 0 0 0 0
-0.014701843 0.020904541 -0.24584961 0 0 0 0
-0.013549805 0.020904541 -0.24584961 0 0 0 0
-0.01234436 0.020828247 -0.24487305 0 0 0 0
-0.011199951 0.020828247 -0.24487305 0 0 0 0
-0.010009766 0.020736694 -0.24389648 0 0 0 0
-0.0088272095 0.0206604 -0.24291992 0 0 0 0
-0.007686615 0.0206604 -0.24291992 0 0 0 0
-0.0065231323 0.020568848 -0.24194336 0 0 0 0
-0.0053863525 0.020568848 -0.24194336 0 0 0 0
-0.004234314 0.020477295 -0.24084473 0 0 0 0
-0.0031051636 0.020477295 -0.24084473 0 0 0 0
-0.0019760132 0.020477295 -0.24084473 0 0 0 0
-0.00084352493 0.020401001 -0.23986816 0 0 0 0
0.00028133392 0.020401001 -0.23986816 0 0 0 0
0.0014057159 0.020401001 -0.23986816 0 0 0 0
0.0025310516 0.020401001 -0.23986816 0 0 0 0
0.0036563873 0.020401001 -0.23986816 0 0 0 0
0.0047798157 0.020401001 -0.23986816 0 0 0 0
0.0059051514 0.020401001 -0.23986816 0 0 0 0
0.0070304871 0.020401001 -0.23986816 0 0 0 0
0.0081863403 0.020477295 -0.24084473 0 0 0 0
0.0093154907 0.020477295 -0.24084473 0 0 0 0
0.010444641 0.020477295 -0.24084473 0 0 0 0
0.011627197 0.020568848 -0.24194336 0 0 0 0
0.012763977 0.020568848 -0.24194336 0 0 0 0
0.013954163 0.0206604 -0.24291992 0 0 0 0
0.015090942 0.0206604 -0.24291992 0 0 0 0
0.027069092 0.030212402 -0.35522461 0 0 0 0
0.028823853 0.030303955 -0.35620117 0 0 0 0
0.030487061 0.030303955 -0.35620117 0 0 0 0
0.032165527 0.030303955 -0.35620117 0 0 0 0
0.033843994 0.030303955 -0.35620117 0 0 0 0
0.035491943 0.030303955 -0.35620117 0 0 0 0
0.03717041 0.030303955 -0.35620117 0 0 0 0
0.038848877 0.030303955 -0.35620117 0 0 0 0
0.040527344 0.030303955 -0.35620117 0 0 0 0
0.042175293 0.030303955 -0.35620117 0 0 0 0
0.04385376 0.030303955 -0.35620117 0 0 0 0
0.045532227 0.030303955 -0.35620117 0 0 0 0
0.047210693 0.030303955 -0.35620117 0 0 0 0
0.048858643 0.030303955 -0.35620117 0 0 0 0
0.050537109 0.030303955 -0.35620117 0 0 0 0
0.052215576 0.030303955 -0.35620117 0 0 0 0
0.053894043 0.030303955 -0.35620117 0 0 0 0
0.055541992 0.030303955 -0.35620117 0 0 0 0
0.057220459 0.030303955 -0.35620117 0 0 0 0
0.058898926 0.030303955 -0.35620117 0 0 0 0
0.060577393 0.030303955 -0.35620117 0 0 0 0
0.062255859 0.030303955 -0.35620117 0 0 0 0
0.063903809 0.030303955 -0.35620117 0 0 0 0
0.065551758 0.030303955 -0.35620117 0 0 0 0
0.067260742 0.030303955 -0.35620117 0 0 0 0
0.068908691 0.030303955 -0.35620117 0 0 0 0
0.070556641 0.030303955 -0.35620117 0 0 0 0
0.072265625 0.030303955 -0.35620117 0 0 0 0
0.073913574 0.030303955 -0.35620117 0 0 0 0
0.075622559 0.030303955 -0.35620117 0 0 0 0
0.077270508 0.030303955 -0.35620117 0 0 0 0
0.078918457 0.030303955 -0.35620117 0 0 0 0
0.080627441 0.030303955 -0.35620117 0 0 0 0
0.082275391 0.030303955 -0.35620117 0 0 0 0
0.08392334 0.030303955 -0.35620117 0 0 0 0
0.085632324 0.030303955 -0.35620117 0 0 0 0
0.087280273 0.030303955 -0.35620117 0 0 0 0
0.088989258 0.030303955 -0.35620117 0 0 0 0
0.090637207 0.030303955 -0.35620117 0 0 0 0
0.092285156 0.030303955 -0.35620117 0 0 0 0
0.093994141 0.030303955 -0.35620117 0 0 0 0
0.09564209 0.030303955 -0.35620117 0 0 0 0
0.097351074 0.030303955 -0.35620117 0 0 0 0
0.098999023 0.030303955 -0.35620117 0 0 0 0
-0.090576172 0.028869629 -0.359375 0 0 0 0
-0.088867188 0.028869629 -0.359375 0 0 0 0
-0.087219238 0.028869629 -0.359375 0 0 0 0
-0.085510254 0.028869629 -0.359375 0 0 0 0
-0.08380127 0.028869629 -0.359375 0 0 0 0
-0.08215332 0.028869629 -0.359375 0 0 0 0
-0.080444336 0.028869629 -0.359375 0 0 0 0
-0.078735352 0.028869629 -0.359375 0 0 0 0
-0.077087402 0.028869629 -0.359375 0 0 0 0
-0.075378418 0.028869629 -0.359375 0 0 0 0
-0.073730469 0.028869629 -0.359375 0 0 0 0
-0.072021484 0.028869629 -0.359375 0 0 0 0
-0.0703125 0.028869629 -0.359375 0 0 0 0
-0.068664551 0.028869629 -0.359375 0 0 0 0
-0.066772461 0.028793335 -0.35839844 0 0 0 0
-0.064941406 0.028717041 -0.35717773 0 0 0 0
-0.063232422 0.028717041 -0.35717773 0 0 0 0
-0.061401367 0.028625488 -0.35620117 0 0 0 0
-0.059570312 0.028549194 -0.35522461 0 0 0 0
-0.057891846 0.028549194 -0.35522461 0 0 0 0
-0.056243896 0.028549194 -0.35522461 0 0 0 0
-0.054412842 0.0284729 -0.35424805 0 0 0 0
-0.052764893 0.0284729 -0.35424805 0 0 0 0
-0.018310547 0.01991272 -0.2479248 0 0 0 0
-0.017150879 0.01991272 -0.2479248 0 0 0 0
-0.015914917 0.019836426 -0.24694824 0 0 0 0
-0.014762878 0.019836426 -0.24694824 0 0 0 0
-0.013549805 0.019760132 -0.24584961 0 0 0 0
-0.01234436 0.019668579 -0.24487305 0 0 0 0
-0.011199951 0.019668579 -0.24487305 0 0 0 0
-0.010009766 0.019592285 -0.24389648 0 0 0 0
-0.0088653564 0.019592285 -0.24389648 0 0 0 0
-0.007686615 0.019515991 -0.24291992 0 0 0 0
-0.0065498352 0.019515991 -0.24291992 0 0 0 0
-0.0053863525 0.019439697 -0.24194336 0 0 0 0
-0.0042533875 0.019439697 -0.24194336 0 0 0 0
-0.0031051636 0.019348145 -0.24084473 0 0 0 0
-0.0019760132 0.019348145 -0.24084473 0 0 0 0
-0.00084686279 0.019348145 -0.24084473 0 0 0 0
0.00028133392 0.019271851 -0.23986816 0 0 0 0
0.0014057159 0.019271851 -0.23986816 0 0 0 0
0.0025310516 0.019271851 -0.23986816 0 0 0 0
0.0036563873 0.019271851 -0.23986816 0 0 0 0
0.0047798157 0.019271851 -0.23986816 0 0 0 0
0.0059051514 0.019271851 -0.23986816 0 0 0 0
0.0070610046 0.019348145 -0.24084473 0 0 0 0
0.0081863403 0.019348145 -0.24084473 0 0 0 0
0.0093154907 0.019348145 -0.24084473 0 0 0 0
0.010490417 0.019439697 -0.24194336 0 0 0 0
0.011627197 0.019439697 -0.24194336 0 0 0 0
0.012763977 0.019439697 -0.24194336 0 0 0 0
0.013954163 0.019515991 -0.24291992 0 0 0 0
