ply
format ascii 1.0
comment PCL generated
element vertex 1056
property float x
property float y
property float z
property float nx
property float ny
property float nz
property float curvature
element face 0
element camera 0
property float view_px
property float view_py
property float view_pz
property float x_axisx
property float x_axisy
property float x_axisz
property float y_axisx
property float y_axisy
property float y_axisz
property float z_axisx
property float z_axisy
property float z_axisz
property float focal
property float scalex
property float scaley
property float centerx
property float centery
property int viewportx
property int viewporty
property float k1
property float k2
end_header
0.08605957 -0.016052246 -0.31518555 0 0 0 0
0.087585449 -0.016052246 -0.31518555 0 0 0 0
0.089050293 -0.016052246 -0.31518555 0 0 0 0
0.090515137 -0.016052246 -0.31518555 0 0 0 0
0.091674805 -0.01600647 -0.31420898 0 0 0 0
0.093200684 -0.01600647 -0.31420898 0 0 0 0
0.094665527 -0.01600647 -0.31420898 0 0 0 0
0.096130371 -0.01600647 -0.31420898 0 0 0 0
0.097900391 -0.016052246 -0.31518555 0 0 0 0
0.099365234 -0.016052246 -0.31518555 0 0 0 0
0.10089111 -0.016052246 -0.31518555 0 0 0 0
0.10235596 -0.016052246 -0.31518555 0 0 0 0
0.1038208 -0.016052246 -0.31518555 0 0 0 0
0.10528564 -0.016052246 -0.31518555 0 0 0 0
0.10675049 -0.016052246 -0.31518555 0 0 0 0
0.10858154 -0.016113281 -0.31616211 0 0 0 0
0.11010742 -0.016113281 -0.31616211 0 0 0 0
0.11157227 -0.016113281 -0.31616211 0 0 0 0
0.11340332 -0.016159058 -0.31713867 0 0 0 0
0.11486816 -0.016159058 -0.31713867 0 0 0 0
-0.0063171387 -0.019989014 -0.359375 0 0 0 0
-0.0046310425 -0.019989014 -0.359375 0 0 0 0
-0.0029392242 -0.019927979 -0.35839844 0 0 0 0
-0.0012559891 -0.019882202 -0.35717773 0 0 0 0
0.00041913986 -0.019882202 -0.35717773 0 0 0 0
0.0020885468 -0.019821167 -0.35620117 0 0 0 0
0.0037593842 -0.019821167 -0.35620117 0 0 0 0
0.0054130554 -0.019775391 -0.35522461 0 0 0 0
0.0070610046 -0.019714355 -0.35424805 0 0 0 0
0.0087203979 -0.019714355 -0.35424805 0 0 0 0
0.010353088 -0.01965332 -0.35327148 0 0 0 0
0.012008667 -0.01965332 -0.35327148 0 0 0 0
0.013671875 -0.01965332 -0.35327148 0 0 0 0
0.015281677 -0.019607544 -0.35229492 0 0 0 0
0.016937256 -0.019607544 -0.35229492 0 0 0 0
0.018585205 -0.019607544 -0.35229492 0 0 0 0
0.020233154 -0.019607544 -0.35229492 0 0 0 0
0.023269653 -0.019378662 -0.34814453 0 0 0 0
0.024902344 -0.019378662 -0.34814453 0 0 0 0
0.026535034 -0.019378662 -0.34814453 0 0 0 0
0.028259277 -0.019439697 -0.34912109 0 0 0 0
0.029891968 -0.019439697 -0.34912109 0 0 0 0
0.031616211 -0.019485474 -0.3503418 0 0 0 0
0.03326416 -0.019485474 -0.3503418 0 0 0 0
0.035003662 -0.019546509 -0.35131836 0 0 0 0
0.036651611 -0.019546509 -0.35131836 0 0 0 0
0.038391113 -0.019607544 -0.35229492 0 0 0 0
0.040161133 -0.01965332 -0.35327148 0 0 0 0
0.04196167 -0.019714355 -0.35424805 0 0 0 0
0.043731689 -0.019775391 -0.35522461 0 0 0 0
0.045532227 -0.019821167 -0.35620117 0 0 0 0
0.047332764 -0.019882202 -0.35717773 0 0 0 0
0.049285889 -0.019989014 -0.359375 0 0 0 0
0.051116943 -0.020050049 -0.36035156 0 0 0 0
0.052947998 -0.020095825 -0.36132812 0 0 0 0
0.05480957 -0.02015686 -0.36230469 0 0 0 0
0.056640625 -0.020217896 -0.36328125 0 0 0 0
0.058532715 -0.020263672 -0.36425781 0 0 0 0
0.060577393 -0.017425537 -0.31298828 0 0 0 0
0.062255859 -0.017471313 -0.31420898 0 0 0 0
0.063720703 -0.017471313 -0.31420898 0 0 0 0
0.065368652 -0.017532349 -0.31518555 0 0 0 0
0.066833496 -0.017532349 -0.31518555 0 0 0 0
0.068359375 -0.017532349 -0.31518555 0 0 0 0
0.069824219 -0.017532349 -0.31518555 0 0 0 0
0.071289062 -0.017532349 -0.31518555 0 0 0 0
0.072753906 -0.017532349 -0.31518555 0 0 0 0
0.074279785 -0.017532349 -0.31518555 0 0 0 0
0.075744629 -0.017532349 -0.31518555 0 0 0 0
0.076965332 -0.017471313 -0.31420898 0 0 0 0
0.078430176 -0.017471313 -0.31420898 0 0 0 0
0.07989502 -0.017471313 -0.31420898 0 0 0 0
0.081665039 -0.017532349 -0.31518555 0 0 0 0
0.083129883 -0.017532349 -0.31518555 0 0 0 0
0.084594727 -0.017532349 -0.31518555 0 0 0 0
0.08605957 -0.017532349 -0.31518555 0 0 0 0
0.087585449 -0.017532349 -0.31518555 0 0 0 0
0.089050293 -0.017532349 -0.31518555 0 0 0 0
0.090209961 -0.017471313 -0.31420898 0 0 0 0
0.091674805 -0.017471313 -0.31420898 0 0 0 0
0.093200684 -0.017471313 -0.31420898 0 0 0 0
0.094665527 -0.017471313 -0.31420898 0 0 0 0
0.096130371 -0.017471313 -0.31420898 0 0 0 0
0.097900391 -0.017532349 -0.31518555 0 0 0 0
0.099365234 -0.017532349 -0.31518555 0 0 0 0
0.10089111 -0.017532349 -0.31518555 0 0 0 0
0.10235596 -0.017532349 -0.31518555 0 0 0 0
0.1038208 -0.017532349 -0.31518555 0 0 0 0
0.10528564 -0.017532349 -0.31518555 0 0 0 0
0.10675049 -0.017532349 -0.31518555 0 0 0 0
0.10858154 -0.017593384 -0.31616211 0 0 0 0
0.11010742 -0.017593384 -0.31616211 0 0 0 0
0.11157227 -0.017593384 -0.31616211 0 0 0 0
0.11340332 -0.01763916 -0.31713867 0 0 0 0
0.11486816 -0.01763916 -0.31713867 0 0 0 0
-0.008026123 -0.021743774 -0.36035156 0 0 0 0
-0.0063171387 -0.021682739 -0.359375 0 0 0 0
-0.0046310425 -0.021682739 -0.359375 0 0 0 0
-0.0029392242 -0.021621704 -0.35839844 0 0 0 0
-0.0012559891 -0.021560669 -0.35717773 0 0 0 0
0.00041913986 -0.021560669 -0.35717773 0 0 0 0
0.0020885468 -0.021499634 -0.35620117 0 0 0 0
0.0037498474 -0.021438599 -0.35522461 0 0 0 0
0.0054130554 -0.021438599 -0.35522461 0 0 0 0
0.0070610046 -0.021377563 -0.35424805 0 0 0 0
0.0086975098 -0.021316528 -0.35327148 0 0 0 0
0.010353088 -0.021316528 -0.35327148 0 0 0 0
0.012008667 -0.021316528 -0.35327148 0 0 0 0
0.013626099 -0.021255493 -0.35229492 0 0 0 0
0.015281677 -0.021255493 -0.35229492 0 0 0 0
0.016937256 -0.021255493 -0.35229492 0 0 0 0
0.018585205 -0.021255493 -0.35229492 0 0 0 0
0.023269653 -0.021011353 -0.34814453 0 0 0 0
0.024902344 -0.021011353 -0.34814453 0 0 0 0
0.026535034 -0.021011353 -0.34814453 0 0 0 0
0.028259277 -0.021072388 -0.34912109 0 0 0 0
0.029891968 -0.021072388 -0.34912109 0 0 0 0
0.031616211 -0.021133423 -0.3503418 0 0 0 0
0.033355713 -0.021194458 -0.35131836 0 0 0 0
0.035003662 -0.021194458 -0.35131836 0 0 0 0
0.036743164 -0.021255493 -0.35229492 0 0 0 0
0.038513184 -0.021316528 -0.35327148 0 0 0 0
0.040283203 -0.021377563 -0.35424805 0 0 0 0
0.042053223 -0.021438599 -0.35522461 0 0 0 0
0.04385376 -0.021499634 -0.35620117 0 0 0 0
0.045654297 -0.021560669 -0.35717773 0 0 0 0
0.047454834 -0.021621704 -0.35839844 0 0 0 0
0.049285889 -0.021682739 -0.359375 0 0 0 0
0.051116943 -0.021743774 -0.36035156 0 0 0 0
0.052947998 -0.02180481 -0.36132812 0 0 0 0
0.05480957 -0.021865845 -0.36230469 0 0 0 0
0.056640625 -0.021911621 -0.36328125 0 0 0 0
0.062255859 -0.018951416 -0.31420898 0 0 0 0
0.063903809 -0.019012451 -0.31518555 0 0 0 0
0.065368652 -0.019012451 -0.31518555 0 0 0 0
0.066833496 -0.019012451 -0.31518555 0 0 0 0
0.068359375 -0.019012451 -0.31518555 0 0 0 0
0.069824219 -0.019012451 -0.31518555 0 0 0 0
0.071289062 -0.019012451 -0.31518555 0 0 0 0
0.072753906 -0.019012451 -0.31518555 0 0 0 0
0.074035645 -0.018951416 -0.31420898 0 0 0 0
0.075500488 -0.018951416 -0.31420898 0 0 0 0
0.076965332 -0.018951416 -0.31420898 0 0 0 0
0.078430176 -0.018951416 -0.31420898 0 0 0 0
0.07989502 -0.018951416 -0.31420898 0 0 0 0
0.081359863 -0.018951416 -0.31420898 0 0 0 0
0.082885742 -0.018951416 -0.31420898 0 0 0 0
0.084350586 -0.018951416 -0.31420898 0 0 0 0
0.08581543 -0.018951416 -0.31420898 0 0 0 0
0.087280273 -0.018951416 -0.31420898 0 0 0 0
0.088745117 -0.018951416 -0.31420898 0 0 0 0
0.090209961 -0.018951416 -0.31420898 0 0 0 0
0.091674805 -0.018951416 -0.31420898 0 0 0 0
0.093200684 -0.018951416 -0.31420898 0 0 0 0
0.094665527 -0.018951416 -0.31420898 0 0 0 0
0.096130371 -0.018951416 -0.31420898 0 0 0 0
0.097900391 -0.019012451 -0.31518555 0 0 0 0
0.099365234 -0.019012451 -0.31518555 0 0 0 0
0.10089111 -0.019012451 -0.31518555 0 0 0 0
0.10235596 -0.019012451 -0.31518555 0 0 0 0
0.1038208 -0.019012451 -0.31518555 0 0 0 0
0.10528564 -0.019012451 -0.31518555 0 0 0 0
0.10675049 -0.019012451 -0.31518555 0 0 0 0
0.10858154 -0.019073486 -0.31616211 0 0 0 0
0.11010742 -0.019073486 -0.31616211 0 0 0 0
0.11157227 -0.019073486 -0.31616211 0 0 0 0
0.11303711 -0.019073486 -0.31616211 0 0 0 0
0.11486816 -0.019134521 -0.31713867 0 0 0 0
-0.0097122192 -0.023422241 -0.36035156 0 0 0 0
-0.008026123 -0.023422241 -0.36035156 0 0 0 0
-0.0063171387 -0.023361206 -0.359375 0 0 0 0
-0.0046195984 -0.023300171 -0.35839844 0 0 0 0
-0.0029392242 -0.023300171 -0.35839844 0 0 0 0
-0.0012559891 -0.023239136 -0.35717773 0 0 0 0
0.00041794777 -0.023162842 -0.35620117 0 0 0 0
0.0020885468 -0.023162842 -0.35620117 0 0 0 0
0.0037498474 -0.023101807 -0.35522461 0 0 0 0
0.0053977966 -0.023040771 -0.35424805 0 0 0 0
0.0070610046 -0.023040771 -0.35424805 0 0 0 0
0.0086975098 -0.022964478 -0.35327148 0 0 0 0
0.010353088 -0.022964478 -0.35327148 0 0 0 0
0.011978149 -0.022903442 -0.35229492 0 0 0 0
0.013626099 -0.022903442 -0.35229492 0 0 0 0
0.015281677 -0.022903442 -0.35229492 0 0 0 0
0.016937256 -0.022903442 -0.35229492 0 0 0 0
0.01852417 -0.022842407 -0.35131836 0 0 0 0
0.020126343 -0.022781372 -0.3503418 0 0 0 0
0.021697998 -0.022705078 -0.34912109 0 0 0 0
0.023269653 -0.022644043 -0.34814453 0 0 0 0
0.024902344 -0.022644043 -0.34814453 0 0 0 0
0.026611328 -0.022705078 -0.34912109 0 0 0 0
0.028259277 -0.022705078 -0.34912109 0 0 0 0
0.029983521 -0.022781372 -0.3503418 0 0 0 0
0.031616211 -0.022781372 -0.3503418 0 0 0 0
0.033355713 -0.022842407 -0.35131836 0 0 0 0
0.035003662 -0.022842407 -0.35131836 0 0 0 0
0.036743164 -0.022903442 -0.35229492 0 0 0 0
0.038513184 -0.022964478 -0.35327148 0 0 0 0
0.040283203 -0.023040771 -0.35424805 0 0 0 0
0.042053223 -0.023101807 -0.35522461 0 0 0 0
0.04385376 -0.023162842 -0.35620117 0 0 0 0
0.045654297 -0.023239136 -0.35717773 0 0 0 0
0.047454834 -0.023300171 -0.35839844 0 0 0 0
0.049285889 -0.023361206 -0.359375 0 0 0 0
0.051269531 -0.023498535 -0.36132812 0 0 0 0
0.053100586 -0.02355957 -0.36230469 0 0 0 0
0.05480957 -0.02355957 -0.36230469 0 0 0 0
0.056640625 -0.023620605 -0.36328125 0 0 0 0
0.063903809 -0.020492554 -0.31518555 0 0 0 0
0.065368652 -0.020492554 -0.31518555 0 0 0 0
0.066833496 -0.020492554 -0.31518555 0 0 0 0
0.068359375 -0.020492554 -0.31518555 0 0 0 0
0.069580078 -0.020431519 -0.31420898 0 0 0 0
0.071044922 -0.020431519 -0.31420898 0 0 0 0
0.072570801 -0.020431519 -0.31420898 0 0 0 0
0.074035645 -0.020431519 -0.31420898 0 0 0 0
0.075500488 -0.020431519 -0.31420898 0 0 0 0
0.076965332 -0.020431519 -0.31420898 0 0 0 0
0.078430176 -0.020431519 -0.31420898 0 0 0 0
0.07989502 -0.020431519 -0.31420898 0 0 0 0
0.081359863 -0.020431519 -0.31420898 0 0 0 0
0.082885742 -0.020431519 -0.31420898 0 0 0 0
0.084350586 -0.020431519 -0.31420898 0 0 0 0
0.08581543 -0.020431519 -0.31420898 0 0 0 0
0.087280273 -0.020431519 -0.31420898 0 0 0 0
0.088745117 -0.020431519 -0.31420898 0 0 0 0
0.090209961 -0.020431519 -0.31420898 0 0 0 0
0.091674805 -0.020431519 -0.31420898 0 0 0 0
0.093200684 -0.020431519 -0.31420898 0 0 0 0
0.094970703 -0.020492554 -0.31518555 0 0 0 0
0.096435547 -0.020492554 -0.31518555 0 0 0 0
0.097900391 -0.020492554 -0.31518555 0 0 0 0
0.099365234 -0.020492554 -0.31518555 0 0 0 0
0.10089111 -0.020492554 -0.31518555 0 0 0 0
0.10235596 -0.020492554 -0.31518555 0 0 0 0
0.1038208 -0.020492554 -0.31518555 0 0 0 0
0.10528564 -0.020492554 -0.31518555 0 0 0 0
0.10675049 -0.020492554 -0.31518555 0 0 0 0
0.10827637 -0.020492554 -0.31518555 0 0 0 0
0.11010742 -0.020553589 -0.31616211 0 0 0 0
0.11157227 -0.020553589 -0.31616211 0 0 0 0
0.11303711 -0.020553589 -0.31616211 0 0 0 0
0.11450195 -0.020553589 -0.31616211 0 0 0 0
-0.011436462 -0.025192261 -0.36132812 0 0 0 0
-0.0097122192 -0.025115967 -0.36035156 0 0 0 0
-0.008026123 -0.025115967 -0.36035156 0 0 0 0
-0.0063171387 -0.025054932 -0.359375 0 0 0 0
-0.0046195984 -0.024978638 -0.35839844 0 0 0 0
-0.0029315948 -0.024902344 -0.35717773 0 0 0 0
-0.0012559891 -0.024902344 -0.35717773 0 0 0 0
0.00041794777 -0.024841309 -0.35620117 0 0 0 0
0.0020828247 -0.024765015 -0.35522461 0 0 0 0
0.0037498474 -0.024765015 -0.35522461 0 0 0 0
0.0053977966 -0.024703979 -0.35424805 0 0 0 0
0.0070419312 -0.024627686 -0.35327148 0 0 0 0
0.0086975098 -0.024627686 -0.35327148 0 0 0 0
0.010322571 -0.024551392 -0.35229492 0 0 0 0
0.011978149 -0.024551392 -0.35229492 0 0 0 0
0.013626099 -0.024551392 -0.35229492 0 0 0 0
0.015281677 -0.024551392 -0.35229492 0 0 0 0
0.016876221 -0.024490356 -0.35131836 0 0 0 0
0.020126343 -0.024414062 -0.3503418 0 0 0 0
0.021697998 -0.024353027 -0.34912109 0 0 0 0
0.023345947 -0.024353027 -0.34912109 0 0 0 0
0.024978638 -0.024353027 -0.34912109 0 0 0 0
0.026611328 -0.024353027 -0.34912109 0 0 0 0
0.028259277 -0.024353027 -0.34912109 0 0 0 0
0.029983521 -0.024414062 -0.3503418 0 0 0 0
0.031616211 -0.024414062 -0.3503418 0 0 0 0
0.033355713 -0.024490356 -0.35131836 0 0 0 0
0.035095215 -0.024551392 -0.35229492 0 0 0 0
0.036865234 -0.024627686 -0.35327148 0 0 0 0
0.038635254 -0.024703979 -0.35424805 0 0 0 0
0.040405273 -0.024765015 -0.35522461 0 0 0 0
0.042175293 -0.024841309 -0.35620117 0 0 0 0
0.04397583 -0.024902344 -0.35717773 0 0 0 0
0.045776367 -0.024978638 -0.35839844 0 0 0 0
0.047607422 -0.025054932 -0.359375 0 0 0 0
0.049407959 -0.025115967 -0.36035156 0 0 0 0
0.051269531 -0.025192261 -0.36132812 0 0 0 0
0.053100586 -0.025253296 -0.36230469 0 0 0 0
0.054962158 -0.02532959 -0.36328125 0 0 0 0
0.063720703 -0.021896362 -0.31420898 0 0 0 0
0.065185547 -0.021896362 -0.31420898 0 0 0 0
0.066650391 -0.021896362 -0.31420898 0 0 0 0
0.068115234 -0.021896362 -0.31420898 0 0 0 0
0.069580078 -0.021896362 -0.31420898 0 0 0 0
0.071044922 -0.021896362 -0.31420898 0 0 0 0
0.072570801 -0.021896362 -0.31420898 0 0 0 0
0.074035645 -0.021896362 -0.31420898 0 0 0 0
0.075500488 -0.021896362 -0.31420898 0 0 0 0
0.076965332 -0.021896362 -0.31420898 0 0 0 0
0.078430176 -0.021896362 -0.31420898 0 0 0 0
0.07989502 -0.021896362 -0.31420898 0 0 0 0
0.081359863 -0.021896362 -0.31420898 0 0 0 0
0.082885742 -0.021896362 -0.31420898 0 0 0 0
0.084350586 -0.021896362 -0.31420898 0 0 0 0
0.08581543 -0.021896362 -0.31420898 0 0 0 0
0.087280273 -0.021896362 -0.31420898 0 0 0 0
0.088745117 -0.021896362 -0.31420898 0 0 0 0
0.090209961 -0.021896362 -0.31420898 0 0 0 0
0.091674805 -0.021896362 -0.31420898 0 0 0 0
0.093444824 -0.021972656 -0.31518555 0 0 0 0
0.094970703 -0.021972656 -0.31518555 0 0 0 0
0.096435547 -0.021972656 -0.31518555 0 0 0 0
0.097900391 -0.021972656 -0.31518555 0 0 0 0
0.099365234 -0.021972656 -0.31518555 0 0 0 0
0.10089111 -0.021972656 -0.31518555 0 0 0 0
0.10235596 -0.021972656 -0.31518555 0 0 0 0
0.1038208 -0.021972656 -0.31518555 0 0 0 0
0.10528564 -0.021972656 -0.31518555 0 0 0 0
0.10675049 -0.021972656 -0.31518555 0 0 0 0
0.10827637 -0.021972656 -0.31518555 0 0 0 0
0.11010742 -0.022033691 -0.31616211 0 0 0 0
0.11157227 -0.022033691 -0.31616211 0 0 0 0
0.11303711 -0.022033691 -0.31616211 0 0 0 0
0.11450195 -0.022033691 -0.31616211 0 0 0 0
-0.013130188 -0.026885986 -0.36132812 0 0 0 0
-0.011436462 -0.026885986 -0.36132812 0 0 0 0
-0.0097122192 -0.026809692 -0.36035156 0 0 0 0
-0.0080032349 -0.026733398 -0.359375 0 0 0 0
-0.0063018799 -0.026657104 -0.35839844 0 0 0 0
-0.0046195984 -0.026657104 -0.35839844 0 0 0 0
-0.0029315948 -0.026580811 -0.35717773 0 0 0 0
-0.0012531281 -0.026504517 -0.35620117 0 0 0 0
0.00041794777 -0.026504517 -0.35620117 0 0 0 0
0.0020828247 -0.026428223 -0.35522461 0 0 0 0
0.0037384033 -0.026367188 -0.35424805 0 0 0 0
0.0053977966 -0.026367188 -0.35424805 0 0 0 0
0.0070419312 -0.026290894 -0.35327148 0 0 0 0
0.0086746216 -0.0262146 -0.35229492 0 0 0 0
0.010322571 -0.0262146 -0.35229492 0 0 0 0
0.011978149 -0.0262146 -0.35229492 0 0 0 0
0.013626099 -0.0262146 -0.35229492 0 0 0 0
0.015235901 -0.026138306 -0.35131836 0 0 0 0
0.016876221 -0.026138306 -0.35131836 0 0 0 0
0.018478394 -0.026062012 -0.3503418 0 0 0 0
0.020126343 -0.026062012 -0.3503418 0 0 0 0
0.021697998 -0.025985718 -0.34912109 0 0 0 0
0.023345947 -0.025985718 -0.34912109 0 0 0 0
0.024978638 -0.025985718 -0.34912109 0 0 0 0
0.026611328 -0.025985718 -0.34912109 0 0 0 0
0.028335571 -0.026062012 -0.3503418 0 0 0 0
0.029983521 -0.026062012 -0.3503418 0 0 0 0
0.031707764 -0.026138306 -0.35131836 0 0 0 0
0.033355713 -0.026138306 -0.35131836 0 0 0 0
0.035095215 -0.0262146 -0.35229492 0 0 0 0
0.036865234 -0.026290894 -0.35327148 0 0 0 0
0.038635254 -0.026367188 -0.35424805 0 0 0 0
0.040405273 -0.026428223 -0.35522461 0 0 0 0
0.042175293 -0.026504517 -0.35620117 0 0 0 0
0.04397583 -0.026580811 -0.35717773 0 0 0 0
0.045776367 -0.026657104 -0.35839844 0 0 0 0
0.047607422 -0.026733398 -0.359375 0 0 0 0
0.049407959 -0.026809692 -0.36035156 0 0 0 0
0.063903809 -0.023452759 -0.31518555 0 0 0 0
0.065185547 -0.023376465 -0.31420898 0 0 0 0
0.066650391 -0.023376465 -0.31420898 0 0 0 0
0.068115234 -0.023376465 -0.31420898 0 0 0 0
0.069580078 -0.023376465 -0.31420898 0 0 0 0
0.071044922 -0.023376465 -0.31420898 0 0 0 0
0.072570801 -0.023376465 -0.31420898 0 0 0 0
0.074035645 -0.023376465 -0.31420898 0 0 0 0
0.075500488 -0.023376465 -0.31420898 0 0 0 0
0.076965332 -0.023376465 -0.31420898 0 0 0 0
0.078430176 -0.023376465 -0.31420898 0 0 0 0
0.07989502 -0.023376465 -0.31420898 0 0 0 0
0.081359863 -0.023376465 -0.31420898 0 0 0 0
0.082885742 -0.023376465 -0.31420898 0 0 0 0
0.084350586 -0.023376465 -0.31420898 0 0 0 0
0.08581543 -0.023376465 -0.31420898 0 0 0 0
0.087280273 -0.023376465 -0.31420898 0 0 0 0
0.088745117 -0.023376465 -0.31420898 0 0 0 0
0.090209961 -0.023376465 -0.31420898 0 0 0 0
0.091674805 -0.023376465 -0.31420898 0 0 0 0
0.093444824 -0.023452759 -0.31518555 0 0 0 0
0.094970703 -0.023452759 -0.31518555 0 0 0 0
0.096435547 -0.023452759 -0.31518555 0 0 0 0
0.097900391 -0.023452759 -0.31518555 0 0 0 0
0.099365234 -0.023452759 -0.31518555 0 0 0 0
0.10089111 -0.023452759 -0.31518555 0 0 0 0
0.10235596 -0.023452759 -0.31518555 0 0 0 0
0.1038208 -0.023452759 -0.31518555 0 0 0 0
0.10528564 -0.023452759 -0.31518555 0 0 0 0
0.10675049 -0.023452759 -0.31518555 0 0 0 0
0.10827637 -0.023452759 -0.31518555 0 0 0 0
0.10974121 -0.023452759 -0.31518555 0 0 0 0
0.11157227 -0.023513794 -0.31616211 0 0 0 0
0.11303711 -0.023513794 -0.31616211 0 0 0 0
0.11450195 -0.023513794 -0.31616211 0 0 0 0
-0.014823914 -0.028579712 -0.36132812 0 0 0 0
-0.013130188 -0.028579712 -0.36132812 0 0 0 0
-0.011405945 -0.028503418 -0.36035156 0 0 0 0
-0.0096893311 -0.028411865 -0.359375 0 0 0 0
-0.0079803467 -0.028335571 -0.35839844 0 0 0 0
-0.0063018799 -0.028335571 -0.35839844 0 0 0 0
-0.0046081543 -0.028259277 -0.35717773 0 0 0 0
-0.0029239655 -0.028182983 -0.35620117 0 0 0 0
-0.0012493134 -0.028106689 -0.35522461 0 0 0 0
0.00041675568 -0.028106689 -0.35522461 0 0 0 0
0.0020771027 -0.028015137 -0.35424805 0 0 0 0
0.0037384033 -0.028015137 -0.35424805 0 0 0 0
0.0053825378 -0.027938843 -0.35327148 0 0 0 0
0.0070419312 -0.027938843 -0.35327148 0 0 0 0
0.0086746216 -0.027862549 -0.35229492 0 0 0 0
0.010322571 -0.027862549 -0.35229492 0 0 0 0
0.011940002 -0.027786255 -0.35131836 0 0 0 0
0.013587952 -0.027786255 -0.35131836 0 0 0 0
0.015235901 -0.027786255 -0.35131836 0 0 0 0
0.016876221 -0.027786255 -0.35131836 0 0 0 0
0.018478394 -0.027709961 -0.3503418 0 0 0 0
0.020126343 -0.027709961 -0.3503418 0 0 0 0
0.021697998 -0.027618408 -0.34912109 0 0 0 0
0.023345947 -0.027618408 -0.34912109 0 0 0 0
0.024978638 -0.027618408 -0.34912109 0 0 0 0
0.026687622 -0.027709961 -0.3503418 0 0 0 0
0.028335571 -0.027709961 -0.3503418 0 0 0 0
0.030059814 -0.027786255 -0.35131836 0 0 0 0
0.031707764 -0.027786255 -0.35131836 0 0 0 0
0.033447266 -0.027862549 -0.35229492 0 0 0 0
0.035186768 -0.027938843 -0.35327148 0 0 0 0
0.036956787 -0.028015137 -0.35424805 0 0 0 0
0.038726807 -0.028106689 -0.35522461 0 0 0 0
0.040527344 -0.028182983 -0.35620117 0 0 0 0
0.042297363 -0.028259277 -0.35717773 0 0 0 0
0.0440979 -0.028335571 -0.35839844 0 0 0 0
0.045898438 -0.028411865 -0.359375 0 0 0 0
0.047607422 -0.028411865 -0.359375 0 0 0 0
0.049407959 -0.028503418 -0.36035156 0 0 0 0
0.063720703 -0.024841309 -0.31420898 0 0 0 0
0.065185547 -0.024841309 -0.31420898 0 0 0 0
0.066650391 -0.024841309 -0.31420898 0 0 0 0
0.068115234 -0.024841309 -0.31420898 0 0 0 0
0.069580078 -0.024841309 -0.31420898 0 0 0 0
0.071044922 -0.024841309 -0.31420898 0 0 0 0
0.072570801 -0.024841309 -0.31420898 0 0 0 0
0.074035645 -0.024841309 -0.31420898 0 0 0 0
0.075500488 -0.024841309 -0.31420898 0 0 0 0
0.076965332 -0.024841309 -0.31420898 0 0 0 0
0.078430176 -0.024841309 -0.31420898 0 0 0 0
0.07989502 -0.024841309 -0.31420898 0 0 0 0
0.081359863 -0.024841309 -0.31420898 0 0 0 0
0.082885742 -0.024841309 -0.31420898 0 0 0 0
0.084350586 -0.024841309 -0.31420898 0 0 0 0
0.08581543 -0.024841309 -0.31420898 0 0 0 0
0.087280273 -0.024841309 -0.31420898 0 0 0 0
0.088745117 -0.024841309 -0.31420898 0 0 0 0
0.090209961 -0.024841309 -0.31420898 0 0 0 0
0.091674805 -0.024841309 -0.31420898 0 0 0 0
0.093200684 -0.024841309 -0.31420898 0 0 0 0
0.094970703 -0.024917603 -0.31518555 0 0 0 0
0.096435547 -0.024917603 -0.31518555 0 0 0 0
0.097900391 -0.024917603 -0.31518555 0 0 0 0
0.099365234 -0.024917603 -0.31518555 0 0 0 0
0.10089111 -0.024917603 -0.31518555 0 0 0 0
0.10235596 -0.024917603 -0.31518555 0 0 0 0
0.1038208 -0.024917603 -0.31518555 0 0 0 0
0.10528564 -0.024917603 -0.31518555 0 0 0 0
0.10675049 -0.024917603 -0.31518555 0 0 0 0
0.10827637 -0.024917603 -0.31518555 0 0 0 0
0.10974121 -0.024917603 -0.31518555 0 0 0 0
0.11120605 -0.024917603 -0.31518555 0 0 0 0
0.11303711 -0.025009155 -0.31616211 0 0 0 0
0.11450195 -0.025009155 -0.31616211 0 0 0 0
-0.018218994 -0.030273438 -0.36132812 0 0 0 0
-0.01651001 -0.030273438 -0.36132812 0 0 0 0
-0.014823914 -0.030273438 -0.36132812 0 0 0 0
-0.013092041 -0.030181885 -0.36035156 0 0 0 0
-0.011375427 -0.030105591 -0.359375 0 0 0 0
-0.0096588135 -0.030014038 -0.35839844 0 0 0 0
-0.0079803467 -0.030014038 -0.35839844 0 0 0 0
-0.0062828064 -0.029937744 -0.35717773 0 0 0 0
-0.0045928955 -0.029846191 -0.35620117 0 0 0 0
-0.0029144287 -0.029769897 -0.35522461 0 0 0 0
-0.0012493134 -0.029769897 -0.35522461 0 0 0 0
0.00041556358 -0.029678345 -0.35424805 0 0 0 0
0.0020771027 -0.029678345 -0.35424805 0 0 0 0
0.0037288666 -0.029602051 -0.35327148 0 0 0 0
0.0053825378 -0.029602051 -0.35327148 0 0 0 0
0.0070228577 -0.029510498 -0.35229492 0 0 0 0
0.0086746216 -0.029510498 -0.35229492 0 0 0 0
0.010292053 -0.029434204 -0.35131836 0 0 0 0
0.011940002 -0.029434204 -0.35131836 0 0 0 0
0.013587952 -0.029434204 -0.35131836 0 0 0 0
0.015197754 -0.029342651 -0.3503418 0 0 0 0
0.016830444 -0.029342651 -0.3503418 0 0 0 0
0.018478394 -0.029342651 -0.3503418 0 0 0 0
0.020126343 -0.029342651 -0.3503418 0 0 0 0
0.021759033 -0.029342651 -0.3503418 0 0 0 0
0.023345947 -0.029266357 -0.34912109 0 0 0 0
0.025054932 -0.029342651 -0.3503418 0 0 0 0
0.026687622 -0.029342651 -0.3503418 0 0 0 0
0.028335571 -0.029342651 -0.3503418 0 0 0 0
0.030059814 -0.029434204 -0.35131836 0 0 0 0
0.031799316 -0.029510498 -0.35229492 0 0 0 0
0.033447266 -0.029510498 -0.35229492 0 0 0 0
0.035186768 -0.029602051 -0.35327148 0 0 0 0
0.036956787 -0.029678345 -0.35424805 0 0 0 0
0.038726807 -0.029769897 -0.35522461 0 0 0 0
0.040527344 -0.029846191 -0.35620117 0 0 0 0
0.042297363 -0.029937744 -0.35717773 0 0 0 0
0.0440979 -0.030014038 -0.35839844 0 0 0 0
0.045898438 -0.030105591 -0.359375 0 0 0 0
0.047729492 -0.030181885 -0.36035156 0 0 0 0
0.063720703 -0.026321411 -0.31420898 0 0 0 0
0.065185547 -0.026321411 -0.31420898 0 0 0 0
0.066650391 -0.026321411 -0.31420898 0 0 0 0
0.068115234 -0.026321411 -0.31420898 0 0 0 0
0.069580078 -0.026321411 -0.31420898 0 0 0 0
0.071044922 -0.026321411 -0.31420898 0 0 0 0
0.072570801 -0.026321411 -0.31420898 0 0 0 0
0.074035645 -0.026321411 -0.31420898 0 0 0 0
0.075500488 -0.026321411 -0.31420898 0 0 0 0
0.076965332 -0.026321411 -0.31420898 0 0 0 0
0.078430176 -0.026321411 -0.31420898 0 0 0 0
0.07989502 -0.026321411 -0.31420898 0 0 0 0
0.081359863 -0.026321411 -0.31420898 0 0 0 0
0.082885742 -0.026321411 -0.31420898 0 0 0 0
0.084350586 -0.026321411 -0.31420898 0 0 0 0
0.08581543 -0.026321411 -0.31420898 0 0 0 0
0.087280273 -0.026321411 -0.31420898 0 0 0 0
0.088745117 -0.026321411 -0.31420898 0 0 0 0
0.090209961 -0.026321411 -0.31420898 0 0 0 0
0.091674805 -0.026321411 -0.31420898 0 0 0 0
0.093200684 -0.026321411 -0.31420898 0 0 0 0
0.094665527 -0.026321411 -0.31420898 0 0 0 0
0.096130371 -0.026321411 -0.31420898 0 0 0 0
0.097595215 -0.026321411 -0.31420898 0 0 0 0
0.099060059 -0.026321411 -0.31420898 0 0 0 0
0.1005249 -0.026321411 -0.31420898 0 0 0 0
0.10198975 -0.026321411 -0.31420898 0 0 0 0
0.10351562 -0.026321411 -0.31420898 0 0 0 0
0.10498047 -0.026321411 -0.31420898 0 0 0 0
0.10675049 -0.026397705 -0.31518555 0 0 0 0
0.10827637 -0.026397705 -0.31518555 0 0 0 0
0.10974121 -0.026397705 -0.31518555 0 0 0 0
0.11120605 -0.026397705 -0.31518555 0 0 0 0
0.1126709 -0.026397705 -0.31518555 0 0 0 0
0.11450195 -0.026489258 -0.31616211 0 0 0 0
-0.019958496 -0.032043457 -0.36230469 0 0 0 0
-0.018218994 -0.031951904 -0.36132812 0 0 0 0
-0.01651001 -0.031951904 -0.36132812 0 0 0 0
-0.014785767 -0.031860352 -0.36035156 0 0 0 0
-0.013061523 -0.031768799 -0.359375 0 0 0 0
-0.01133728 -0.031707764 -0.35839844 0 0 0 0
-0.0096588135 -0.031707764 -0.35839844 0 0 0 0
-0.0079574585 -0.031616211 -0.35717773 0 0 0 0
-0.0062637329 -0.031524658 -0.35620117 0 0 0 0
-0.0045814514 -0.031433105 -0.35522461 0 0 0 0
-0.0029067993 -0.031341553 -0.35424805 0 0 0 0
-0.0012454987 -0.031341553 -0.35424805 0 0 0 0
0.00041437149 -0.03125 -0.35327148 0 0 0 0
0.0020713806 -0.03125 -0.35327148 0 0 0 0
0.0037174225 -0.031173706 -0.35229492 0 0 0 0
0.0053672791 -0.031173706 -0.35229492 0 0 0 0
0.0069999695 -0.031082153 -0.35131836 0 0 0 0
0.008644104 -0.031082153 -0.35131836 0 0 0 0
0.010292053 -0.031082153 -0.35131836 0 0 0 0
0.011909485 -0.030990601 -0.3503418 0 0 0 0
0.013549805 -0.030990601 -0.3503418 0 0 0 0
0.015197754 -0.030990601 -0.3503418 0 0 0 0
0.016830444 -0.030990601 -0.3503418 0 0 0 0
0.018478394 -0.030990601 -0.3503418 0 0 0 0
0.020126343 -0.030990601 -0.3503418 0 0 0 0
0.021759033 -0.030990601 -0.3503418 0 0 0 0
0.023406982 -0.030990601 -0.3503418 0 0 0 0
0.025054932 -0.030990601 -0.3503418 0 0 0 0
0.026687622 -0.030990601 -0.3503418 0 0 0 0
0.028411865 -0.031082153 -0.35131836 0 0 0 0
0.030059814 -0.031082153 -0.35131836 0 0 0 0
0.031799316 -0.031173706 -0.35229492 0 0 0 0
0.033538818 -0.03125 -0.35327148 0 0 0 0
0.035308838 -0.031341553 -0.35424805 0 0 0 0
0.037078857 -0.031433105 -0.35522461 0 0 0 0
0.038848877 -0.031524658 -0.35620117 0 0 0 0
0.040618896 -0.031616211 -0.35717773 0 0 0 0
0.042419434 -0.031707764 -0.35839844 0 0 0 0
0.044219971 -0.031768799 -0.359375 0 0 0 0
0.045898438 -0.031768799 -0.359375 0 0 0 0
0.047729492 -0.031860352 -0.36035156 0 0 0 0
0.063903809 -0.027877808 -0.31518555 0 0 0 0
0.065368652 -0.027877808 -0.31518555 0 0 0 0
0.066650391 -0.027786255 -0.31420898 0 0 0 0
0.068115234 -0.027786255 -0.31420898 0 0 0 0
0.069580078 -0.027786255 -0.31420898 0 0 0 0
0.071044922 -0.027786255 -0.31420898 0 0 0 0
0.072570801 -0.027786255 -0.31420898 0 0 0 0
0.074035645 -0.027786255 -0.31420898 0 0 0 0
0.075500488 -0.027786255 -0.31420898 0 0 0 0
0.076965332 -0.027786255 -0.31420898 0 0 0 0
0.078430176 -0.027786255 -0.31420898 0 0 0 0
0.07989502 -0.027786255 -0.31420898 0 0 0 0
0.081359863 -0.027786255 -0.31420898 0 0 0 0
0.082885742 -0.027786255 -0.31420898 0 0 0 0
0.084350586 -0.027786255 -0.31420898 0 0 0 0
0.08581543 -0.027786255 -0.31420898 0 0 0 0
0.087280273 -0.027786255 -0.31420898 0 0 0 0
0.088745117 -0.027786255 -0.31420898 0 0 0 0
0.090209961 -0.027786255 -0.31420898 0 0 0 0
0.091674805 -0.027786255 -0.31420898 0 0 0 0
0.093200684 -0.027786255 -0.31420898 0 0 0 0
0.094665527 -0.027786255 -0.31420898 0 0 0 0
0.096130371 -0.027786255 -0.31420898 0 0 0 0
0.097595215 -0.027786255 -0.31420898 0 0 0 0
0.099060059 -0.027786255 -0.31420898 0 0 0 0
0.1005249 -0.027786255 -0.31420898 0 0 0 0
0.10198975 -0.027786255 -0.31420898 0 0 0 0
0.10351562 -0.027786255 -0.31420898 0 0 0 0
0.10498047 -0.027786255 -0.31420898 0 0 0 0
0.10644531 -0.027786255 -0.31420898 0 0 0 0
0.10827637 -0.027877808 -0.31518555 0 0 0 0
0.10974121 -0.027877808 -0.31518555 0 0 0 0
0.11120605 -0.027877808 -0.31518555 0 0 0 0
0.1126709 -0.027877808 -0.31518555 0 0 0 0
0.11419678 -0.027877808 -0.31518555 0 0 0 0
0.11566162 -0.027877808 -0.31518555 0 0 0 0
-0.01991272 -0.033660889 -0.36132812 0 0 0 0
-0.018218994 -0.033660889 -0.36132812 0 0 0 0
-0.016464233 -0.033569336 -0.36035156 0 0 0 0
-0.01473999 -0.033477783 -0.359375 0 0 0 0
-0.013061523 -0.033477783 -0.359375 0 0 0 0
-0.01133728 -0.03338623 -0.35839844 0 0 0 0
-0.0096359253 -0.033294678 -0.35717773 0 0 0 0
-0.0079345703 -0.033172607 -0.35620117 0 0 0 0
-0.0062484741 -0.033081055 -0.35522461 0 0 0 0
-0.0045661926 -0.032989502 -0.35424805 0 0 0 0
-0.0029067993 -0.032989502 -0.35424805 0 0 0 0
-0.0012426376 -0.032897949 -0.35327148 0 0 0 0
0.00041437149 -0.032897949 -0.35327148 0 0 0 0
0.0020656586 -0.032806396 -0.35229492 0 0 0 0
0.0037174225 -0.032806396 -0.35229492 0 0 0 0
0.0053520203 -0.032714844 -0.35131836 0 0 0 0
0.0069999695 -0.032714844 -0.35131836 0 0 0 0
0.0086212158 -0.032623291 -0.3503418 0 0 0 0
0.010269165 -0.032623291 -0.3503418 0 0 0 0
0.011909485 -0.032623291 -0.3503418 0 0 0 0
0.013549805 -0.032623291 -0.3503418 0 0 0 0
0.015197754 -0.032623291 -0.3503418 0 0 0 0
0.016830444 -0.032623291 -0.3503418 0 0 0 0
0.018478394 -0.032623291 -0.3503418 0 0 0 0
0.020126343 -0.032623291 -0.3503418 0 0 0 0
0.021759033 -0.032623291 -0.3503418 0 0 0 0
0.023406982 -0.032623291 -0.3503418 0 0 0 0
0.025054932 -0.032623291 -0.3503418 0 0 0 0
0.026763916 -0.032714844 -0.35131836 0 0 0 0
0.028411865 -0.032714844 -0.35131836 0 0 0 0
0.030151367 -0.032806396 -0.35229492 0 0 0 0
0.031890869 -0.032897949 -0.35327148 0 0 0 0
0.033538818 -0.032897949 -0.35327148 0 0 0 0
0.035308838 -0.032989502 -0.35424805 0 0 0 0
0.037078857 -0.033081055 -0.35522461 0 0 0 0
0.038848877 -0.033172607 -0.35620117 0 0 0 0
0.040618896 -0.033294678 -0.35717773 0 0 0 0
0.042419434 -0.03338623 -0.35839844 0 0 0 0
0.044219971 -0.033477783 -0.359375 0 0 0 0
0.045898438 -0.033477783 -0.359375 0 0 0 0
0.047729492 -0.033569336 -0.36035156 0 0 0 0
0.063903809 -0.02935791 -0.31518555 0 0 0 0
0.065368652 -0.02935791 -0.31518555 0 0 0 0
0.066833496 -0.02935791 -0.31518555 0 0 0 0
0.068115234 -0.029266357 -0.31420898 0 0 0 0
0.069580078 -0.029266357 -0.31420898 0 0 0 0
0.071044922 -0.029266357 -0.31420898 0 0 0 0
0.072570801 -0.029266357 -0.31420898 0 0 0 0
0.074035645 -0.029266357 -0.31420898 0 0 0 0
0.075500488 -0.029266357 -0.31420898 0 0 0 0
0.076965332 -0.029266357 -0.31420898 0 0 0 0
0.078430176 -0.029266357 -0.31420898 0 0 0 0
0.07989502 -0.029266357 -0.31420898 0 0 0 0
0.081359863 -0.029266357 -0.31420898 0 0 0 0
0.082885742 -0.029266357 -0.31420898 0 0 0 0
0.084350586 -0.029266357 -0.31420898 0 0 0 0
0.08581543 -0.029266357 -0.31420898 0 0 0 0
0.087280273 -0.029266357 -0.31420898 0 0 0 0
0.088745117 -0.029266357 -0.31420898 0 0 0 0
0.090209961 -0.029266357 -0.31420898 0 0 0 0
0.091674805 -0.029266357 -0.31420898 0 0 0 0
0.093200684 -0.029266357 -0.31420898 0 0 0 0
0.094665527 -0.029266357 -0.31420898 0 0 0 0
0.096130371 -0.029266357 -0.31420898 0 0 0 0
0.097595215 -0.029266357 -0.31420898 0 0 0 0
0.099060059 -0.029266357 -0.31420898 0 0 0 0
0.1005249 -0.029266357 -0.31420898 0 0 0 0
0.10198975 -0.029266357 -0.31420898 0 0 0 0
0.10351562 -0.029266357 -0.31420898 0 0 0 0
0.10498047 -0.029266357 -0.31420898 0 0 0 0
0.10644531 -0.029266357 -0.31420898 0 0 0 0
0.10791016 -0.029266357 -0.31420898 0 0 0 0
0.10974121 -0.02935791 -0.31518555 0 0 0 0
0.11120605 -0.02935791 -0.31518555 0 0 0 0
0.1126709 -0.02935791 -0.31518555 0 0 0 0
0.11419678 -0.02935791 -0.31518555 0 0 0 0
0.11566162 -0.02935791 -0.31518555 0 0 0 0
-0.01991272 -0.035339355 -0.36132812 0 0 0 0
-0.018157959 -0.035247803 -0.36035156 0 0 0 0
-0.016418457 -0.03515625 -0.359375 0 0 0 0
-0.01473999 -0.03515625 -0.359375 0 0 0 0
-0.013023376 -0.035064697 -0.35839844 0 0 0 0
-0.011306763 -0.034942627 -0.35717773 0 0 0 0
-0.0096054077 -0.034851074 -0.35620117 0 0 0 0
-0.0079116821 -0.034759521 -0.35522461 0 0 0 0
-0.0062294006 -0.034667969 -0.35424805 0 0 0 0
-0.0045661926 -0.034667969 -0.35424805 0 0 0 0
-0.0028991699 -0.034576416 -0.35327148 0 0 0 0
-0.0012388229 -0.034454346 -0.35229492 0 0 0 0
0.0004131794 -0.034454346 -0.35229492 0 0 0 0
0.0020656586 -0.034454346 -0.35229492 0 0 0 0
0.0037059784 -0.034362793 -0.35131836 0 0 0 0
0.0053520203 -0.034362793 -0.35131836 0 0 0 0
0.006980896 -0.03427124 -0.3503418 0 0 0 0
0.0086212158 -0.03427124 -0.3503418 0 0 0 0
0.010269165 -0.03427124 -0.3503418 0 0 0 0
0.011871338 -0.034179688 -0.34912109 0 0 0 0
0.013511658 -0.034179688 -0.34912109 0 0 0 0
0.015151978 -0.034179688 -0.34912109 0 0 0 0
0.016784668 -0.034179688 -0.34912109 0 0 0 0
0.018478394 -0.03427124 -0.3503418 0 0 0 0
0.020126343 -0.03427124 -0.3503418 0 0 0 0
0.021759033 -0.03427124 -0.3503418 0 0 0 0
0.023406982 -0.03427124 -0.3503418 0 0 0 0
0.025115967 -0.034362793 -0.35131836 0 0 0 0
0.026763916 -0.034362793 -0.35131836 0 0 0 0
0.028503418 -0.034454346 -0.35229492 0 0 0 0
0.030151367 -0.034454346 -0.35229492 0 0 0 0
0.031890869 -0.034576416 -0.35327148 0 0 0 0
0.033630371 -0.034667969 -0.35424805 0 0 0 0
0.035400391 -0.034759521 -0.35522461 0 0 0 0
0.03717041 -0.034851074 -0.35620117 0 0 0 0
0.03894043 -0.034942627 -0.35717773 0 0 0 0
0.040618896 -0.034942627 -0.35717773 0 0 0 0
0.042419434 -0.035064697 -0.35839844 0 0 0 0
0.044219971 -0.03515625 -0.359375 0 0 0 0
0.045898438 -0.03515625 -0.359375 0 0 0 0
0.06262207 -0.030929565 -0.31616211 0 0 0 0
0.063903809 -0.030838013 -0.31518555 0 0 0 0
0.065368652 -0.030838013 -0.31518555 0 0 0 0
0.066833496 -0.030838013 -0.31518555 0 0 0 0
0.068115234 -0.03074646 -0.31420898 0 0 0 0
0.069580078 -0.03074646 -0.31420898 0 0 0 0
0.071044922 -0.03074646 -0.31420898 0 0 0 0
0.072570801 -0.03074646 -0.31420898 0 0 0 0
0.074035645 -0.03074646 -0.31420898 0 0 0 0
0.075500488 -0.03074646 -0.31420898 0 0 0 0
0.076965332 -0.03074646 -0.31420898 0 0 0 0
0.078430176 -0.03074646 -0.31420898 0 0 0 0
0.07989502 -0.03074646 -0.31420898 0 0 0 0
0.081359863 -0.03074646 -0.31420898 0 0 0 0
0.082885742 -0.03074646 -0.31420898 0 0 0 0
0.084350586 -0.03074646 -0.31420898 0 0 0 0
0.08581543 -0.03074646 -0.31420898 0 0 0 0
0.087280273 -0.03074646 -0.31420898 0 0 0 0
0.088745117 -0.03074646 -0.31420898 0 0 0 0
0.090209961 -0.03074646 -0.31420898 0 0 0 0
0.091674805 -0.03074646 -0.31420898 0 0 0 0
0.093200684 -0.03074646 -0.31420898 0 0 0 0
0.094665527 -0.03074646 -0.31420898 0 0 0 0
0.096130371 -0.03074646 -0.31420898 0 0 0 0
0.097595215 -0.03074646 -0.31420898 0 0 0 0
0.099060059 -0.03074646 -0.31420898 0 0 0 0
0.1005249 -0.03074646 -0.31420898 0 0 0 0
0.10198975 -0.03074646 -0.31420898 0 0 0 0
0.10351562 -0.03074646 -0.31420898 0 0 0 0
0.10498047 -0.03074646 -0.31420898 0 0 0 0
0.10644531 -0.03074646 -0.31420898 0 0 0 0
0.10791016 -0.03074646 -0.31420898 0 0 0 0
0.109375 -0.03074646 -0.31420898 0 0 0 0
0.11120605 -0.030838013 -0.31518555 0 0 0 0
0.1126709 -0.030838013 -0.31518555 0 0 0 0
0.11419678 -0.030838013 -0.31518555 0 0 0 0
0.11566162 -0.030838013 -0.31518555 0 0 0 0
-0.01991272 -0.03704834 -0.36132812 0 0 0 0
-0.018112183 -0.036834717 -0.359375 0 0 0 0
-0.016418457 -0.036834717 -0.359375 0 0 0 0
-0.014701843 -0.036743164 -0.35839844 0 0 0 0
-0.012985229 -0.036621094 -0.35717773 0 0 0 0
-0.011276245 -0.036529541 -0.35620117 0 0 0 0
-0.0095825195 -0.036437988 -0.35522461 0 0 0 0
-0.0079116821 -0.036437988 -0.35522461 0 0 0 0
-0.0062294006 -0.036315918 -0.35424805 0 0 0 0
-0.0045547485 -0.036224365 -0.35327148 0 0 0 0
-0.0028915405 -0.036132812 -0.35229492 0 0 0 0
-0.0012388229 -0.036132812 -0.35229492 0 0 0 0
0.0004119873 -0.036010742 -0.35131836 0 0 0 0
0.0020599365 -0.036010742 -0.35131836 0 0 0 0
0.0037059784 -0.036010742 -0.35131836 0 0 0 0
0.0053367615 -0.035919189 -0.3503418 0 0 0 0
0.006980896 -0.035919189 -0.3503418 0 0 0 0
0.0085983276 -0.035797119 -0.34912109 0 0 0 0
0.010238647 -0.035797119 -0.34912109 0 0 0 0
0.011871338 -0.035797119 -0.34912109 0 0 0 0
0.013511658 -0.035797119 -0.34912109 0 0 0 0
0.015151978 -0.035797119 -0.34912109 0 0 0 0
0.016784668 -0.035797119 -0.34912109 0 0 0 0
0.018478394 -0.035919189 -0.3503418 0 0 0 0
0.020126343 -0.035919189 -0.3503418 0 0 0 0
0.021759033 -0.035919189 -0.3503418 0 0 0 0
0.023468018 -0.036010742 -0.35131836 0 0 0 0
0.025115967 -0.036010742 -0.35131836 0 0 0 0
0.02684021 -0.036132812 -0.35229492 0 0 0 0
0.028503418 -0.036132812 -0.35229492 0 0 0 0
0.03024292 -0.036224365 -0.35327148 0 0 0 0
0.031982422 -0.036315918 -0.35424805 0 0 0 0
0.033721924 -0.036437988 -0.35522461 0 0 0 0
0.035400391 -0.036437988 -0.35522461 0 0 0 0
0.03717041 -0.036529541 -0.35620117 0 0 0 0
0.03894043 -0.036621094 -0.35717773 0 0 0 0
0.040740967 -0.036743164 -0.35839844 0 0 0 0
0.042419434 -0.036743164 -0.35839844 0 0 0 0
0.0440979 -0.036743164 -0.35839844 0 0 0 0
0.06262207 -0.032409668 -0.31616211 0 0 0 0
0.063903809 -0.032318115 -0.31518555 0 0 0 0
0.065368652 -0.032318115 -0.31518555 0 0 0 0
0.066833496 -0.032318115 -0.31518555 0 0 0 0
0.068359375 -0.032318115 -0.31518555 0 0 0 0
0.069580078 -0.032196045 -0.31420898 0 0 0 0
0.071044922 -0.032196045 -0.31420898 0 0 0 0
0.072570801 -0.032196045 -0.31420898 0 0 0 0
0.074035645 -0.032196045 -0.31420898 0 0 0 0
0.075500488 -0.032196045 -0.31420898 0 0 0 0
0.076965332 -0.032196045 -0.31420898 0 0 0 0
0.078430176 -0.032196045 -0.31420898 0 0 0 0
0.07989502 -0.032196045 -0.31420898 0 0 0 0
0.081359863 -0.032196045 -0.31420898 0 0 0 0
0.082885742 -0.032196045 -0.31420898 0 0 0 0
0.084350586 -0.032196045 -0.31420898 0 0 0 0
0.08581543 -0.032196045 -0.31420898 0 0 0 0
0.087280273 -0.032196045 -0.31420898 0 0 0 0
0.088745117 -0.032196045 -0.31420898 0 0 0 0
0.090209961 -0.032196045 -0.31420898 0 0 0 0
0.091674805 -0.032196045 -0.31420898 0 0 0 0
0.093200684 -0.032196045 -0.31420898 0 0 0 0
0.094665527 -0.032196045 -0.31420898 0 0 0 0
0.096130371 -0.032196045 -0.31420898 0 0 0 0
0.097595215 -0.032196045 -0.31420898 0 0 0 0
0.099060059 -0.032196045 -0.31420898 0 0 0 0
0.1005249 -0.032196045 -0.31420898 0 0 0 0
0.10198975 -0.032196045 -0.31420898 0 0 0 0
0.10351562 -0.032196045 -0.31420898 0 0 0 0
0.10498047 -0.032196045 -0.31420898 0 0 0 0
0.10644531 -0.032196045 -0.31420898 0 0 0 0
0.10791016 -0.032196045 -0.31420898 0 0 0 0
0.109375 -0.032196045 -0.31420898 0 0 0 0
0.11083984 -0.032196045 -0.31420898 0 0 0 0
0.1126709 -0.032318115 -0.31518555 0 0 0 0
0.11419678 -0.032318115 -0.31518555 0 0 0 0
0.11566162 -0.032318115 -0.31518555 0 0 0 0
-0.01991272 -0.038726807 -0.36132812 0 0 0 0
-0.018112183 -0.038513184 -0.359375 0 0 0 0
-0.016372681 -0.038421631 -0.35839844 0 0 0 0
-0.014663696 -0.038299561 -0.35717773 0 0 0 0
-0.012947083 -0.038208008 -0.35620117 0 0 0 0
-0.011276245 -0.038208008 -0.35620117 0 0 0 0
-0.0095825195 -0.038085938 -0.35522461 0 0 0 0
-0.0078887939 -0.037994385 -0.35424805 0 0 0 0
-0.0062141418 -0.037872314 -0.35327148 0 0 0 0
-0.0045547485 -0.037872314 -0.35327148 0 0 0 0
-0.0028915405 -0.037780762 -0.35229492 0 0 0 0
-0.0012388229 -0.037780762 -0.35229492 0 0 0 0
0.0004119873 -0.037658691 -0.35131836 0 0 0 0
0.0020599365 -0.037658691 -0.35131836 0 0 0 0
0.0036964417 -0.037567139 -0.3503418 0 0 0 0
0.0053367615 -0.037567139 -0.3503418 0 0 0 0
0.006980896 -0.037567139 -0.3503418 0 0 0 0
0.0085983276 -0.037445068 -0.34912109 0 0 0 0
0.010238647 -0.037445068 -0.34912109 0 0 0 0
0.011871338 -0.037445068 -0.34912109 0 0 0 0
0.013511658 -0.037445068 -0.34912109 0 0 0 0
0.015151978 -0.037445068 -0.34912109 0 0 0 0
0.016830444 -0.037567139 -0.3503418 0 0 0 0
0.018478394 -0.037567139 -0.3503418 0 0 0 0
0.020126343 -0.037567139 -0.3503418 0 0 0 0
0.021820068 -0.037658691 -0.35131836 0 0 0 0
0.023468018 -0.037658691 -0.35131836 0 0 0 0
0.025115967 -0.037658691 -0.35131836 0 0 0 0
0.02684021 -0.037780762 -0.35229492 0 0 0 0
0.028579712 -0.037872314 -0.35327148 0 0 0 0
0.030319214 -0.037994385 -0.35424805 0 0 0 0
0.032073975 -0.038085938 -0.35522461 0 0 0 0
0.033721924 -0.038085938 -0.35522461 0 0 0 0
0.035491943 -0.038208008 -0.35620117 0 0 0 0
0.037261963 -0.038299561 -0.35717773 0 0 0 0
0.0390625 -0.038421631 -0.35839844 0 0 0 0
0.040740967 -0.038421631 -0.35839844 0 0 0 0
0.042419434 -0.038421631 -0.35839844 0 0 0 0
0.061157227 -0.033905029 -0.31616211 0 0 0 0
0.06262207 -0.033905029 -0.31616211 0 0 0 0
0.063903809 -0.033782959 -0.31518555 0 0 0 0
0.065368652 -0.033782959 -0.31518555 0 0 0 0
0.066833496 -0.033782959 -0.31518555 0 0 0 0
0.068359375 -0.033782959 -0.31518555 0 0 0 0
0.069580078 -0.033691406 -0.31420898 0 0 0 0
0.071044922 -0.033691406 -0.31420898 0 0 0 0
0.072570801 -0.033691406 -0.31420898 0 0 0 0
0.074035645 -0.033691406 -0.31420898 0 0 0 0
0.075500488 -0.033691406 -0.31420898 0 0 0 0
0.076965332 -0.033691406 -0.31420898 0 0 0 0
0.078430176 -0.033691406 -0.31420898 0 0 0 0
0.07989502 -0.033691406 -0.31420898 0 0 0 0
0.081359863 -0.033691406 -0.31420898 0 0 0 0
0.082885742 -0.033691406 -0.31420898 0 0 0 0
0.084350586 -0.033691406 -0.31420898 0 0 0 0
0.08581543 -0.033691406 -0.31420898 0 0 0 0
0.087280273 -0.033691406 -0.31420898 0 0 0 0
0.088745117 -0.033691406 -0.31420898 0 0 0 0
0.090209961 -0.033691406 -0.31420898 0 0 0 0
0.091674805 -0.033691406 -0.31420898 0 0 0 0
0.093200684 -0.033691406 -0.31420898 0 0 0 0
0.094665527 -0.033691406 -0.31420898 0 0 0 0
0.096130371 -0.033691406 -0.31420898 0 0 0 0
0.097595215 -0.033691406 -0.31420898 0 0 0 0
0.099060059 -0.033691406 -0.31420898 0 0 0 0
0.1005249 -0.033691406 -0.31420898 0 0 0 0
0.10198975 -0.033691406 -0.31420898 0 0 0 0
0.10351562 -0.033691406 -0.31420898 0 0 0 0
0.10498047 -0.033691406 -0.31420898 0 0 0 0
0.10644531 -0.033691406 -0.31420898 0 0 0 0
0.10791016 -0.033691406 -0.31420898 0 0 0 0
0.109375 -0.033691406 -0.31420898 0 0 0 0
0.11083984 -0.033691406 -0.31420898 0 0 0 0
0.11230469 -0.033691406 -0.31420898 0 0 0 0
0.11383057 -0.033691406 -0.31420898 0 0 0 0
0.11566162 -0.033782959 -0.31518555 0 0 0 0
-0.018005371 -0.039978027 -0.35717773 0 0 0 0
-0.016326904 -0.039978027 -0.35717773 0 0 0 0
-0.01461792 -0.039886475 -0.35620117 0 0 0 0
-0.012947083 -0.039886475 -0.35620117 0 0 0 0
-0.011245728 -0.039764404 -0.35522461 0 0 0 0
-0.009552002 -0.039642334 -0.35424805 0 0 0 0
-0.0078887939 -0.039642334 -0.35424805 0 0 0 0
-0.0062141418 -0.039520264 -0.35327148 0 0 0 0
-0.0045433044 -0.039428711 -0.35229492 0 0 0 0
-0.0028915405 -0.039428711 -0.35229492 0 0 0 0
-0.0012350082 -0.039306641 -0.35131836 0 0 0 0
0.0004119873 -0.039306641 -0.35131836 0 0 0 0
0.0020523071 -0.03918457 -0.3503418 0 0 0 0
0.0036964417 -0.03918457 -0.3503418 0 0 0 0
0.0053367615 -0.03918457 -0.3503418 0 0 0 0
0.0069618225 -0.039093018 -0.34912109 0 0 0 0
0.0085983276 -0.039093018 -0.34912109 0 0 0 0
0.010238647 -0.039093018 -0.34912109 0 0 0 0
0.011871338 -0.039093018 -0.34912109 0 0 0 0
0.013511658 -0.039093018 -0.34912109 0 0 0 0
0.015151978 -0.039093018 -0.34912109 0 0 0 0
0.016830444 -0.03918457 -0.3503418 0 0 0 0
0.018478394 -0.03918457 -0.3503418 0 0 0 0
0.020172119 -0.039306641 -0.35131836 0 0 0 0
0.021820068 -0.039306641 -0.35131836 0 0 0 0
0.023468018 -0.039306641 -0.35131836 0 0 0 0
0.025192261 -0.039428711 -0.35229492 0 0 0 0
0.026916504 -0.039520264 -0.35327148 0 0 0 0
0.028656006 -0.039642334 -0.35424805 0 0 0 0
0.030319214 -0.039642334 -0.35424805 0 0 0 0
0.032073975 -0.039764404 -0.35522461 0 0 0 0
0.033843994 -0.039886475 -0.35620117 0 0 0 0
0.035614014 -0.039978027 -0.35717773 0 0 0 0
0.037384033 -0.040100098 -0.35839844 0 0 0 0
0.0390625 -0.040100098 -0.35839844 0 0 0 0
0.040740967 -0.040100098 -0.35839844 0 0 0 0
0.061157227 -0.035369873 -0.31616211 0 0 0 0
0.06262207 -0.035369873 -0.31616211 0 0 0 0
0.064086914 -0.035369873 -0.31616211 0 0 0 0
0.065368652 -0.03527832 -0.31518555 0 0 0 0
0.066833496 -0.03527832 -0.31518555 0 0 0 0
0.068359375 -0.03527832 -0.31518555 0 0 0 0
0.069824219 -0.03527832 -0.31518555 0 0 0 0
0.071044922 -0.03515625 -0.31420898 0 0 0 0
0.072570801 -0.03515625 -0.31420898 0 0 0 0
0.074035645 -0.03515625 -0.31420898 0 0 0 0
0.075500488 -0.03515625 -0.31420898 0 0 0 0
0.076965332 -0.03515625 -0.31420898 0 0 0 0
0.078430176 -0.03515625 -0.31420898 0 0 0 0
0.07989502 -0.03515625 -0.31420898 0 0 0 0
0.081359863 -0.03515625 -0.31420898 0 0 0 0
0.082885742 -0.03515625 -0.31420898 0 0 0 0
0.084350586 -0.03515625 -0.31420898 0 0 0 0
0.08581543 -0.03515625 -0.31420898 0 0 0 0
0.087280273 -0.03515625 -0.31420898 0 0 0 0
0.088745117 -0.03515625 -0.31420898 0 0 0 0
0.090209961 -0.03515625 -0.31420898 0 0 0 0
0.091674805 -0.03515625 -0.31420898 0 0 0 0
0.093200684 -0.03515625 -0.31420898 0 0 0 0
0.094665527 -0.03515625 -0.31420898 0 0 0 0
0.096130371 -0.03515625 -0.31420898 0 0 0 0
0.097595215 -0.03515625 -0.31420898 0 0 0 0
0.099060059 -0.03515625 -0.31420898 0 0 0 0
0.1005249 -0.03515625 -0.31420898 0 0 0 0
0.10198975 -0.03515625 -0.31420898 0 0 0 0
0.10351562 -0.03515625 -0.31420898 0 0 0 0
0.10498047 -0.03515625 -0.31420898 0 0 0 0
0.10644531 -0.03515625 -0.31420898 0 0 0 0
0.10791016 -0.03515625 -0.31420898 0 0 0 0
0.109375 -0.03515625 -0.31420898 0 0 0 0
0.11083984 -0.03515625 -0.31420898 0 0 0 0
0.11230469 -0.03515625 -0.31420898 0 0 0 0
0.11383057 -0.03515625 -0.31420898 0 0 0 0
-0.019622803 -0.041534424 -0.35620117 0 0 0 0
-0.017959595 -0.041534424 -0.35620117 0 0 0 0
-0.016281128 -0.041534424 -0.35620117 0 0 0 0
-0.014579773 -0.041412354 -0.35522461 0 0 0 0
-0.012908936 -0.041412354 -0.35522461 0 0 0 0
-0.01121521 -0.041320801 -0.35424805 0 0 0 0
-0.009552002 -0.041320801 -0.35424805 0 0 0 0
-0.0078659058 -0.04119873 -0.35327148 0 0 0 0
-0.0062141418 -0.04119873 -0.35327148 0 0 0 0
-0.0045433044 -0.04107666 -0.35229492 0 0 0 0
-0.0028820038 -0.04095459 -0.35131836 0 0 0 0
-0.0012350082 -0.04095459 -0.35131836 0 0 0 0
0.0004119873 -0.04095459 -0.35131836 0 0 0 0
0.0020523071 -0.04083252 -0.3503418 0 0 0 0
0.0036964417 -0.04083252 -0.3503418 0 0 0 0
0.0053215027 -0.040710449 -0.34912109 0 0 0 0
0.0069618225 -0.040710449 -0.34912109 0 0 0 0
0.0085983276 -0.040710449 -0.34912109 0 0 0 0
0.010238647 -0.040710449 -0.34912109 0 0 0 0
0.011871338 -0.040710449 -0.34912109 0 0 0 0
0.013511658 -0.040710449 -0.34912109 0 0 0 0
0.015197754 -0.04083252 -0.3503418 0 0 0 0
0.016830444 -0.04083252 -0.3503418 0 0 0 0
0.018478394 -0.04083252 -0.3503418 0 0 0 0
0.020172119 -0.04095459 -0.35131836 0 0 0 0
0.021820068 -0.04095459 -0.35131836 0 0 0 0
0.023544312 -0.04107666 -0.35229492 0 0 0 0
0.025268555 -0.04119873 -0.35327148 0 0 0 0
0.026916504 -0.04119873 -0.35327148 0 0 0 0
0.028656006 -0.041320801 -0.35424805 0 0 0 0
0.030410767 -0.041412354 -0.35522461 0 0 0 0
0.032165527 -0.041534424 -0.35620117 0 0 0 0
0.033935547 -0.041656494 -0.35717773 0 0 0 0
0.035614014 -0.041656494 -0.35717773 0 0 0 0
0.037384033 -0.041778564 -0.35839844 0 0 0 0
0.0390625 -0.041778564 -0.35839844 0 0 0 0
0.06262207 -0.036865234 -0.31616211 0 0 0 0
0.064086914 -0.036865234 -0.31616211 0 0 0 0
0.065368652 -0.036743164 -0.31518555 0 0 0 0
0.066833496 -0.036743164 -0.31518555 0 0 0 0
0.068359375 -0.036743164 -0.31518555 0 0 0 0
0.069824219 -0.036743164 -0.31518555 0 0 0 0
0.071044922 -0.036621094 -0.31420898 0 0 0 0
0.072570801 -0.036621094 -0.31420898 0 0 0 0
0.074035645 -0.036621094 -0.31420898 0 0 0 0
0.075500488 -0.036621094 -0.31420898 0 0 0 0
0.076965332 -0.036621094 -0.31420898 0 0 0 0
0.078430176 -0.036621094 -0.31420898 0 0 0 0
0.07989502 -0.036621094 -0.31420898 0 0 0 0
0.081359863 -0.036621094 -0.31420898 0 0 0 0
0.082885742 -0.036621094 -0.31420898 0 0 0 0
0.084350586 -0.036621094 -0.31420898 0 0 0 0
0.08581543 -0.036621094 -0.31420898 0 0 0 0
0.087280273 -0.036621094 -0.31420898 0 0 0 0
0.088745117 -0.036621094 -0.31420898 0 0 0 0
0.090209961 -0.036621094 -0.31420898 0 0 0 0
0.091674805 -0.036621094 -0.31420898 0 0 0 0
0.093200684 -0.036621094 -0.31420898 0 0 0 0
0.094665527 -0.036621094 -0.31420898 0 0 0 0
0.096130371 -0.036621094 -0.31420898 0 0 0 0
0.097595215 -0.036621094 -0.31420898 0 0 0 0
