ply
format ascii 1.0
comment PCL generated
element vertex 1102
property float x
property float y
property float z
property float nx
property float ny
property float nz
property float curvature
element face 0
element camera 0
property float view_px
property float view_py
property float view_pz
property float x_axisx
property float x_axisy
property float x_axisz
property float y_axisx
property float y_axisy
property float y_axisz
property float z_axisx
property float z_axisy
property float z_axisz
property float focal
property float scalex
property float scaley
property float centerx
property float centery
property int viewportx
property int viewporty
property float k1
property float k2
end_header
0.013374329 0.11462402 -0.39331055 0 0 0 0
0.015220642 0.11462402 -0.39331055 0 0 0 0
0.017059326 0.11462402 -0.39331055 0 0 0 0
0.018951416 0.1149292 -0.39453125 0 0 0 0
0.020812988 0.1149292 -0.39453125 0 0 0 0
0.022720337 0.11523438 -0.39550781 0 0 0 0
0.02456665 0.11523438 -0.39550781 0 0 0 0
0.026489258 0.11553955 -0.39648438 0 0 0 0
0.02835083 0.11553955 -0.39648438 0 0 0 0
0.030136108 0.11523438 -0.39550781 0 0 0 0
0.031982422 0.11523438 -0.39550781 0 0 0 0
0.033843994 0.11523438 -0.39550781 0 0 0 0
0.035705566 0.11523438 -0.39550781 0 0 0 0
0.037628174 0.11553955 -0.39648438 0 0 0 0
0.039611816 0.11578369 -0.39746094 0 0 0 0
0.041564941 0.11608887 -0.3984375 0 0 0 0
0.074768066 0.10498047 -0.36035156 0 0 0 0
0.076477051 0.10498047 -0.36035156 0 0 0 0
0.078125 0.10498047 -0.36035156 0 0 0 0
0.079833984 0.10498047 -0.36035156 0 0 0 0
0.081542969 0.10498047 -0.36035156 0 0 0 0
0.083190918 0.10498047 -0.36035156 0 0 0 0
0.084899902 0.10498047 -0.36035156 0 0 0 0
0.086608887 0.10498047 -0.36035156 0 0 0 0
0.088256836 0.10498047 -0.36035156 0 0 0 0
0.08996582 0.10498047 -0.36035156 0 0 0 0
0.091430664 0.10467529 -0.359375 0 0 0 0
0.093078613 0.10467529 -0.359375 0 0 0 0
0.094787598 0.10467529 -0.359375 0 0 0 0
0.096435547 0.10467529 -0.359375 0 0 0 0
0.098144531 0.10467529 -0.359375 0 0 0 0
0.099853516 0.10467529 -0.359375 0 0 0 0
0.10150146 0.10467529 -0.359375 0 0 0 0
0.10321045 0.10467529 -0.359375 0 0 0 0
0.1048584 0.10467529 -0.359375 0 0 0 0
0.10656738 0.10467529 -0.359375 0 0 0 0
0.10827637 0.10467529 -0.359375 0 0 0 0
0.10992432 0.10467529 -0.359375 0 0 0 0
0.1116333 0.10467529 -0.359375 0 0 0 0
0.11334229 0.10467529 -0.359375 0 0 0 0
0.11499023 0.10467529 -0.359375 0 0 0 0
0.11669922 0.10467529 -0.359375 0 0 0 0
0.11834717 0.10467529 -0.359375 0 0 0 0
0.11975098 0.10443115 -0.35839844 0 0 0 0
0.12139893 0.10443115 -0.35839844 0 0 0 0
0.12310791 0.10443115 -0.35839844 0 0 0 0
0.12475586 0.10443115 -0.35839844 0 0 0 0
0.12646484 0.10443115 -0.35839844 0 0 0 0
0.12805176 0.10443115 -0.35839844 0 0 0 0
0.12976074 0.10443115 -0.35839844 0 0 0 0
0.13146973 0.10443115 -0.35839844 0 0 0 0
0.13317871 0.10443115 -0.35839844 0 0 0 0
0.13476562 0.10443115 -0.35839844 0 0 0 0
0.13647461 0.10443115 -0.35839844 0 0 0 0
0.13818359 0.10443115 -0.35839844 0 0 0 0
0.14025879 0.10467529 -0.359375 0 0 0 0
0.14196777 0.10467529 -0.359375 0 0 0 0
0.14318848 0.10443115 -0.35839844 0 0 0 0
0.35644531 0.11230469 -0.38549805 0 0 0 0
-0.012229919 0.11077881 -0.38647461 0 0 0 0
-0.010421753 0.11077881 -0.38647461 0 0 0 0
-0.008605957 0.11077881 -0.38647461 0 0 0 0
-0.0067939758 0.11077881 -0.38647461 0 0 0 0
-0.0049705505 0.11047363 -0.38549805 0 0 0 0
-0.0031700134 0.11077881 -0.38647461 0 0 0 0
-0.0013589859 0.11077881 -0.38647461 0 0 0 0
0.00045323372 0.11077881 -0.38647461 0 0 0 0
0.0078811646 0.11334229 -0.39550781 0 0 0 0
0.0096817017 0.11279297 -0.39331055 0 0 0 0
0.011528015 0.11279297 -0.39331055 0 0 0 0
0.013343811 0.11248779 -0.39233398 0 0 0 0
0.015182495 0.11248779 -0.39233398 0 0 0 0
0.01701355 0.11248779 -0.39233398 0 0 0 0
0.018859863 0.11248779 -0.39233398 0 0 0 0
0.020751953 0.11279297 -0.39331055 0 0 0 0
0.022598267 0.11279297 -0.39331055 0 0 0 0
0.024505615 0.11309814 -0.39453125 0 0 0 0
0.026351929 0.11309814 -0.39453125 0 0 0 0
0.028213501 0.11309814 -0.39453125 0 0 0 0
0.030059814 0.11309814 -0.39453125 0 0 0 0
0.031890869 0.11309814 -0.39453125 0 0 0 0
0.033752441 0.11309814 -0.39453125 0 0 0 0
0.035614014 0.11309814 -0.39453125 0 0 0 0
0.037536621 0.11334229 -0.39550781 0 0 0 0
0.039489746 0.11364746 -0.39648438 0 0 0 0
0.072631836 0.10272217 -0.35839844 0 0 0 0
0.074523926 0.10302734 -0.359375 0 0 0 0
0.07623291 0.10302734 -0.359375 0 0 0 0
0.077941895 0.10302734 -0.359375 0 0 0 0
0.079589844 0.10302734 -0.359375 0 0 0 0
0.081298828 0.10302734 -0.359375 0 0 0 0
0.083007812 0.10302734 -0.359375 0 0 0 0
0.084655762 0.10302734 -0.359375 0 0 0 0
0.086364746 0.10302734 -0.359375 0 0 0 0
0.088012695 0.10302734 -0.359375 0 0 0 0
0.08972168 0.10302734 -0.359375 0 0 0 0
0.091430664 0.10302734 -0.359375 0 0 0 0
0.093078613 0.10302734 -0.359375 0 0 0 0
0.094787598 0.10302734 -0.359375 0 0 0 0
0.096435547 0.10302734 -0.359375 0 0 0 0
0.098144531 0.10302734 -0.359375 0 0 0 0
0.099853516 0.10302734 -0.359375 0 0 0 0
0.10150146 0.10302734 -0.359375 0 0 0 0
0.10321045 0.10302734 -0.359375 0 0 0 0
0.1048584 0.10302734 -0.359375 0 0 0 0
0.10656738 0.10302734 -0.359375 0 0 0 0
0.10827637 0.10302734 -0.359375 0 0 0 0
0.10992432 0.10302734 -0.359375 0 0 0 0
0.1116333 0.10302734 -0.359375 0 0 0 0
0.11334229 0.10302734 -0.359375 0 0 0 0
0.11499023 0.10302734 -0.359375 0 0 0 0
0.11669922 0.10302734 -0.359375 0 0 0 0
0.11834717 0.10302734 -0.359375 0 0 0 0
0.11975098 0.10272217 -0.35839844 0 0 0 0
0.12139893 0.10272217 -0.35839844 0 0 0 0
0.12310791 0.10272217 -0.35839844 0 0 0 0
0.12475586 0.10272217 -0.35839844 0 0 0 0
0.12646484 0.10272217 -0.35839844 0 0 0 0
0.12805176 0.10272217 -0.35839844 0 0 0 0
0.12976074 0.10272217 -0.35839844 0 0 0 0
0.13146973 0.10272217 -0.35839844 0 0 0 0
0.13317871 0.10272217 -0.35839844 0 0 0 0
0.13476562 0.10272217 -0.35839844 0 0 0 0
0.13647461 0.10272217 -0.35839844 0 0 0 0
0.13818359 0.10272217 -0.35839844 0 0 0 0
0.13989258 0.10272217 -0.35839844 0 0 0 0
0.14160156 0.10272217 -0.35839844 0 0 0 0
0.14318848 0.10272217 -0.35839844 0 0 0 0
0.14489746 0.10272217 -0.35839844 0 0 0 0
0.35644531 0.11047363 -0.38549805 0 0 0 0
-0.012260437 0.10925293 -0.38745117 0 0 0 0
-0.010444641 0.10925293 -0.38745117 0 0 0 0
-0.008605957 0.10894775 -0.38647461 0 0 0 0
-0.0067939758 0.10894775 -0.38647461 0 0 0 0
-0.0049819946 0.10894775 -0.38647461 0 0 0 0
-0.0031700134 0.10894775 -0.38647461 0 0 0 0
-0.0013618469 0.10925293 -0.38745117 0 0 0 0
0.00045442581 0.10925293 -0.38745117 0 0 0 0
0.0022773743 0.10955811 -0.38842773 0 0 0 0
0.0078430176 0.11096191 -0.39331055 0 0 0 0
0.0096588135 0.11065674 -0.39233398 0 0 0 0
0.011474609 0.11035156 -0.39135742 0 0 0 0
0.013305664 0.11035156 -0.39135742 0 0 0 0
0.015106201 0.11010742 -0.39038086 0 0 0 0
0.016937256 0.11010742 -0.39038086 0 0 0 0
0.018814087 0.11035156 -0.39135742 0 0 0 0
0.020645142 0.11035156 -0.39135742 0 0 0 0
0.022537231 0.11065674 -0.39233398 0 0 0 0
0.024383545 0.11065674 -0.39233398 0 0 0 0
0.026229858 0.11065674 -0.39233398 0 0 0 0
0.028060913 0.11065674 -0.39233398 0 0 0 0
0.029907227 0.11065674 -0.39233398 0 0 0 0
0.031738281 0.11065674 -0.39233398 0 0 0 0
0.033660889 0.11096191 -0.39331055 0 0 0 0
0.035522461 0.11096191 -0.39331055 0 0 0 0
0.037445068 0.11120605 -0.39453125 0 0 0 0
0.039398193 0.11151123 -0.39550781 0 0 0 0
0.069091797 0.10076904 -0.35717773 0 0 0 0
0.070983887 0.10101318 -0.35839844 0 0 0 0
0.072875977 0.10131836 -0.359375 0 0 0 0
0.074523926 0.10131836 -0.359375 0 0 0 0
0.07623291 0.10131836 -0.359375 0 0 0 0
0.077941895 0.10131836 -0.359375 0 0 0 0
0.079589844 0.10131836 -0.359375 0 0 0 0
0.081298828 0.10131836 -0.359375 0 0 0 0
0.083007812 0.10131836 -0.359375 0 0 0 0
0.084655762 0.10131836 -0.359375 0 0 0 0
0.086364746 0.10131836 -0.359375 0 0 0 0
0.088012695 0.10131836 -0.359375 0 0 0 0
0.08972168 0.10131836 -0.359375 0 0 0 0
0.091430664 0.10131836 -0.359375 0 0 0 0
0.093078613 0.10131836 -0.359375 0 0 0 0
0.094787598 0.10131836 -0.359375 0 0 0 0
0.096435547 0.10131836 -0.359375 0 0 0 0
0.098144531 0.10131836 -0.359375 0 0 0 0
0.099853516 0.10131836 -0.359375 0 0 0 0
0.10150146 0.10131836 -0.359375 0 0 0 0
0.10321045 0.10131836 -0.359375 0 0 0 0
0.1048584 0.10131836 -0.359375 0 0 0 0
0.10656738 0.10131836 -0.359375 0 0 0 0
0.10827637 0.10131836 -0.359375 0 0 0 0
0.10992432 0.10131836 -0.359375 0 0 0 0
0.1116333 0.10131836 -0.359375 0 0 0 0
0.11334229 0.10131836 -0.359375 0 0 0 0
0.11499023 0.10131836 -0.359375 0 0 0 0
0.11669922 0.10131836 -0.359375 0 0 0 0
0.11834717 0.10131836 -0.359375 0 0 0 0
0.11975098 0.10101318 -0.35839844 0 0 0 0
0.12139893 0.10101318 -0.35839844 0 0 0 0
0.12310791 0.10101318 -0.35839844 0 0 0 0
0.12475586 0.10101318 -0.35839844 0 0 0 0
0.12646484 0.10101318 -0.35839844 0 0 0 0
0.12805176 0.10101318 -0.35839844 0 0 0 0
0.12976074 0.10101318 -0.35839844 0 0 0 0
0.13146973 0.10101318 -0.35839844 0 0 0 0
0.13317871 0.10101318 -0.35839844 0 0 0 0
0.13476562 0.10101318 -0.35839844 0 0 0 0
0.13647461 0.10101318 -0.35839844 0 0 0 0
0.13818359 0.10101318 -0.35839844 0 0 0 0
0.13989258 0.10101318 -0.35839844 0 0 0 0
0.14160156 0.10101318 -0.35839844 0 0 0 0
0.14318848 0.10101318 -0.35839844 0 0 0 0
0.14489746 0.10101318 -0.35839844 0 0 0 0
0.14660645 0.10101318 -0.35839844 0 0 0 0
0.35644531 0.10925293 -0.38745117 0 0 0 0
-0.012260437 0.10742188 -0.38745117 0 0 0 0
-0.010444641 0.10742188 -0.38745117 0 0 0 0
-0.0086288452 0.10742188 -0.38745117 0 0 0 0
-0.0068130493 0.10742188 -0.38745117 0 0 0 0
-0.0049934387 0.10742188 -0.38745117 0 0 0 0
-0.0031795502 0.10742188 -0.38745117 0 0 0 0
-0.0013618469 0.10742188 -0.38745117 0 0 0 0
0.0004556179 0.10772705 -0.38842773 0 0 0 0
0.0059967041 0.10913086 -0.39331055 0 0 0 0
0.0078010559 0.10852051 -0.39135742 0 0 0 0
0.0096359253 0.10852051 -0.39135742 0 0 0 0
0.011444092 0.10827637 -0.39038086 0 0 0 0
0.013237 0.10797119 -0.3894043 0 0 0 0
0.015068054 0.10797119 -0.3894043 0 0 0 0
0.016891479 0.10797119 -0.3894043 0 0 0 0
0.018722534 0.10797119 -0.3894043 0 0 0 0
0.02053833 0.10797119 -0.3894043 0 0 0 0
0.022369385 0.10797119 -0.3894043 0 0 0 0
0.024261475 0.10827637 -0.39038086 0 0 0 0
0.026092529 0.10827637 -0.39038086 0 0 0 0
0.027923584 0.10827637 -0.39038086 0 0 0 0
0.029754639 0.10827637 -0.39038086 0 0 0 0
0.031646729 0.10852051 -0.39135742 0 0 0 0
0.033508301 0.10852051 -0.39135742 0 0 0 0
0.035430908 0.10882568 -0.39233398 0 0 0 0
0.037353516 0.10913086 -0.39331055 0 0 0 0
0.065368652 0.098510742 -0.35522461 0 0 0 0
0.067443848 0.099060059 -0.35717773 0 0 0 0
0.069091797 0.099060059 -0.35717773 0 0 0 0
0.070983887 0.099365234 -0.35839844 0 0 0 0
0.072631836 0.099365234 -0.35839844 0 0 0 0
0.074523926 0.099609375 -0.359375 0 0 0 0
0.07623291 0.099609375 -0.359375 0 0 0 0
0.077941895 0.099609375 -0.359375 0 0 0 0
0.079589844 0.099609375 -0.359375 0 0 0 0
0.081298828 0.099609375 -0.359375 0 0 0 0
0.083007812 0.099609375 -0.359375 0 0 0 0
0.084655762 0.099609375 -0.359375 0 0 0 0
0.086364746 0.099609375 -0.359375 0 0 0 0
0.088012695 0.099609375 -0.359375 0 0 0 0
0.08972168 0.099609375 -0.359375 0 0 0 0
0.091430664 0.099609375 -0.359375 0 0 0 0
0.093078613 0.099609375 -0.359375 0 0 0 0
0.094787598 0.099609375 -0.359375 0 0 0 0
0.096435547 0.099609375 -0.359375 0 0 0 0
0.098144531 0.099609375 -0.359375 0 0 0 0
0.099853516 0.099609375 -0.359375 0 0 0 0
0.10150146 0.099609375 -0.359375 0 0 0 0
0.10321045 0.099609375 -0.359375 0 0 0 0
0.1048584 0.099609375 -0.359375 0 0 0 0
0.10656738 0.099609375 -0.359375 0 0 0 0
0.10827637 0.099609375 -0.359375 0 0 0 0
0.10992432 0.099609375 -0.359375 0 0 0 0
0.1116333 0.099609375 -0.359375 0 0 0 0
0.11334229 0.099609375 -0.359375 0 0 0 0
0.11499023 0.099609375 -0.359375 0 0 0 0
0.11669922 0.099609375 -0.359375 0 0 0 0
0.11834717 0.099609375 -0.359375 0 0 0 0
0.11975098 0.099365234 -0.35839844 0 0 0 0
0.12139893 0.099365234 -0.35839844 0 0 0 0
0.12310791 0.099365234 -0.35839844 0 0 0 0
0.12475586 0.099365234 -0.35839844 0 0 0 0
0.12646484 0.099365234 -0.35839844 0 0 0 0
0.12805176 0.099365234 -0.35839844 0 0 0 0
0.12976074 0.099365234 -0.35839844 0 0 0 0
0.13146973 0.099365234 -0.35839844 0 0 0 0
0.13317871 0.099365234 -0.35839844 0 0 0 0
0.13476562 0.099365234 -0.35839844 0 0 0 0
0.13647461 0.099365234 -0.35839844 0 0 0 0
0.13818359 0.099365234 -0.35839844 0 0 0 0
0.13989258 0.099365234 -0.35839844 0 0 0 0
0.14160156 0.099365234 -0.35839844 0 0 0 0
0.14318848 0.099365234 -0.35839844 0 0 0 0
0.14489746 0.099365234 -0.35839844 0 0 0 0
0.14611816 0.099060059 -0.35717773 0 0 0 0
0.14782715 0.099060059 -0.35717773 0 0 0 0
0.14953613 0.099060059 -0.35717773 0 0 0 0
-0.012260437 0.10559082 -0.38745117 0 0 0 0
-0.010475159 0.105896 -0.38842773 0 0 0 0
-0.0086517334 0.105896 -0.38842773 0 0 0 0
-0.0068283081 0.105896 -0.38842773 0 0 0 0
-0.0050086975 0.105896 -0.38842773 0 0 0 0
-0.0031871796 0.105896 -0.38842773 0 0 0 0
-0.0013656616 0.105896 -0.38842773 0 0 0 0
0.0004556179 0.105896 -0.38842773 0 0 0 0
0.0059814453 0.10699463 -0.39233398 0 0 0 0
0.0077629089 0.10614014 -0.3894043 0 0 0 0
0.0095901489 0.10614014 -0.3894043 0 0 0 0
0.011383057 0.105896 -0.38842773 0 0 0 0
0.013206482 0.105896 -0.38842773 0 0 0 0
0.01499176 0.10559082 -0.38745117 0 0 0 0
0.016799927 0.10559082 -0.38745117 0 0 0 0
0.018615723 0.10559082 -0.38745117 0 0 0 0
0.020431519 0.10559082 -0.38745117 0 0 0 0
0.022247314 0.10559082 -0.38745117 0 0 0 0
0.024078369 0.10559082 -0.38745117 0 0 0 0
0.0259552 0.105896 -0.38842773 0 0 0 0
0.027770996 0.105896 -0.38842773 0 0 0 0
0.029678345 0.10614014 -0.3894043 0 0 0 0
0.031494141 0.10614014 -0.3894043 0 0 0 0
0.033416748 0.10644531 -0.39038086 0 0 0 0
0.035339355 0.10668945 -0.39135742 0 0 0 0
0.037261963 0.10699463 -0.39233398 0 0 0 0
0.063720703 0.096862793 -0.35522461 0 0 0 0
0.065551758 0.097106934 -0.35620117 0 0 0 0
0.067443848 0.097412109 -0.35717773 0 0 0 0
0.069091797 0.097412109 -0.35717773 0 0 0 0
0.070983887 0.09765625 -0.35839844 0 0 0 0
0.072631836 0.09765625 -0.35839844 0 0 0 0
0.074523926 0.097961426 -0.359375 0 0 0 0
0.07623291 0.097961426 -0.359375 0 0 0 0
0.077941895 0.097961426 -0.359375 0 0 0 0
0.079589844 0.097961426 -0.359375 0 0 0 0
0.081298828 0.097961426 -0.359375 0 0 0 0
0.083007812 0.097961426 -0.359375 0 0 0 0
0.084655762 0.097961426 -0.359375 0 0 0 0
0.086364746 0.097961426 -0.359375 0 0 0 0
0.088012695 0.097961426 -0.359375 0 0 0 0
0.08972168 0.097961426 -0.359375 0 0 0 0
0.091430664 0.097961426 -0.359375 0 0 0 0
0.093078613 0.097961426 -0.359375 0 0 0 0
0.094787598 0.097961426 -0.359375 0 0 0 0
0.096435547 0.097961426 -0.359375 0 0 0 0
0.098144531 0.097961426 -0.359375 0 0 0 0
0.099853516 0.097961426 -0.359375 0 0 0 0
0.10150146 0.097961426 -0.359375 0 0 0 0
0.10321045 0.097961426 -0.359375 0 0 0 0
0.1048584 0.097961426 -0.359375 0 0 0 0
0.10656738 0.097961426 -0.359375 0 0 0 0
0.10827637 0.097961426 -0.359375 0 0 0 0
0.10992432 0.097961426 -0.359375 0 0 0 0
0.1116333 0.097961426 -0.359375 0 0 0 0
0.11334229 0.097961426 -0.359375 0 0 0 0
0.11499023 0.097961426 -0.359375 0 0 0 0
0.11669922 0.097961426 -0.359375 0 0 0 0
0.11804199 0.09765625 -0.35839844 0 0 0 0
0.11975098 0.09765625 -0.35839844 0 0 0 0
0.12139893 0.09765625 -0.35839844 0 0 0 0
0.12310791 0.09765625 -0.35839844 0 0 0 0
0.12475586 0.09765625 -0.35839844 0 0 0 0
0.12646484 0.09765625 -0.35839844 0 0 0 0
0.12805176 0.09765625 -0.35839844 0 0 0 0
0.12976074 0.09765625 -0.35839844 0 0 0 0
0.13146973 0.09765625 -0.35839844 0 0 0 0
0.13317871 0.09765625 -0.35839844 0 0 0 0
0.13476562 0.09765625 -0.35839844 0 0 0 0
0.13647461 0.09765625 -0.35839844 0 0 0 0
0.13818359 0.09765625 -0.35839844 0 0 0 0
0.13989258 0.09765625 -0.35839844 0 0 0 0
0.14160156 0.09765625 -0.35839844 0 0 0 0
0.14318848 0.09765625 -0.35839844 0 0 0 0
0.14453125 0.097412109 -0.35717773 0 0 0 0
0.14611816 0.097412109 -0.35717773 0 0 0 0
0.14782715 0.097412109 -0.35717773 0 0 0 0
0.14953613 0.097412109 -0.35717773 0 0 0 0
0.15124512 0.097412109 -0.35717773 0 0 0 0
-0.012290955 0.10406494 -0.38842773 0 0 0 0
-0.010475159 0.10406494 -0.38842773 0 0 0 0
-0.0086517334 0.10406494 -0.38842773 0 0 0 0
-0.0068283081 0.10406494 -0.38842773 0 0 0 0
-0.0050086975 0.10406494 -0.38842773 0 0 0 0
-0.003194809 0.10430908 -0.3894043 0 0 0 0
-0.0013694763 0.10430908 -0.3894043 0 0 0 0
0.00045681 0.10430908 -0.3894043 0 0 0 0
0.0022945404 0.1048584 -0.39135742 0 0 0 0
0.0059356689 0.10430908 -0.3894043 0 0 0 0
0.0077400208 0.10406494 -0.38842773 0 0 0 0
0.0095596313 0.10406494 -0.38842773 0 0 0 0
0.011352539 0.1038208 -0.38745117 0 0 0 0
0.013137817 0.10351562 -0.38647461 0 0 0 0
0.014953613 0.10351562 -0.38647461 0 0 0 0
0.016708374 0.10327148 -0.38549805 0 0 0 0
0.01852417 0.10327148 -0.38549805 0 0 0 0
0.020324707 0.10327148 -0.38549805 0 0 0 0
0.022140503 0.10327148 -0.38549805 0 0 0 0
0.024002075 0.10351562 -0.38647461 0 0 0 0
0.025817871 0.10351562 -0.38647461 0 0 0 0
0.027709961 0.1038208 -0.38745117 0 0 0 0
0.029525757 0.1038208 -0.38745117 0 0 0 0
0.031402588 0.10406494 -0.38842773 0 0 0 0
0.033325195 0.10430908 -0.3894043 0 0 0 0
0.03515625 0.10430908 -0.3894043 0 0 0 0
0.03717041 0.1048584 -0.39135742 0 0 0 0
0.062072754 0.095214844 -0.35522461 0 0 0 0
0.063720703 0.095214844 -0.35522461 0 0 0 0
0.065551758 0.095458984 -0.35620117 0 0 0 0
0.067443848 0.095703125 -0.35717773 0 0 0 0
0.069091797 0.095703125 -0.35717773 0 0 0 0
0.070983887 0.096008301 -0.35839844 0 0 0 0
0.072631836 0.096008301 -0.35839844 0 0 0 0
0.074523926 0.096252441 -0.359375 0 0 0 0
0.07623291 0.096252441 -0.359375 0 0 0 0
0.077941895 0.096252441 -0.359375 0 0 0 0
0.079589844 0.096252441 -0.359375 0 0 0 0
0.081298828 0.096252441 -0.359375 0 0 0 0
0.082763672 0.096008301 -0.35839844 0 0 0 0
0.084411621 0.096008301 -0.35839844 0 0 0 0
0.086120605 0.096008301 -0.35839844 0 0 0 0
0.088012695 0.096252441 -0.359375 0 0 0 0
0.08972168 0.096252441 -0.359375 0 0 0 0
0.091430664 0.096252441 -0.359375 0 0 0 0
0.093078613 0.096252441 -0.359375 0 0 0 0
0.094787598 0.096252441 -0.359375 0 0 0 0
0.096435547 0.096252441 -0.359375 0 0 0 0
0.098144531 0.096252441 -0.359375 0 0 0 0
0.099853516 0.096252441 -0.359375 0 0 0 0
0.10150146 0.096252441 -0.359375 0 0 0 0
0.10321045 0.096252441 -0.359375 0 0 0 0
0.1048584 0.096252441 -0.359375 0 0 0 0
0.10656738 0.096252441 -0.359375 0 0 0 0
0.10827637 0.096252441 -0.359375 0 0 0 0
0.10992432 0.096252441 -0.359375 0 0 0 0
0.1116333 0.096252441 -0.359375 0 0 0 0
0.11334229 0.096252441 -0.359375 0 0 0 0
0.11499023 0.096252441 -0.359375 0 0 0 0
0.11633301 0.096008301 -0.35839844 0 0 0 0
0.11804199 0.096008301 -0.35839844 0 0 0 0
0.11975098 0.096008301 -0.35839844 0 0 0 0
0.12139893 0.096008301 -0.35839844 0 0 0 0
0.12310791 0.096008301 -0.35839844 0 0 0 0
0.12475586 0.096008301 -0.35839844 0 0 0 0
0.12646484 0.096008301 -0.35839844 0 0 0 0
0.12805176 0.096008301 -0.35839844 0 0 0 0
0.12976074 0.096008301 -0.35839844 0 0 0 0
0.13146973 0.096008301 -0.35839844 0 0 0 0
0.13317871 0.096008301 -0.35839844 0 0 0 0
0.13476562 0.096008301 -0.35839844 0 0 0 0
0.13647461 0.096008301 -0.35839844 0 0 0 0
0.13818359 0.096008301 -0.35839844 0 0 0 0
0.13989258 0.096008301 -0.35839844 0 0 0 0
0.14111328 0.095703125 -0.35717773 0 0 0 0
0.14282227 0.095703125 -0.35717773 0 0 0 0
0.14453125 0.095703125 -0.35717773 0 0 0 0
0.14611816 0.095703125 -0.35717773 0 0 0 0
0.14782715 0.095703125 -0.35717773 0 0 0 0
0.14953613 0.095703125 -0.35717773 0 0 0 0
0.15124512 0.095703125 -0.35717773 0 0 0 0
0.15283203 0.095703125 -0.35717773 0 0 0 0
-0.012290955 0.10223389 -0.38842773 0 0 0 0
-0.010498047 0.10253906 -0.3894043 0 0 0 0
-0.0086746216 0.10253906 -0.3894043 0 0 0 0
-0.0068473816 0.10253906 -0.3894043 0 0 0 0
-0.0050201416 0.10253906 -0.3894043 0 0 0 0
-0.003194809 0.10253906 -0.3894043 0 0 0 0
-0.0013723373 0.1027832 -0.39038086 0 0 0 0
0.00045800209 0.1027832 -0.39038086 0 0 0 0
0.0022888184 0.1027832 -0.39038086 0 0 0 0
0.004119873 0.1027832 -0.39038086 0 0 0 0
0.0059356689 0.10253906 -0.3894043 0 0 0 0
0.0077400208 0.10223389 -0.38842773 0 0 0 0
0.0095367432 0.10198975 -0.38745117 0 0 0 0
0.011322021 0.10174561 -0.38647461 0 0 0 0
0.01309967 0.10144043 -0.38549805 0 0 0 0
0.014907837 0.10144043 -0.38549805 0 0 0 0
0.016677856 0.10119629 -0.38427734 0 0 0 0
0.018478394 0.10119629 -0.38427734 0 0 0 0
0.020278931 0.10119629 -0.38427734 0 0 0 0
0.022079468 0.10119629 -0.38427734 0 0 0 0
0.023880005 0.10119629 -0.38427734 0 0 0 0
0.025756836 0.10144043 -0.38549805 0 0 0 0
0.027633667 0.10174561 -0.38647461 0 0 0 0
0.029449463 0.10174561 -0.38647461 0 0 0 0
0.031341553 0.10198975 -0.38745117 0 0 0 0
0.033233643 0.10223389 -0.38842773 0 0 0 0
0.03515625 0.10253906 -0.3894043 0 0 0 0
0.036987305 0.10253906 -0.3894043 0 0 0 0
0.062072754 0.093505859 -0.35522461 0 0 0 0
0.063903809 0.093811035 -0.35620117 0 0 0 0
0.065551758 0.093811035 -0.35620117 0 0 0 0
0.067443848 0.094055176 -0.35717773 0 0 0 0
0.069091797 0.094055176 -0.35717773 0 0 0 0
0.070983887 0.094299316 -0.35839844 0 0 0 0
0.072631836 0.094299316 -0.35839844 0 0 0 0
0.07434082 0.094299316 -0.35839844 0 0 0 0
0.076049805 0.094299316 -0.35839844 0 0 0 0
0.077697754 0.094299316 -0.35839844 0 0 0 0
0.079406738 0.094299316 -0.35839844 0 0 0 0
0.081054688 0.094299316 -0.35839844 0 0 0 0
0.082763672 0.094299316 -0.35839844 0 0 0 0
0.084411621 0.094299316 -0.35839844 0 0 0 0
0.086120605 0.094299316 -0.35839844 0 0 0 0
0.087768555 0.094299316 -0.35839844 0 0 0 0
0.089477539 0.094299316 -0.35839844 0 0 0 0
0.091125488 0.094299316 -0.35839844 0 0 0 0
0.092834473 0.094299316 -0.35839844 0 0 0 0
0.094482422 0.094299316 -0.35839844 0 0 0 0
0.096191406 0.094299316 -0.35839844 0 0 0 0
0.097900391 0.094299316 -0.35839844 0 0 0 0
0.09954834 0.094299316 -0.35839844 0 0 0 0
0.10150146 0.094604492 -0.359375 0 0 0 0
0.10321045 0.094604492 -0.359375 0 0 0 0
0.1048584 0.094604492 -0.359375 0 0 0 0
0.10656738 0.094604492 -0.359375 0 0 0 0
0.10827637 0.094604492 -0.359375 0 0 0 0
0.10992432 0.094604492 -0.359375 0 0 0 0
0.1116333 0.094604492 -0.359375 0 0 0 0
0.11334229 0.094604492 -0.359375 0 0 0 0
0.11468506 0.094299316 -0.35839844 0 0 0 0
0.11633301 0.094299316 -0.35839844 0 0 0 0
0.11804199 0.094299316 -0.35839844 0 0 0 0
0.11975098 0.094299316 -0.35839844 0 0 0 0
0.12139893 0.094299316 -0.35839844 0 0 0 0
0.12310791 0.094299316 -0.35839844 0 0 0 0
0.12475586 0.094299316 -0.35839844 0 0 0 0
0.12646484 0.094299316 -0.35839844 0 0 0 0
0.12805176 0.094299316 -0.35839844 0 0 0 0
0.12976074 0.094299316 -0.35839844 0 0 0 0
0.13146973 0.094299316 -0.35839844 0 0 0 0
0.13317871 0.094299316 -0.35839844 0 0 0 0
0.13476562 0.094299316 -0.35839844 0 0 0 0
0.13647461 0.094299316 -0.35839844 0 0 0 0
0.13781738 0.094055176 -0.35717773 0 0 0 0
0.13952637 0.094055176 -0.35717773 0 0 0 0
0.14111328 0.094055176 -0.35717773 0 0 0 0
0.14282227 0.094055176 -0.35717773 0 0 0 0
0.14453125 0.094055176 -0.35717773 0 0 0 0
0.14611816 0.094055176 -0.35717773 0 0 0 0
0.14782715 0.094055176 -0.35717773 0 0 0 0
0.14953613 0.094055176 -0.35717773 0 0 0 0
0.15124512 0.094055176 -0.35717773 0 0 0 0
0.15283203 0.094055176 -0.35717773 0 0 0 0
0.15454102 0.094055176 -0.35717773 0 0 0 0
-0.010498047 0.10070801 -0.3894043 0 0 0 0
-0.0086975098 0.10095215 -0.39038086 0 0 0 0
-0.0068664551 0.10095215 -0.39038086 0 0 0 0
-0.0050354004 0.10095215 -0.39038086 0 0 0 0
-0.0032043457 0.10095215 -0.39038086 0 0 0 0
-0.0013723373 0.10095215 -0.39038086 0 0 0 0
0.00045800209 0.10095215 -0.39038086 0 0 0 0
0.0022888184 0.10095215 -0.39038086 0 0 0 0
0.004108429 0.10070801 -0.3894043 0 0 0 0
0.0059204102 0.10040283 -0.38842773 0 0 0 0
0.0077209473 0.10015869 -0.38745117 0 0 0 0
0.009513855 0.099914551 -0.38647461 0 0 0 0
0.011299133 0.09967041 -0.38549805 0 0 0 0
0.01309967 0.09967041 -0.38549805 0 0 0 0
0.01486969 0.099365234 -0.38427734 0 0 0 0
0.01663208 0.099121094 -0.38330078 0 0 0 0
0.018432617 0.099121094 -0.38330078 0 0 0 0
0.020217896 0.099121094 -0.38330078 0 0 0 0
0.022018433 0.099121094 -0.38330078 0 0 0 0
0.023880005 0.099365234 -0.38427734 0 0 0 0
0.025680542 0.099365234 -0.38427734 0 0 0 0
0.027557373 0.09967041 -0.38549805 0 0 0 0
0.029449463 0.099914551 -0.38647461 0 0 0 0
0.03125 0.099914551 -0.38647461 0 0 0 0
0.03314209 0.10015869 -0.38745117 0 0 0 0
0.035064697 0.10040283 -0.38842773 0 0 0 0
0.036987305 0.10070801 -0.3894043 0 0 0 0
0.045623779 0.09967041 -0.38549805 0 0 0 0
0.047454834 0.09967041 -0.38549805 0 0 0 0
0.060394287 0.09185791 -0.35522461 0 0 0 0
0.062255859 0.092102051 -0.35620117 0 0 0 0
0.063903809 0.092102051 -0.35620117 0 0 0 0
0.065734863 0.092346191 -0.35717773 0 0 0 0
0.067443848 0.092346191 -0.35717773 0 0 0 0
0.069274902 0.092651367 -0.35839844 0 0 0 0
0.070983887 0.092651367 -0.35839844 0 0 0 0
0.072631836 0.092651367 -0.35839844 0 0 0 0
0.07434082 0.092651367 -0.35839844 0 0 0 0
0.076049805 0.092651367 -0.35839844 0 0 0 0
0.077697754 0.092651367 -0.35839844 0 0 0 0
0.079406738 0.092651367 -0.35839844 0 0 0 0
0.081054688 0.092651367 -0.35839844 0 0 0 0
0.082763672 0.092651367 -0.35839844 0 0 0 0
0.084411621 0.092651367 -0.35839844 0 0 0 0
0.086120605 0.092651367 -0.35839844 0 0 0 0
0.087768555 0.092651367 -0.35839844 0 0 0 0
0.089477539 0.092651367 -0.35839844 0 0 0 0
0.091125488 0.092651367 -0.35839844 0 0 0 0
0.092834473 0.092651367 -0.35839844 0 0 0 0
0.094482422 0.092651367 -0.35839844 0 0 0 0
0.096191406 0.092651367 -0.35839844 0 0 0 0
0.097900391 0.092651367 -0.35839844 0 0 0 0
0.09954834 0.092651367 -0.35839844 0 0 0 0
0.10125732 0.092651367 -0.35839844 0 0 0 0
0.10290527 0.092651367 -0.35839844 0 0 0 0
0.1048584 0.092895508 -0.359375 0 0 0 0
0.10656738 0.092895508 -0.359375 0 0 0 0
0.10797119 0.092651367 -0.35839844 0 0 0 0
0.10961914 0.092651367 -0.35839844 0 0 0 0
0.11132812 0.092651367 -0.35839844 0 0 0 0
0.11297607 0.092651367 -0.35839844 0 0 0 0
0.11468506 0.092651367 -0.35839844 0 0 0 0
0.11633301 0.092651367 -0.35839844 0 0 0 0
0.11804199 0.092651367 -0.35839844 0 0 0 0
0.11975098 0.092651367 -0.35839844 0 0 0 0
0.12139893 0.092651367 -0.35839844 0 0 0 0
0.12310791 0.092651367 -0.35839844 0 0 0 0
0.12475586 0.092651367 -0.35839844 0 0 0 0
0.12646484 0.092651367 -0.35839844 0 0 0 0
0.12805176 0.092651367 -0.35839844 0 0 0 0
0.12976074 0.092651367 -0.35839844 0 0 0 0
0.13146973 0.092651367 -0.35839844 0 0 0 0
0.13317871 0.092651367 -0.35839844 0 0 0 0
0.13476562 0.092651367 -0.35839844 0 0 0 0
0.1361084 0.092346191 -0.35717773 0 0 0 0
0.13781738 0.092346191 -0.35717773 0 0 0 0
0.13952637 0.092346191 -0.35717773 0 0 0 0
0.14111328 0.092346191 -0.35717773 0 0 0 0
0.14282227 0.092346191 -0.35717773 0 0 0 0
0.14453125 0.092346191 -0.35717773 0 0 0 0
0.14611816 0.092346191 -0.35717773 0 0 0 0
0.14782715 0.092346191 -0.35717773 0 0 0 0
0.14953613 0.092346191 -0.35717773 0 0 0 0
0.15124512 0.092346191 -0.35717773 0 0 0 0
0.15283203 0.092346191 -0.35717773 0 0 0 0
0.15454102 0.092346191 -0.35717773 0 0 0 0
0.15625 0.092346191 -0.35717773 0 0 0 0
-0.010528564 0.099121094 -0.39038086 0 0 0 0
-0.0086975098 0.099121094 -0.39038086 0 0 0 0
-0.0068817139 0.099365234 -0.39135742 0 0 0 0
-0.0050468445 0.099365234 -0.39135742 0 0 0 0
-0.0032119751 0.099365234 -0.39135742 0 0 0 0
-0.001376152 0.099365234 -0.39135742 0 0 0 0
0.00045800209 0.099121094 -0.39038086 0 0 0 0
0.0022888184 0.099121094 -0.39038086 0 0 0 0
0.004108429 0.098876953 -0.3894043 0 0 0 0
0.0059204102 0.098571777 -0.38842773 0 0 0 0
0.0077209473 0.098327637 -0.38745117 0 0 0 0
0.009513855 0.098083496 -0.38647461 0 0 0 0
0.011299133 0.097839355 -0.38549805 0 0 0 0
0.013069153 0.097595215 -0.38427734 0 0 0 0
0.014831543 0.097351074 -0.38330078 0 0 0 0
0.01663208 0.097351074 -0.38330078 0 0 0 0
0.018432617 0.097351074 -0.38330078 0 0 0 0
0.020217896 0.097351074 -0.38330078 0 0 0 0
0.022018433 0.097351074 -0.38330078 0 0 0 0
0.02381897 0.097351074 -0.38330078 0 0 0 0
0.025680542 0.097595215 -0.38427734 0 0 0 0
0.027496338 0.097595215 -0.38427734 0 0 0 0
0.029373169 0.097839355 -0.38549805 0 0 0 0
0.03125 0.098083496 -0.38647461 0 0 0 0
0.03314209 0.098327637 -0.38745117 0 0 0 0
0.034973145 0.098327637 -0.38745117 0 0 0 0
0.043945312 0.098083496 -0.38647461 0 0 0 0
0.04574585 0.098083496 -0.38647461 0 0 0 0
0.047576904 0.098083496 -0.38647461 0 0 0 0
0.049377441 0.098083496 -0.38647461 0 0 0 0
0.058898926 0.090454102 -0.35620117 0 0 0 0
0.060577393 0.090454102 -0.35620117 0 0 0 0
0.062255859 0.090454102 -0.35620117 0 0 0 0
0.063903809 0.090454102 -0.35620117 0 0 0 0
0.065734863 0.090698242 -0.35717773 0 0 0 0
0.067443848 0.090698242 -0.35717773 0 0 0 0
0.069274902 0.090942383 -0.35839844 0 0 0 0
0.070983887 0.090942383 -0.35839844 0 0 0 0
0.072631836 0.090942383 -0.35839844 0 0 0 0
0.07434082 0.090942383 -0.35839844 0 0 0 0
0.076049805 0.090942383 -0.35839844 0 0 0 0
0.077697754 0.090942383 -0.35839844 0 0 0 0
0.079406738 0.090942383 -0.35839844 0 0 0 0
0.081054688 0.090942383 -0.35839844 0 0 0 0
0.082763672 0.090942383 -0.35839844 0 0 0 0
0.084411621 0.090942383 -0.35839844 0 0 0 0
0.086120605 0.090942383 -0.35839844 0 0 0 0
0.087768555 0.090942383 -0.35839844 0 0 0 0
0.089477539 0.090942383 -0.35839844 0 0 0 0
0.091125488 0.090942383 -0.35839844 0 0 0 0
0.092834473 0.090942383 -0.35839844 0 0 0 0
0.094482422 0.090942383 -0.35839844 0 0 0 0
0.096191406 0.090942383 -0.35839844 0 0 0 0
0.097900391 0.090942383 -0.35839844 0 0 0 0
0.09954834 0.090942383 -0.35839844 0 0 0 0
0.10125732 0.090942383 -0.35839844 0 0 0 0
0.10290527 0.090942383 -0.35839844 0 0 0 0
0.10461426 0.090942383 -0.35839844 0 0 0 0
0.10626221 0.090942383 -0.35839844 0 0 0 0
0.10797119 0.090942383 -0.35839844 0 0 0 0
0.10961914 0.090942383 -0.35839844 0 0 0 0
0.11132812 0.090942383 -0.35839844 0 0 0 0
0.11297607 0.090942383 -0.35839844 0 0 0 0
0.11468506 0.090942383 -0.35839844 0 0 0 0
0.11633301 0.090942383 -0.35839844 0 0 0 0
0.11804199 0.090942383 -0.35839844 0 0 0 0
0.11975098 0.090942383 -0.35839844 0 0 0 0
0.12139893 0.090942383 -0.35839844 0 0 0 0
0.12310791 0.090942383 -0.35839844 0 0 0 0
0.12475586 0.090942383 -0.35839844 0 0 0 0
0.12646484 0.090942383 -0.35839844 0 0 0 0
0.12805176 0.090942383 -0.35839844 0 0 0 0
0.12976074 0.090942383 -0.35839844 0 0 0 0
0.13146973 0.090942383 -0.35839844 0 0 0 0
0.13317871 0.090942383 -0.35839844 0 0 0 0
0.13439941 0.090698242 -0.35717773 0 0 0 0
0.1361084 0.090698242 -0.35717773 0 0 0 0
0.13781738 0.090698242 -0.35717773 0 0 0 0
0.13952637 0.090698242 -0.35717773 0 0 0 0
0.14111328 0.090698242 -0.35717773 0 0 0 0
0.14282227 0.090698242 -0.35717773 0 0 0 0
0.14453125 0.090698242 -0.35717773 0 0 0 0
0.14611816 0.090698242 -0.35717773 0 0 0 0
0.14782715 0.090698242 -0.35717773 0 0 0 0
0.14953613 0.090698242 -0.35717773 0 0 0 0
0.15124512 0.090698242 -0.35717773 0 0 0 0
0.15283203 0.090698242 -0.35717773 0 0 0 0
0.15454102 0.090698242 -0.35717773 0 0 0 0
0.15625 0.090698242 -0.35717773 0 0 0 0
0.15795898 0.090698242 -0.35717773 0 0 0 0
-0.0087203979 0.09753418 -0.39135742 0 0 0 0
-0.0068817139 0.09753418 -0.39135742 0 0 0 0
-0.0050468445 0.09753418 -0.39135742 0 0 0 0
-0.0032119751 0.09753418 -0.39135742 0 0 0 0
-0.001376152 0.09753418 -0.39135742 0 0 0 0
0.00045800209 0.097290039 -0.39038086 0 0 0 0
0.0022888184 0.097290039 -0.39038086 0 0 0 0
0.004108429 0.097045898 -0.3894043 0 0 0 0
0.0059204102 0.096801758 -0.38842773 0 0 0 0
0.0077209473 0.096557617 -0.38745117 0 0 0 0
0.0094909668 0.096008301 -0.38549805 0 0 0 0
0.011268616 0.09576416 -0.38427734 0 0 0 0
0.013069153 0.09576416 -0.38427734 0 0 0 0
0.014831543 0.09552002 -0.38330078 0 0 0 0
0.016586304 0.095275879 -0.38232422 0 0 0 0
0.018371582 0.095275879 -0.38232422 0 0 0 0
0.020172119 0.095275879 -0.38232422 0 0 0 0
0.022018433 0.09552002 -0.38330078 0 0 0 0
0.02381897 0.09552002 -0.38330078 0 0 0 0
0.025680542 0.09576416 -0.38427734 0 0 0 0
0.027496338 0.09576416 -0.38427734 0 0 0 0
0.029373169 0.096008301 -0.38549805 0 0 0 0
0.03125 0.096252441 -0.38647461 0 0 0 0
0.033050537 0.096252441 -0.38647461 0 0 0 0
0.034973145 0.096557617 -0.38745117 0 0 0 0
0.042236328 0.096557617 -0.38745117 0 0 0 0
0.043945312 0.096252441 -0.38647461 0 0 0 0
0.04574585 0.096252441 -0.38647461 0 0 0 0
0.047576904 0.096252441 -0.38647461 0 0 0 0
0.049377441 0.096252441 -0.38647461 0 0 0 0
0.051177979 0.096252441 -0.38647461 0 0 0 0
0.058898926 0.088745117 -0.35620117 0 0 0 0
0.060577393 0.088745117 -0.35620117 0 0 0 0
0.062408447 0.089050293 -0.35717773 0 0 0 0
0.064086914 0.089050293 -0.35717773 0 0 0 0
0.065734863 0.089050293 -0.35717773 0 0 0 0
0.067626953 0.089294434 -0.35839844 0 0 0 0
0.069274902 0.089294434 -0.35839844 0 0 0 0
0.070983887 0.089294434 -0.35839844 0 0 0 0
0.072631836 0.089294434 -0.35839844 0 0 0 0
0.07434082 0.089294434 -0.35839844 0 0 0 0
0.076049805 0.089294434 -0.35839844 0 0 0 0
0.077697754 0.089294434 -0.35839844 0 0 0 0
0.079406738 0.089294434 -0.35839844 0 0 0 0
0.081054688 0.089294434 -0.35839844 0 0 0 0
0.082763672 0.089294434 -0.35839844 0 0 0 0
0.084411621 0.089294434 -0.35839844 0 0 0 0
0.086120605 0.089294434 -0.35839844 0 0 0 0
0.087768555 0.089294434 -0.35839844 0 0 0 0
0.089477539 0.089294434 -0.35839844 0 0 0 0
0.091125488 0.089294434 -0.35839844 0 0 0 0
0.092834473 0.089294434 -0.35839844 0 0 0 0
0.094482422 0.089294434 -0.35839844 0 0 0 0
0.096191406 0.089294434 -0.35839844 0 0 0 0
0.097900391 0.089294434 -0.35839844 0 0 0 0
0.09954834 0.089294434 -0.35839844 0 0 0 0
0.10125732 0.089294434 -0.35839844 0 0 0 0
0.10290527 0.089294434 -0.35839844 0 0 0 0
0.10461426 0.089294434 -0.35839844 0 0 0 0
0.10626221 0.089294434 -0.35839844 0 0 0 0
0.10797119 0.089294434 -0.35839844 0 0 0 0
0.10961914 0.089294434 -0.35839844 0 0 0 0
0.11132812 0.089294434 -0.35839844 0 0 0 0
0.11297607 0.089294434 -0.35839844 0 0 0 0
0.11468506 0.089294434 -0.35839844 0 0 0 0
0.11633301 0.089294434 -0.35839844 0 0 0 0
0.11804199 0.089294434 -0.35839844 0 0 0 0
0.11975098 0.089294434 -0.35839844 0 0 0 0
0.12139893 0.089294434 -0.35839844 0 0 0 0
0.12310791 0.089294434 -0.35839844 0 0 0 0
0.12475586 0.089294434 -0.35839844 0 0 0 0
0.12646484 0.089294434 -0.35839844 0 0 0 0
0.12805176 0.089294434 -0.35839844 0 0 0 0
0.12976074 0.089294434 -0.35839844 0 0 0 0
0.13146973 0.089294434 -0.35839844 0 0 0 0
0.13317871 0.089294434 -0.35839844 0 0 0 0
0.13439941 0.089050293 -0.35717773 0 0 0 0
0.1361084 0.089050293 -0.35717773 0 0 0 0
0.13781738 0.089050293 -0.35717773 0 0 0 0
0.13952637 0.089050293 -0.35717773 0 0 0 0
0.14111328 0.089050293 -0.35717773 0 0 0 0
0.14282227 0.089050293 -0.35717773 0 0 0 0
0.14453125 0.089050293 -0.35717773 0 0 0 0
0.14611816 0.089050293 -0.35717773 0 0 0 0
0.14782715 0.089050293 -0.35717773 0 0 0 0
0.14953613 0.089050293 -0.35717773 0 0 0 0
0.15124512 0.089050293 -0.35717773 0 0 0 0
0.15283203 0.089050293 -0.35717773 0 0 0 0
0.15454102 0.089050293 -0.35717773 0 0 0 0
0.15625 0.089050293 -0.35717773 0 0 0 0
0.15795898 0.089050293 -0.35717773 0 0 0 0
0.1595459 0.089050293 -0.35717773 0 0 0 0
-0.0087203979 0.095703125 -0.39135742 0 0 0 0
-0.0069007874 0.095947266 -0.39233398 0 0 0 0
-0.0050582886 0.095947266 -0.39233398 0 0 0 0
-0.0032119751 0.095703125 -0.39135742 0 0 0 0
-0.001376152 0.095703125 -0.39135742 0 0 0 0
0.00045919418 0.095703125 -0.39135742 0 0 0 0
0.0022888184 0.095458984 -0.39038086 0 0 0 0
0.004108429 0.095214844 -0.3894043 0 0 0 0
0.0059204102 0.094970703 -0.38842773 0 0 0 0
0.0077018738 0.094482422 -0.38647461 0 0 0 0
0.0094909668 0.094238281 -0.38549805 0 0 0 0
0.011268616 0.093994141 -0.38427734 0 0 0 0
0.013038635 0.09375 -0.38330078 0 0 0 0
0.014831543 0.09375 -0.38330078 0 0 0 0
0.016586304 0.093505859 -0.38232422 0 0 0 0
0.018371582 0.093505859 -0.38232422 0 0 0 0
0.020172119 0.093505859 -0.38232422 0 0 0 0
0.022018433 0.09375 -0.38330078 0 0 0 0
0.02381897 0.09375 -0.38330078 0 0 0 0
0.025680542 0.093994141 -0.38427734 0 0 0 0
0.027496338 0.093994141 -0.38427734 0 0 0 0
0.029373169 0.094238281 -0.38549805 0 0 0 0
0.031173706 0.094238281 -0.38549805 0 0 0 0
0.033050537 0.094482422 -0.38647461 0 0 0 0
0.040527344 0.094970703 -0.38842773 0 0 0 0
0.042236328 0.094726562 -0.38745117 0 0 0 0
0.044067383 0.094726562 -0.38745117 0 0 0 0
0.04574585 0.094482422 -0.38647461 0 0 0 0
0.047576904 0.094482422 -0.38647461 0 0 0 0
0.049377441 0.094482422 -0.38647461 0 0 0 0
0.051177979 0.094482422 -0.38647461 0 0 0 0
0.053009033 0.094482422 -0.38647461 0 0 0 0
0.057556152 0.087585449 -0.35839844 0 0 0 0
0.059051514 0.087341309 -0.35717773 0 0 0 0
0.06072998 0.087341309 -0.35717773 0 0 0 0
0.062408447 0.087341309 -0.35717773 0 0 0 0
0.064086914 0.087341309 -0.35717773 0 0 0 0
0.065917969 0.087585449 -0.35839844 0 0 0 0
0.067626953 0.087585449 -0.35839844 0 0 0 0
0.069274902 0.087585449 -0.35839844 0 0 0 0
0.070983887 0.087585449 -0.35839844 0 0 0 0
0.072631836 0.087585449 -0.35839844 0 0 0 0
0.07434082 0.087585449 -0.35839844 0 0 0 0
0.076049805 0.087585449 -0.35839844 0 0 0 0
0.077697754 0.087585449 -0.35839844 0 0 0 0
0.079406738 0.087585449 -0.35839844 0 0 0 0
0.081054688 0.087585449 -0.35839844 0 0 0 0
0.082763672 0.087585449 -0.35839844 0 0 0 0
0.084411621 0.087585449 -0.35839844 0 0 0 0
0.086120605 0.087585449 -0.35839844 0 0 0 0
0.087768555 0.087585449 -0.35839844 0 0 0 0
0.089477539 0.087585449 -0.35839844 0 0 0 0
0.091125488 0.087585449 -0.35839844 0 0 0 0
0.092834473 0.087585449 -0.35839844 0 0 0 0
0.094482422 0.087585449 -0.35839844 0 0 0 0
0.096191406 0.087585449 -0.35839844 0 0 0 0
0.097900391 0.087585449 -0.35839844 0 0 0 0
0.09954834 0.087585449 -0.35839844 0 0 0 0
0.10125732 0.087585449 -0.35839844 0 0 0 0
0.10290527 0.087585449 -0.35839844 0 0 0 0
0.10461426 0.087585449 -0.35839844 0 0 0 0
0.10626221 0.087585449 -0.35839844 0 0 0 0
0.10797119 0.087585449 -0.35839844 0 0 0 0
0.10961914 0.087585449 -0.35839844 0 0 0 0
0.11132812 0.087585449 -0.35839844 0 0 0 0
0.11297607 0.087585449 -0.35839844 0 0 0 0
0.11468506 0.087585449 -0.35839844 0 0 0 0
0.11633301 0.087585449 -0.35839844 0 0 0 0
0.11804199 0.087585449 -0.35839844 0 0 0 0
0.11975098 0.087585449 -0.35839844 0 0 0 0
0.12139893 0.087585449 -0.35839844 0 0 0 0
0.12310791 0.087585449 -0.35839844 0 0 0 0
0.12475586 0.087585449 -0.35839844 0 0 0 0
0.12646484 0.087585449 -0.35839844 0 0 0 0
0.12805176 0.087585449 -0.35839844 0 0 0 0
0.12976074 0.087585449 -0.35839844 0 0 0 0
0.13146973 0.087585449 -0.35839844 0 0 0 0
0.1328125 0.087341309 -0.35717773 0 0 0 0
0.13439941 0.087341309 -0.35717773 0 0 0 0
0.1361084 0.087341309 -0.35717773 0 0 0 0
0.13781738 0.087341309 -0.35717773 0 0 0 0
0.13952637 0.087341309 -0.35717773 0 0 0 0
0.14111328 0.087341309 -0.35717773 0 0 0 0
0.14282227 0.087341309 -0.35717773 0 0 0 0
0.14453125 0.087341309 -0.35717773 0 0 0 0
0.14611816 0.087341309 -0.35717773 0 0 0 0
0.14782715 0.087341309 -0.35717773 0 0 0 0
0.14953613 0.087341309 -0.35717773 0 0 0 0
0.15124512 0.087341309 -0.35717773 0 0 0 0
0.15283203 0.087341309 -0.35717773 0 0 0 0
0.15454102 0.087341309 -0.35717773 0 0 0 0
0.15625 0.087341309 -0.35717773 0 0 0 0
0.15795898 0.087341309 -0.35717773 0 0 0 0
0.1595459 0.087341309 -0.35717773 0 0 0 0
0.16125488 0.087341309 -0.35717773 0 0 0 0
0.16296387 0.087341309 -0.35717773 0 0 0 0
-0.0069007874 0.094116211 -0.39233398 0 0 0 0
-0.0050582886 0.094116211 -0.39233398 0 0 0 0
-0.0032196045 0.094116211 -0.39233398 0 0 0 0
-0.001376152 0.09387207 -0.39135742 0 0 0 0
0.00045919418 0.09387207 -0.39135742 0 0 0 0
0.0022888184 0.09362793 -0.39038086 0 0 0 0
0.004108429 0.093383789 -0.3894043 0 0 0 0
0.0059051514 0.092895508 -0.38745117 0 0 0 0
0.0077018738 0.092651367 -0.38647461 0 0 0 0
0.0094909668 0.092407227 -0.38549805 0 0 0 0
0.011268616 0.092163086 -0.38427734 0 0 0 0
0.013038635 0.091918945 -0.38330078 0 0 0 0
0.014831543 0.091918945 -0.38330078 0 0 0 0
0.016586304 0.091674805 -0.38232422 0 0 0 0
0.018371582 0.091674805 -0.38232422 0 0 0 0
0.020172119 0.091674805 -0.38232422 0 0 0 0
0.022018433 0.091918945 -0.38330078 0 0 0 0
0.02381897 0.091918945 -0.38330078 0 0 0 0
0.025680542 0.092163086 -0.38427734 0 0 0 0
0.027557373 0.092407227 -0.38549805 0 0 0 0
0.029373169 0.092407227 -0.38549805 0 0 0 0
0.031173706 0.092407227 -0.38549805 0 0 0 0
0.040527344 0.093139648 -0.38842773 0 0 0 0
0.042358398 0.093139648 -0.38842773 0 0 0 0
0.044067383 0.092895508 -0.38745117 0 0 0 0
0.04586792 0.092895508 -0.38745117 0 0 0 0
0.047576904 0.092651367 -0.38647461 0 0 0 0
0.049377441 0.092651367 -0.38647461 0 0 0 0
0.051177979 0.092651367 -0.38647461 0 0 0 0
0.053009033 0.092651367 -0.38647461 0 0 0 0
0.057556152 0.0859375 -0.35839844 0 0 0 0
0.059051514 0.085693359 -0.35717773 0 0 0 0
0.06072998 0.085693359 -0.35717773 0 0 0 0
0.062408447 0.085693359 -0.35717773 0 0 0 0
0.06427002 0.0859375 -0.35839844 0 0 0 0
0.065917969 0.0859375 -0.35839844 0 0 0 0
0.067626953 0.0859375 -0.35839844 0 0 0 0
0.069274902 0.0859375 -0.35839844 0 0 0 0
0.070983887 0.0859375 -0.35839844 0 0 0 0
0.072631836 0.0859375 -0.35839844 0 0 0 0
0.07434082 0.0859375 -0.35839844 0 0 0 0
0.076049805 0.0859375 -0.35839844 0 0 0 0
0.077697754 0.0859375 -0.35839844 0 0 0 0
0.079406738 0.0859375 -0.35839844 0 0 0 0
0.081054688 0.0859375 -0.35839844 0 0 0 0
0.082763672 0.0859375 -0.35839844 0 0 0 0
0.084411621 0.0859375 -0.35839844 0 0 0 0
0.086120605 0.0859375 -0.35839844 0 0 0 0
0.087768555 0.0859375 -0.35839844 0 0 0 0
0.089477539 0.0859375 -0.35839844 0 0 0 0
0.091125488 0.0859375 -0.35839844 0 0 0 0
0.092834473 0.0859375 -0.35839844 0 0 0 0
0.094482422 0.0859375 -0.35839844 0 0 0 0
0.096191406 0.0859375 -0.35839844 0 0 0 0
0.097900391 0.0859375 -0.35839844 0 0 0 0
0.09954834 0.0859375 -0.35839844 0 0 0 0
0.10125732 0.0859375 -0.35839844 0 0 0 0
0.10290527 0.0859375 -0.35839844 0 0 0 0
0.10461426 0.0859375 -0.35839844 0 0 0 0
0.10626221 0.0859375 -0.35839844 0 0 0 0
0.10797119 0.0859375 -0.35839844 0 0 0 0
0.10961914 0.0859375 -0.35839844 0 0 0 0
0.11132812 0.0859375 -0.35839844 0 0 0 0
0.11297607 0.0859375 -0.35839844 0 0 0 0
0.11468506 0.0859375 -0.35839844 0 0 0 0
0.11633301 0.0859375 -0.35839844 0 0 0 0
0.11804199 0.0859375 -0.35839844 0 0 0 0
0.11975098 0.0859375 -0.35839844 0 0 0 0
0.12139893 0.0859375 -0.35839844 0 0 0 0
0.12310791 0.0859375 -0.35839844 0 0 0 0
0.12475586 0.0859375 -0.35839844 0 0 0 0
0.12646484 0.0859375 -0.35839844 0 0 0 0
0.12805176 0.0859375 -0.35839844 0 0 0 0
0.12976074 0.0859375 -0.35839844 0 0 0 0
0.13110352 0.085693359 -0.35717773 0 0 0 0
0.1328125 0.085693359 -0.35717773 0 0 0 0
0.13439941 0.085693359 -0.35717773 0 0 0 0
0.1361084 0.085693359 -0.35717773 0 0 0 0
0.13781738 0.085693359 -0.35717773 0 0 0 0
0.13952637 0.085693359 -0.35717773 0 0 0 0
0.14111328 0.085693359 -0.35717773 0 0 0 0
0.14282227 0.085693359 -0.35717773 0 0 0 0
0.14453125 0.085693359 -0.35717773 0 0 0 0
0.14611816 0.085693359 -0.35717773 0 0 0 0
0.14782715 0.085693359 -0.35717773 0 0 0 0
0.14953613 0.085693359 -0.35717773 0 0 0 0
0.15124512 0.085693359 -0.35717773 0 0 0 0
0.15283203 0.085693359 -0.35717773 0 0 0 0
0.15454102 0.085693359 -0.35717773 0 0 0 0
0.15625 0.085693359 -0.35717773 0 0 0 0
0.15795898 0.085693359 -0.35717773 0 0 0 0
0.1595459 0.085693359 -0.35717773 0 0 0 0
0.16125488 0.085693359 -0.35717773 0 0 0 0
0.16296387 0.085693359 -0.35717773 0 0 0 0
-0.0069198608 0.092468262 -0.39331055 0 0 0 0
-0.0050582886 0.092285156 -0.39233398 0 0 0 0
-0.0032196045 0.092285156 -0.39233398 0 0 0 0
-0.001376152 0.092041016 -0.39135742 0 0 0 0
0.00045800209 0.091796875 -0.39038086 0 0 0 0
0.0022888184 0.091796875 -0.39038086 0 0 0 0
0.0040969849 0.091308594 -0.38842773 0 0 0 0
0.0059051514 0.091064453 -0.38745117 0 0 0 0
0.0077018738 0.090820312 -0.38647461 0 0 0 0
0.0094909668 0.090576172 -0.38549805 0 0 0 0
0.011268616 0.090393066 -0.38427734 0 0 0 0
0.013038635 0.090148926 -0.38330078 0 0 0 0
0.014831543 0.090148926 -0.38330078 0 0 0 0
0.01663208 0.090148926 -0.38330078 0 0 0 0
0.018371582 0.089904785 -0.38232422 0 0 0 0
0.020217896 0.090148926 -0.38330078 0 0 0 0
0.022018433 0.090148926 -0.38330078 0 0 0 0
0.023880005 0.090393066 -0.38427734 0 0 0 0
0.025680542 0.090393066 -0.38427734 0 0 0 0
0.027557373 0.090576172 -0.38549805 0 0 0 0
0.029449463 0.090820312 -0.38647461 0 0 0 0
0.038909912 0.091796875 -0.39038086 0 0 0 0
0.040618896 0.091552734 -0.3894043 0 0 0 0
0.042358398 0.091308594 -0.38842773 0 0 0 0
0.044158936 0.091308594 -0.38842773 0 0 0 0
0.04586792 0.091064453 -0.38745117 0 0 0 0
0.047698975 0.091064453 -0.38745117 0 0 0 0
0.049499512 0.091064453 -0.38745117 0 0 0 0
0.051177979 0.090820312 -0.38647461 0 0 0 0
0.053009033 0.090820312 -0.38647461 0 0 0 0
0.056030273 0.084472656 -0.359375 0 0 0 0
0.057556152 0.084228516 -0.35839844 0 0 0 0
0.059234619 0.084228516 -0.35839844 0 0 0 0
0.060913086 0.084228516 -0.35839844 0 0 0 0
0.062561035 0.084228516 -0.35839844 0 0 0 0
0.06427002 0.084228516 -0.35839844 0 0 0 0
0.065917969 0.084228516 -0.35839844 0 0 0 0
0.067626953 0.084228516 -0.35839844 0 0 0 0
0.069274902 0.084228516 -0.35839844 0 0 0 0
0.070983887 0.084228516 -0.35839844 0 0 0 0
0.072631836 0.084228516 -0.35839844 0 0 0 0
0.07434082 0.084228516 -0.35839844 0 0 0 0
0.076049805 0.084228516 -0.35839844 0 0 0 0
0.077697754 0.084228516 -0.35839844 0 0 0 0
0.079406738 0.084228516 -0.35839844 0 0 0 0
0.081054688 0.084228516 -0.35839844 0 0 0 0
0.082763672 0.084228516 -0.35839844 0 0 0 0
0.084411621 0.084228516 -0.35839844 0 0 0 0
0.086120605 0.084228516 -0.35839844 0 0 0 0
0.087768555 0.084228516 -0.35839844 0 0 0 0
0.089477539 0.084228516 -0.35839844 0 0 0 0
0.091125488 0.084228516 -0.35839844 0 0 0 0
0.092834473 0.084228516 -0.35839844 0 0 0 0
0.094482422 0.084228516 -0.35839844 0 0 0 0
0.096191406 0.084228516 -0.35839844 0 0 0 0
0.097900391 0.084228516 -0.35839844 0 0 0 0
0.09954834 0.084228516 -0.35839844 0 0 0 0
0.10125732 0.084228516 -0.35839844 0 0 0 0
0.10290527 0.084228516 -0.35839844 0 0 0 0
0.10461426 0.084228516 -0.35839844 0 0 0 0
0.10626221 0.084228516 -0.35839844 0 0 0 0
0.10797119 0.084228516 -0.35839844 0 0 0 0
0.10961914 0.084228516 -0.35839844 0 0 0 0
0.11132812 0.084228516 -0.35839844 0 0 0 0
0.11297607 0.084228516 -0.35839844 0 0 0 0
0.11468506 0.084228516 -0.35839844 0 0 0 0
0.11633301 0.084228516 -0.35839844 0 0 0 0
0.11804199 0.084228516 -0.35839844 0 0 0 0
0.11975098 0.084228516 -0.35839844 0 0 0 0
0.12139893 0.084228516 -0.35839844 0 0 0 0
0.12310791 0.084228516 -0.35839844 0 0 0 0
0.12475586 0.084228516 -0.35839844 0 0 0 0
0.12646484 0.084228516 -0.35839844 0 0 0 0
0.12768555 0.083984375 -0.35717773 0 0 0 0
0.12939453 0.083984375 -0.35717773 0 0 0 0
0.13110352 0.083984375 -0.35717773 0 0 0 0
0.1328125 0.083984375 -0.35717773 0 0 0 0
0.13439941 0.083984375 -0.35717773 0 0 0 0
0.1361084 0.083984375 -0.35717773 0 0 0 0
0.13781738 0.083984375 -0.35717773 0 0 0 0
0.13952637 0.083984375 -0.35717773 0 0 0 0
0.14111328 0.083984375 -0.35717773 0 0 0 0
0.14282227 0.083984375 -0.35717773 0 0 0 0
0.14453125 0.083984375 -0.35717773 0 0 0 0
0.14611816 0.083984375 -0.35717773 0 0 0 0
0.14782715 0.083984375 -0.35717773 0 0 0 0
0.14953613 0.083984375 -0.35717773 0 0 0 0
0.15124512 0.083984375 -0.35717773 0 0 0 0
0.15283203 0.083984375 -0.35717773 0 0 0 0
0.15454102 0.083984375 -0.35717773 0 0 0 0
0.15625 0.083984375 -0.35717773 0 0 0 0
0.15795898 0.083984375 -0.35717773 0 0 0 0
0.1595459 0.083984375 -0.35717773 0 0 0 0
0.16125488 0.083984375 -0.35717773 0 0 0 0
0.16296387 0.083984375 -0.35717773 0 0 0 0
0.16455078 0.083984375 -0.35717773 0 0 0 0
-0.0069198608 0.090637207 -0.39331055 0 0 0 0
-0.0050582886 0.090393066 -0.39233398 0 0 0 0
-0.0032196045 0.090393066 -0.39233398 0 0 0 0
-0.001376152 0.090209961 -0.39135742 0 0 0 0
0.00045800209 0.08996582 -0.39038086 0 0 0 0
0.0022830963 0.08972168 -0.3894043 0 0 0 0
0.0040969849 0.089477539 -0.38842773 0 0 0 0
0.0059051514 0.089233398 -0.38745117 0 0 0 0
0.0077018738 0.089050293 -0.38647461 0 0 0 0
0.0094909668 0.088806152 -0.38549805 0 0 0 0
0.011268616 0.088562012 -0.38427734 0 0 0 0
0.013038635 0.088317871 -0.38330078 0 0 0 0
0.014831543 0.088317871 -0.38330078 0 0 0 0
0.01663208 0.088317871 -0.38330078 0 0 0 0
0.018432617 0.088317871 -0.38330078 0 0 0 0
0.020217896 0.088317871 -0.38330078 0 0 0 0
0.022079468 0.088562012 -0.38427734 0 0 0 0
0.023880005 0.088562012 -0.38427734 0 0 0 0
0.025756836 0.088806152 -0.38549805 0 0 0 0
0.027633667 0.089050293 -0.38647461 0 0 0 0
