ply
format ascii 1.0
comment PCL generated
element vertex 1045
property float x
property float y
property float z
property float nx
property float ny
property float nz
property float curvature
element face 0
element camera 0
property float view_px
property float view_py
property float view_pz
property float x_axisx
property float x_axisy
property float x_axisz
property float y_axisx
property float y_axisy
property float y_axisz
property float z_axisx
property float z_axisy
property float z_axisz
property float focal
property float scalex
property float scaley
property float centerx
property float centery
property int viewportx
property int viewporty
property float k1
property float k2
end_header
0.10778809 -0.037780762 -0.35229492 0 0 0 0
0.10943604 -0.037780762 -0.35229492 0 0 0 0
0.11108398 -0.037780762 -0.35229492 0 0 0 0
0.11273193 -0.037780762 -0.35229492 0 0 0 0
0.11474609 -0.037872314 -0.35327148 0 0 0 0
0.11639404 -0.037872314 -0.35327148 0 0 0 0
-0.10290527 -0.039764404 -0.35522461 0 0 0 0
-0.10095215 -0.039642334 -0.35424805 0 0 0 0
-0.099243164 -0.039642334 -0.35424805 0 0 0 0
-0.097351074 -0.039520264 -0.35327148 0 0 0 0
-0.09564209 -0.039520264 -0.35327148 0 0 0 0
-0.093994141 -0.039520264 -0.35327148 0 0 0 0
-0.092346191 -0.039520264 -0.35327148 0 0 0 0
-0.090454102 -0.039428711 -0.35229492 0 0 0 0
-0.088806152 -0.039428711 -0.35229492 0 0 0 0
-0.087158203 -0.039428711 -0.35229492 0 0 0 0
-0.085510254 -0.039428711 -0.35229492 0 0 0 0
-0.083862305 -0.039428711 -0.35229492 0 0 0 0
-0.08215332 -0.039428711 -0.35229492 0 0 0 0
-0.080505371 -0.039428711 -0.35229492 0 0 0 0
-0.078857422 -0.039428711 -0.35229492 0 0 0 0
-0.077209473 -0.039428711 -0.35229492 0 0 0 0
-0.075561523 -0.039428711 -0.35229492 0 0 0 0
-0.073913574 -0.039428711 -0.35229492 0 0 0 0
-0.072265625 -0.039428711 -0.35229492 0 0 0 0
-0.070800781 -0.039520264 -0.35327148 0 0 0 0
-0.069152832 -0.039520264 -0.35327148 0 0 0 0
-0.067687988 -0.039642334 -0.35424805 0 0 0 0
-0.066223145 -0.039764404 -0.35522461 0 0 0 0
-0.064758301 -0.039886475 -0.35620117 0 0 0 0
-0.063232422 -0.039978027 -0.35717773 0 0 0 0
-0.061920166 -0.040222168 -0.359375 0 0 0 0
-0.060394287 -0.040313721 -0.36035156 0 0 0 0
-0.059051514 -0.040557861 -0.36230469 0 0 0 0
-0.057647705 -0.040771484 -0.36425781 0 0 0 0
-0.056274414 -0.040985107 -0.36621094 0 0 0 0
-0.054840088 -0.041229248 -0.3684082 0 0 0 0
-0.053253174 -0.041320801 -0.36938477 0 0 0 0
-0.05166626 -0.041442871 -0.37036133 0 0 0 0
-0.050079346 -0.041564941 -0.37133789 0 0 0 0
-0.048309326 -0.041564941 -0.37133789 0 0 0 0
-0.046569824 -0.041564941 -0.37133789 0 0 0 0
-0.044830322 -0.041564941 -0.37133789 0 0 0 0
-0.04309082 -0.041564941 -0.37133789 0 0 0 0
-0.041351318 -0.041564941 -0.37133789 0 0 0 0
-0.039611816 -0.041564941 -0.37133789 0 0 0 0
-0.037872314 -0.041564941 -0.37133789 0 0 0 0
-0.036132812 -0.041564941 -0.37133789 0 0 0 0
-0.034301758 -0.041442871 -0.37036133 0 0 0 0
-0.032562256 -0.041442871 -0.37036133 0 0 0 0
-0.030822754 -0.041442871 -0.37036133 0 0 0 0
-0.029083252 -0.041442871 -0.37036133 0 0 0 0
-0.027359009 -0.041442871 -0.37036133 0 0 0 0
-0.025619507 -0.041442871 -0.37036133 0 0 0 0
-0.023880005 -0.041442871 -0.37036133 0 0 0 0
-0.022140503 -0.041442871 -0.37036133 0 0 0 0
-0.020401001 -0.041442871 -0.37036133 0 0 0 0
-0.018722534 -0.041564941 -0.37133789 0 0 0 0
-0.017028809 -0.041656494 -0.37231445 0 0 0 0
-0.015281677 -0.041656494 -0.37231445 0 0 0 0
-0.013572693 -0.041778564 -0.37329102 0 0 0 0
-0.01184845 -0.041900635 -0.37426758 0 0 0 0
-0.010147095 -0.042114258 -0.37646484 0 0 0 0
-0.0084075928 -0.042236328 -0.37744141 0 0 0 0
-0.0066719055 -0.042449951 -0.37939453 0 0 0 0
-0.0049057007 -0.042572021 -0.38037109 0 0 0 0
-0.0031375885 -0.042785645 -0.38232422 0 0 0 0
-0.0013589859 -0.043243408 -0.38647461 0 0 0 0
0.00045681 -0.043579102 -0.3894043 0 0 0 0
0.0022945404 -0.043792725 -0.39135742 0 0 0 0
0.0041389465 -0.043914795 -0.39233398 0 0 0 0
0.0059814453 -0.043914795 -0.39233398 0 0 0 0
0.0078010559 -0.043792725 -0.39135742 0 0 0 0
0.0096130371 -0.043701172 -0.39038086 0 0 0 0
0.011413574 -0.043579102 -0.3894043 0 0 0 0
0.013237 -0.043579102 -0.3894043 0 0 0 0
0.015068054 -0.043579102 -0.3894043 0 0 0 0
0.016845703 -0.043457031 -0.38842773 0 0 0 0
0.018615723 -0.043365479 -0.38745117 0 0 0 0
0.020385742 -0.043243408 -0.38647461 0 0 0 0
0.023681641 -0.039642334 -0.35424805 0 0 0 0
0.02532959 -0.039642334 -0.35424805 0 0 0 0
0.026992798 -0.039642334 -0.35424805 0 0 0 0
0.028656006 -0.039642334 -0.35424805 0 0 0 0
0.03024292 -0.039520264 -0.35327148 0 0 0 0
0.031890869 -0.039520264 -0.35327148 0 0 0 0
0.033538818 -0.039520264 -0.35327148 0 0 0 0
0.035186768 -0.039520264 -0.35327148 0 0 0 0
0.036865234 -0.039520264 -0.35327148 0 0 0 0
0.038513184 -0.039520264 -0.35327148 0 0 0 0
0.04006958 -0.039428711 -0.35229492 0 0 0 0
0.041717529 -0.039428711 -0.35229492 0 0 0 0
0.043365479 -0.039428711 -0.35229492 0 0 0 0
0.045013428 -0.039428711 -0.35229492 0 0 0 0
0.046661377 -0.039428711 -0.35229492 0 0 0 0
0.048309326 -0.039428711 -0.35229492 0 0 0 0
0.050109863 -0.039520264 -0.35327148 0 0 0 0
0.051757812 -0.039520264 -0.35327148 0 0 0 0
0.053436279 -0.039520264 -0.35327148 0 0 0 0
0.055084229 -0.039520264 -0.35327148 0 0 0 0
0.056732178 -0.039520264 -0.35327148 0 0 0 0
0.058410645 -0.039520264 -0.35327148 0 0 0 0
0.060058594 -0.039520264 -0.35327148 0 0 0 0
0.061706543 -0.039520264 -0.35327148 0 0 0 0
0.063354492 -0.039520264 -0.35327148 0 0 0 0
0.065002441 -0.039520264 -0.35327148 0 0 0 0
0.066650391 -0.039520264 -0.35327148 0 0 0 0
0.068115234 -0.039428711 -0.35229492 0 0 0 0
0.069763184 -0.039428711 -0.35229492 0 0 0 0
0.071655273 -0.039520264 -0.35327148 0 0 0 0
0.073303223 -0.039520264 -0.35327148 0 0 0 0
0.074951172 -0.039520264 -0.35327148 0 0 0 0
0.076599121 -0.039520264 -0.35327148 0 0 0 0
0.07824707 -0.039520264 -0.35327148 0 0 0 0
0.079956055 -0.039520264 -0.35327148 0 0 0 0
0.081604004 -0.039520264 -0.35327148 0 0 0 0
0.083251953 -0.039520264 -0.35327148 0 0 0 0
0.084899902 -0.039520264 -0.35327148 0 0 0 0
0.086547852 -0.039520264 -0.35327148 0 0 0 0
0.088195801 -0.039520264 -0.35327148 0 0 0 0
0.08984375 -0.039520264 -0.35327148 0 0 0 0
0.091247559 -0.039428711 -0.35229492 0 0 0 0
0.092895508 -0.039428711 -0.35229492 0 0 0 0
0.094604492 -0.039428711 -0.35229492 0 0 0 0
0.096252441 -0.039428711 -0.35229492 0 0 0 0
0.097900391 -0.039428711 -0.35229492 0 0 0 0
0.09954834 -0.039428711 -0.35229492 0 0 0 0
0.10119629 -0.039428711 -0.35229492 0 0 0 0
0.10284424 -0.039428711 -0.35229492 0 0 0 0
0.10449219 -0.039428711 -0.35229492 0 0 0 0
0.10614014 -0.039428711 -0.35229492 0 0 0 0
0.10778809 -0.039428711 -0.35229492 0 0 0 0
0.10943604 -0.039428711 -0.35229492 0 0 0 0
0.11108398 -0.039428711 -0.35229492 0 0 0 0
0.11273193 -0.039428711 -0.35229492 0 0 0 0
0.11437988 -0.039428711 -0.35229492 0 0 0 0
0.11639404 -0.039520264 -0.35327148 0 0 0 0
-0.10455322 -0.041412354 -0.35522461 0 0 0 0
-0.10290527 -0.041412354 -0.35522461 0 0 0 0
-0.10095215 -0.041320801 -0.35424805 0 0 0 0
-0.099243164 -0.041320801 -0.35424805 0 0 0 0
-0.097351074 -0.04119873 -0.35327148 0 0 0 0
-0.09564209 -0.04119873 -0.35327148 0 0 0 0
-0.093994141 -0.04119873 -0.35327148 0 0 0 0
-0.092346191 -0.04119873 -0.35327148 0 0 0 0
-0.090454102 -0.04107666 -0.35229492 0 0 0 0
-0.088806152 -0.04107666 -0.35229492 0 0 0 0
-0.087158203 -0.04107666 -0.35229492 0 0 0 0
-0.085510254 -0.04107666 -0.35229492 0 0 0 0
-0.083862305 -0.04107666 -0.35229492 0 0 0 0
-0.08215332 -0.04107666 -0.35229492 0 0 0 0
-0.080505371 -0.04107666 -0.35229492 0 0 0 0
-0.078857422 -0.04107666 -0.35229492 0 0 0 0
-0.077209473 -0.04107666 -0.35229492 0 0 0 0
-0.075561523 -0.04107666 -0.35229492 0 0 0 0
-0.073913574 -0.04107666 -0.35229492 0 0 0 0
-0.072265625 -0.04107666 -0.35229492 0 0 0 0
-0.070800781 -0.04119873 -0.35327148 0 0 0 0
-0.069152832 -0.04119873 -0.35327148 0 0 0 0
-0.067687988 -0.041320801 -0.35424805 0 0 0 0
-0.066223145 -0.041412354 -0.35522461 0 0 0 0
-0.064758301 -0.041534424 -0.35620117 0 0 0 0
-0.063415527 -0.041778564 -0.35839844 0 0 0 0
-0.061920166 -0.041900635 -0.359375 0 0 0 0
-0.060577393 -0.042114258 -0.36132812 0 0 0 0
-0.059204102 -0.042358398 -0.36328125 0 0 0 0
-0.057830811 -0.042602539 -0.36523438 0 0 0 0
-0.056427002 -0.042816162 -0.36743164 0 0 0 0
-0.054992676 -0.043060303 -0.36938477 0 0 0 0
-0.053405762 -0.043182373 -0.37036133 0 0 0 0
-0.051818848 -0.043304443 -0.37133789 0 0 0 0
-0.050079346 -0.043304443 -0.37133789 0 0 0 0
-0.048461914 -0.043426514 -0.37231445 0 0 0 0
-0.046722412 -0.043426514 -0.37231445 0 0 0 0
-0.044952393 -0.043426514 -0.37231445 0 0 0 0
-0.043212891 -0.043426514 -0.37231445 0 0 0 0
-0.041473389 -0.043426514 -0.37231445 0 0 0 0
-0.039733887 -0.043426514 -0.37231445 0 0 0 0
-0.037872314 -0.043304443 -0.37133789 0 0 0 0
-0.036224365 -0.043426514 -0.37231445 0 0 0 0
-0.034393311 -0.043304443 -0.37133789 0 0 0 0
-0.032653809 -0.043304443 -0.37133789 0 0 0 0
-0.030914307 -0.043304443 -0.37133789 0 0 0 0
-0.029174805 -0.043304443 -0.37133789 0 0 0 0
-0.027359009 -0.043182373 -0.37036133 0 0 0 0
-0.025619507 -0.043182373 -0.37036133 0 0 0 0
-0.023880005 -0.043182373 -0.37036133 0 0 0 0
-0.022201538 -0.043304443 -0.37133789 0 0 0 0
-0.020462036 -0.043304443 -0.37133789 0 0 0 0
-0.018768311 -0.043426514 -0.37231445 0 0 0 0
-0.017028809 -0.043426514 -0.37231445 0 0 0 0
-0.015319824 -0.043548584 -0.37329102 0 0 0 0
-0.01360321 -0.043640137 -0.37426758 0 0 0 0
-0.011878967 -0.043762207 -0.37524414 0 0 0 0
-0.010177612 -0.044006348 -0.37744141 0 0 0 0
-0.0084228516 -0.044128418 -0.37841797 0 0 0 0
-0.0066871643 -0.044342041 -0.38037109 0 0 0 0
-0.0049324036 -0.044586182 -0.38232422 0 0 0 0
-0.0031547546 -0.044830322 -0.38427734 0 0 0 0
-0.0013618469 -0.045166016 -0.38745117 0 0 0 0
0.00045681 -0.045410156 -0.3894043 0 0 0 0
0.0022945404 -0.045654297 -0.39135742 0 0 0 0
0.0041313171 -0.045654297 -0.39135742 0 0 0 0
0.0059661865 -0.045654297 -0.39135742 0 0 0 0
0.0078010559 -0.045654297 -0.39135742 0 0 0 0
0.0096130371 -0.045532227 -0.39038086 0 0 0 0
0.011444092 -0.045532227 -0.39038086 0 0 0 0
0.013275146 -0.045532227 -0.39038086 0 0 0 0
0.015068054 -0.045410156 -0.3894043 0 0 0 0
0.016891479 -0.045410156 -0.3894043 0 0 0 0
0.018661499 -0.045288086 -0.38842773 0 0 0 0
0.023681641 -0.041320801 -0.35424805 0 0 0 0
0.02532959 -0.041320801 -0.35424805 0 0 0 0
0.026992798 -0.041320801 -0.35424805 0 0 0 0
0.028656006 -0.041320801 -0.35424805 0 0 0 0
0.03024292 -0.04119873 -0.35327148 0 0 0 0
0.031890869 -0.04119873 -0.35327148 0 0 0 0
0.033538818 -0.04119873 -0.35327148 0 0 0 0
0.035186768 -0.04119873 -0.35327148 0 0 0 0
0.036865234 -0.04119873 -0.35327148 0 0 0 0
0.038391113 -0.04107666 -0.35229492 0 0 0 0
0.04006958 -0.04107666 -0.35229492 0 0 0 0
0.041717529 -0.04107666 -0.35229492 0 0 0 0
0.043365479 -0.04107666 -0.35229492 0 0 0 0
0.045013428 -0.04107666 -0.35229492 0 0 0 0
0.046661377 -0.04107666 -0.35229492 0 0 0 0
0.048309326 -0.04107666 -0.35229492 0 0 0 0
0.049987793 -0.04107666 -0.35229492 0 0 0 0
0.051757812 -0.04119873 -0.35327148 0 0 0 0
0.053436279 -0.04119873 -0.35327148 0 0 0 0
0.055084229 -0.04119873 -0.35327148 0 0 0 0
0.056732178 -0.04119873 -0.35327148 0 0 0 0
0.058410645 -0.04119873 -0.35327148 0 0 0 0
0.060058594 -0.04119873 -0.35327148 0 0 0 0
0.061706543 -0.04119873 -0.35327148 0 0 0 0
0.063171387 -0.04107666 -0.35229492 0 0 0 0
0.064819336 -0.04107666 -0.35229492 0 0 0 0
0.066467285 -0.04107666 -0.35229492 0 0 0 0
0.068115234 -0.04107666 -0.35229492 0 0 0 0
0.069763184 -0.04107666 -0.35229492 0 0 0 0
0.071411133 -0.04107666 -0.35229492 0 0 0 0
0.073120117 -0.04107666 -0.35229492 0 0 0 0
0.074768066 -0.04107666 -0.35229492 0 0 0 0
0.076599121 -0.04119873 -0.35327148 0 0 0 0
0.07824707 -0.04119873 -0.35327148 0 0 0 0
0.079956055 -0.04119873 -0.35327148 0 0 0 0
0.081604004 -0.04119873 -0.35327148 0 0 0 0
0.083251953 -0.04119873 -0.35327148 0 0 0 0
0.084899902 -0.04119873 -0.35327148 0 0 0 0
0.086547852 -0.04119873 -0.35327148 0 0 0 0
0.088195801 -0.04119873 -0.35327148 0 0 0 0
0.089599609 -0.04107666 -0.35229492 0 0 0 0
0.091247559 -0.04107666 -0.35229492 0 0 0 0
0.092895508 -0.04107666 -0.35229492 0 0 0 0
0.094604492 -0.04107666 -0.35229492 0 0 0 0
0.096252441 -0.04107666 -0.35229492 0 0 0 0
0.097900391 -0.04107666 -0.35229492 0 0 0 0
0.09954834 -0.04107666 -0.35229492 0 0 0 0
0.10119629 -0.04107666 -0.35229492 0 0 0 0
0.10284424 -0.04107666 -0.35229492 0 0 0 0
0.10418701 -0.04095459 -0.35131836 0 0 0 0
0.10583496 -0.04095459 -0.35131836 0 0 0 0
0.10778809 -0.04107666 -0.35229492 0 0 0 0
0.10943604 -0.04107666 -0.35229492 0 0 0 0
0.11108398 -0.04107666 -0.35229492 0 0 0 0
0.11273193 -0.04107666 -0.35229492 0 0 0 0
0.11437988 -0.04107666 -0.35229492 0 0 0 0
0.11639404 -0.04119873 -0.35327148 0 0 0 0
-0.1048584 -0.043212891 -0.35620117 0 0 0 0
-0.10290527 -0.04309082 -0.35522461 0 0 0 0
-0.10119629 -0.04309082 -0.35522461 0 0 0 0
-0.099243164 -0.04296875 -0.35424805 0 0 0 0
-0.097595215 -0.04296875 -0.35424805 0 0 0 0
-0.09564209 -0.04284668 -0.35327148 0 0 0 0
-0.093994141 -0.04284668 -0.35327148 0 0 0 0
-0.092346191 -0.04284668 -0.35327148 0 0 0 0
-0.090454102 -0.042724609 -0.35229492 0 0 0 0
-0.088806152 -0.042724609 -0.35229492 0 0 0 0
-0.087158203 -0.042724609 -0.35229492 0 0 0 0
-0.085510254 -0.042724609 -0.35229492 0 0 0 0
-0.083862305 -0.042724609 -0.35229492 0 0 0 0
-0.08215332 -0.042724609 -0.35229492 0 0 0 0
-0.080505371 -0.042724609 -0.35229492 0 0 0 0
-0.078674316 -0.042602539 -0.35131836 0 0 0 0
-0.077026367 -0.042602539 -0.35131836 0 0 0 0
-0.075561523 -0.042724609 -0.35229492 0 0 0 0
-0.073913574 -0.042724609 -0.35229492 0 0 0 0
-0.072265625 -0.042724609 -0.35229492 0 0 0 0
-0.070800781 -0.04284668 -0.35327148 0 0 0 0
-0.069152832 -0.04284668 -0.35327148 0 0 0 0
-0.067687988 -0.04296875 -0.35424805 0 0 0 0
-0.06640625 -0.043212891 -0.35620117 0 0 0 0
-0.064941406 -0.043334961 -0.35717773 0 0 0 0
-0.063415527 -0.043457031 -0.35839844 0 0 0 0
-0.062103271 -0.043701172 -0.36035156 0 0 0 0
-0.06072998 -0.043945312 -0.36230469 0 0 0 0
-0.059356689 -0.044189453 -0.36425781 0 0 0 0
-0.057983398 -0.044433594 -0.36621094 0 0 0 0
-0.05657959 -0.044677734 -0.3684082 0 0 0 0
-0.054992676 -0.044799805 -0.36938477 0 0 0 0
-0.05355835 -0.045043945 -0.37133789 0 0 0 0
-0.051940918 -0.045166016 -0.37231445 0 0 0 0
-0.050201416 -0.045166016 -0.37231445 0 0 0 0
-0.048461914 -0.045166016 -0.37231445 0 0 0 0
-0.046722412 -0.045166016 -0.37231445 0 0 0 0
-0.044952393 -0.045166016 -0.37231445 0 0 0 0
-0.041473389 -0.045166016 -0.37231445 0 0 0 0
-0.039733887 -0.045166016 -0.37231445 0 0 0 0
-0.037963867 -0.045166016 -0.37231445 0 0 0 0
-0.036224365 -0.045166016 -0.37231445 0 0 0 0
-0.034484863 -0.045166016 -0.37231445 0 0 0 0
-0.032745361 -0.045166016 -0.37231445 0 0 0 0
-0.030914307 -0.045043945 -0.37133789 0 0 0 0
-0.029174805 -0.045043945 -0.37133789 0 0 0 0
-0.027420044 -0.045043945 -0.37133789 0 0 0 0
-0.025680542 -0.045043945 -0.37133789 0 0 0 0
-0.02394104 -0.045043945 -0.37133789 0 0 0 0
-0.022201538 -0.045043945 -0.37133789 0 0 0 0
-0.020507812 -0.045166016 -0.37231445 0 0 0 0
-0.018768311 -0.045166016 -0.37231445 0 0 0 0
-0.017074585 -0.045288086 -0.37329102 0 0 0 0
-0.015357971 -0.045410156 -0.37426758 0 0 0 0
-0.013641357 -0.045532227 -0.37524414 0 0 0 0
-0.011947632 -0.045776367 -0.37744141 0 0 0 0
-0.0102005 -0.045898438 -0.37841797 0 0 0 0
-0.0084686279 -0.046142578 -0.38037109 0 0 0 0
-0.0067253113 -0.046386719 -0.38232422 0 0 0 0
-0.0049705505 -0.04675293 -0.38549805 0 0 0 0
-0.0031700134 -0.046875 -0.38647461 0 0 0 0
-0.0013656616 -0.047119141 -0.38842773 0 0 0 0
0.00045800209 -0.047363281 -0.39038086 0 0 0 0
0.0022945404 -0.047485352 -0.39135742 0 0 0 0
0.0041389465 -0.047607422 -0.39233398 0 0 0 0
0.0059814453 -0.047607422 -0.39233398 0 0 0 0
0.0078201294 -0.047607422 -0.39233398 0 0 0 0
0.0096359253 -0.047485352 -0.39135742 0 0 0 0
0.011474609 -0.047485352 -0.39135742 0 0 0 0
0.013305664 -0.047485352 -0.39135742 0 0 0 0
0.015144348 -0.047485352 -0.39135742 0 0 0 0
0.016983032 -0.047485352 -0.39135742 0 0 0 0
0.018661499 -0.047119141 -0.38842773 0 0 0 0
0.023681641 -0.04296875 -0.35424805 0 0 0 0
0.02532959 -0.04296875 -0.35424805 0 0 0 0
0.026992798 -0.04296875 -0.35424805 0 0 0 0
0.028656006 -0.04296875 -0.35424805 0 0 0 0
0.03024292 -0.04284668 -0.35327148 0 0 0 0
0.031890869 -0.04284668 -0.35327148 0 0 0 0
0.033538818 -0.04284668 -0.35327148 0 0 0 0
0.035186768 -0.04284668 -0.35327148 0 0 0 0
0.036743164 -0.042724609 -0.35229492 0 0 0 0
0.038391113 -0.042724609 -0.35229492 0 0 0 0
0.04006958 -0.042724609 -0.35229492 0 0 0 0
0.041717529 -0.042724609 -0.35229492 0 0 0 0
0.043365479 -0.042724609 -0.35229492 0 0 0 0
0.045013428 -0.042724609 -0.35229492 0 0 0 0
0.046661377 -0.042724609 -0.35229492 0 0 0 0
0.048309326 -0.042724609 -0.35229492 0 0 0 0
0.049987793 -0.042724609 -0.35229492 0 0 0 0
0.051635742 -0.042724609 -0.35229492 0 0 0 0
0.053436279 -0.04284668 -0.35327148 0 0 0 0
0.055084229 -0.04284668 -0.35327148 0 0 0 0
0.056732178 -0.04284668 -0.35327148 0 0 0 0
0.058410645 -0.04284668 -0.35327148 0 0 0 0
0.060058594 -0.04284668 -0.35327148 0 0 0 0
0.061553955 -0.042724609 -0.35229492 0 0 0 0
0.063171387 -0.042724609 -0.35229492 0 0 0 0
0.064819336 -0.042724609 -0.35229492 0 0 0 0
0.066467285 -0.042724609 -0.35229492 0 0 0 0
0.068115234 -0.042724609 -0.35229492 0 0 0 0
0.069763184 -0.042724609 -0.35229492 0 0 0 0
0.071411133 -0.042724609 -0.35229492 0 0 0 0
0.073120117 -0.042724609 -0.35229492 0 0 0 0
0.074768066 -0.042724609 -0.35229492 0 0 0 0
0.076416016 -0.042724609 -0.35229492 0 0 0 0
0.07824707 -0.04284668 -0.35327148 0 0 0 0
0.079956055 -0.04284668 -0.35327148 0 0 0 0
0.081604004 -0.04284668 -0.35327148 0 0 0 0
0.083251953 -0.04284668 -0.35327148 0 0 0 0
0.084899902 -0.04284668 -0.35327148 0 0 0 0
0.086547852 -0.04284668 -0.35327148 0 0 0 0
0.08795166 -0.042724609 -0.35229492 0 0 0 0
0.089599609 -0.042724609 -0.35229492 0 0 0 0
0.091247559 -0.042724609 -0.35229492 0 0 0 0
0.092895508 -0.042724609 -0.35229492 0 0 0 0
0.094604492 -0.042724609 -0.35229492 0 0 0 0
0.096252441 -0.042724609 -0.35229492 0 0 0 0
0.097900391 -0.042724609 -0.35229492 0 0 0 0
0.09954834 -0.042724609 -0.35229492 0 0 0 0
0.10119629 -0.042724609 -0.35229492 0 0 0 0
0.10253906 -0.042602539 -0.35131836 0 0 0 0
0.10418701 -0.042602539 -0.35131836 0 0 0 0
0.10583496 -0.042602539 -0.35131836 0 0 0 0
0.10778809 -0.042724609 -0.35229492 0 0 0 0
0.10943604 -0.042724609 -0.35229492 0 0 0 0
0.11108398 -0.042724609 -0.35229492 0 0 0 0
0.11273193 -0.042724609 -0.35229492 0 0 0 0
0.11437988 -0.042724609 -0.35229492 0 0 0 0
-0.10681152 -0.045013428 -0.35717773 0 0 0 0
-0.1048584 -0.044891357 -0.35620117 0 0 0 0
-0.10290527 -0.044769287 -0.35522461 0 0 0 0
-0.10119629 -0.044769287 -0.35522461 0 0 0 0
-0.099243164 -0.044647217 -0.35424805 0 0 0 0
-0.097595215 -0.044647217 -0.35424805 0 0 0 0
-0.09564209 -0.044494629 -0.35327148 0 0 0 0
-0.093994141 -0.044494629 -0.35327148 0 0 0 0
-0.092346191 -0.044494629 -0.35327148 0 0 0 0
-0.090454102 -0.044372559 -0.35229492 0 0 0 0
-0.088806152 -0.044372559 -0.35229492 0 0 0 0
-0.087158203 -0.044372559 -0.35229492 0 0 0 0
-0.085510254 -0.044372559 -0.35229492 0 0 0 0
-0.083862305 -0.044372559 -0.35229492 0 0 0 0
-0.081970215 -0.044250488 -0.35131836 0 0 0 0
-0.080322266 -0.044250488 -0.35131836 0 0 0 0
-0.078674316 -0.044250488 -0.35131836 0 0 0 0
-0.077026367 -0.044250488 -0.35131836 0 0 0 0
-0.075378418 -0.044250488 -0.35131836 0 0 0 0
-0.073913574 -0.044372559 -0.35229492 0 0 0 0
-0.072265625 -0.044372559 -0.35229492 0 0 0 0
-0.070800781 -0.044494629 -0.35327148 0 0 0 0
-0.069335938 -0.044647217 -0.35424805 0 0 0 0
-0.067871094 -0.044769287 -0.35522461 0 0 0 0
-0.06640625 -0.044891357 -0.35620117 0 0 0 0
-0.064941406 -0.045013428 -0.35717773 0 0 0 0
-0.063598633 -0.045257568 -0.359375 0 0 0 0
-0.062255859 -0.045532227 -0.36132812 0 0 0 0
-0.060913086 -0.045776367 -0.36328125 0 0 0 0
-0.059539795 -0.046020508 -0.36523438 0 0 0 0
-0.058135986 -0.046264648 -0.36743164 0 0 0 0
-0.056732178 -0.046539307 -0.36938477 0 0 0 0
-0.055145264 -0.046661377 -0.37036133 0 0 0 0
-0.05355835 -0.046783447 -0.37133789 0 0 0 0
-0.051940918 -0.046905518 -0.37231445 0 0 0 0
-0.050201416 -0.046905518 -0.37231445 0 0 0 0
-0.036315918 -0.047027588 -0.37329102 0 0 0 0
-0.034484863 -0.046905518 -0.37231445 0 0 0 0
-0.032745361 -0.046905518 -0.37231445 0 0 0 0
-0.030990601 -0.046905518 -0.37231445 0 0 0 0
-0.029174805 -0.046783447 -0.37133789 0 0 0 0
-0.027420044 -0.046783447 -0.37133789 0 0 0 0
-0.025680542 -0.046783447 -0.37133789 0 0 0 0
-0.02394104 -0.046783447 -0.37133789 0 0 0 0
-0.022262573 -0.046905518 -0.37231445 0 0 0 0
-0.020507812 -0.046905518 -0.37231445 0 0 0 0
-0.018814087 -0.047027588 -0.37329102 0 0 0 0
-0.017120361 -0.047149658 -0.37426758 0 0 0 0
-0.015403748 -0.047302246 -0.37524414 0 0 0 0
-0.013679504 -0.047424316 -0.37646484 0 0 0 0
-0.011978149 -0.047668457 -0.37841797 0 0 0 0
-0.010253906 -0.047912598 -0.38037109 0 0 0 0
-0.0085144043 -0.048187256 -0.38232422 0 0 0 0
-0.006778717 -0.048553467 -0.38549805 0 0 0 0
-0.0049934387 -0.048797607 -0.38745117 0 0 0 0
-0.0031871796 -0.048919678 -0.38842773 0 0 0 0
-0.0013723373 -0.049194336 -0.39038086 0 0 0 0
0.00046038628 -0.049438477 -0.39233398 0 0 0 0
0.0023059845 -0.049560547 -0.39331055 0 0 0 0
0.0041503906 -0.049560547 -0.39331055 0 0 0 0
0.0059967041 -0.049560547 -0.39331055 0 0 0 0
0.0078430176 -0.049560547 -0.39331055 0 0 0 0
0.0096817017 -0.049560547 -0.39331055 0 0 0 0
0.011528015 -0.049560547 -0.39331055 0 0 0 0
0.013374329 -0.049560547 -0.39331055 0 0 0 0
0.015220642 -0.049560547 -0.39331055 0 0 0 0
0.017059326 -0.049560547 -0.39331055 0 0 0 0
0.023742676 -0.044769287 -0.35522461 0 0 0 0
0.02532959 -0.044647217 -0.35424805 0 0 0 0
0.026992798 -0.044647217 -0.35424805 0 0 0 0
0.028656006 -0.044647217 -0.35424805 0 0 0 0
0.03024292 -0.044494629 -0.35327148 0 0 0 0
0.031890869 -0.044494629 -0.35327148 0 0 0 0
0.033538818 -0.044494629 -0.35327148 0 0 0 0
0.035095215 -0.044372559 -0.35229492 0 0 0 0
0.036743164 -0.044372559 -0.35229492 0 0 0 0
0.038391113 -0.044372559 -0.35229492 0 0 0 0
0.04006958 -0.044372559 -0.35229492 0 0 0 0
0.041717529 -0.044372559 -0.35229492 0 0 0 0
0.043365479 -0.044372559 -0.35229492 0 0 0 0
0.045013428 -0.044372559 -0.35229492 0 0 0 0
0.046661377 -0.044372559 -0.35229492 0 0 0 0
0.048309326 -0.044372559 -0.35229492 0 0 0 0
0.049987793 -0.044372559 -0.35229492 0 0 0 0
0.051635742 -0.044372559 -0.35229492 0 0 0 0
0.053436279 -0.044494629 -0.35327148 0 0 0 0
0.055084229 -0.044494629 -0.35327148 0 0 0 0
0.056732178 -0.044494629 -0.35327148 0 0 0 0
0.058410645 -0.044494629 -0.35327148 0 0 0 0
0.059875488 -0.044372559 -0.35229492 0 0 0 0
0.061553955 -0.044372559 -0.35229492 0 0 0 0
0.063171387 -0.044372559 -0.35229492 0 0 0 0
0.064819336 -0.044372559 -0.35229492 0 0 0 0
0.066467285 -0.044372559 -0.35229492 0 0 0 0
0.068115234 -0.044372559 -0.35229492 0 0 0 0
0.069763184 -0.044372559 -0.35229492 0 0 0 0
0.071411133 -0.044372559 -0.35229492 0 0 0 0
0.073120117 -0.044372559 -0.35229492 0 0 0 0
0.074768066 -0.044372559 -0.35229492 0 0 0 0
0.076416016 -0.044372559 -0.35229492 0 0 0 0
0.078063965 -0.044372559 -0.35229492 0 0 0 0
0.079956055 -0.044494629 -0.35327148 0 0 0 0
0.081604004 -0.044494629 -0.35327148 0 0 0 0
0.083251953 -0.044494629 -0.35327148 0 0 0 0
0.084899902 -0.044494629 -0.35327148 0 0 0 0
0.086303711 -0.044372559 -0.35229492 0 0 0 0
0.08795166 -0.044372559 -0.35229492 0 0 0 0
0.089599609 -0.044372559 -0.35229492 0 0 0 0
0.091247559 -0.044372559 -0.35229492 0 0 0 0
0.092895508 -0.044372559 -0.35229492 0 0 0 0
0.094604492 -0.044372559 -0.35229492 0 0 0 0
0.096252441 -0.044372559 -0.35229492 0 0 0 0
0.097900391 -0.044372559 -0.35229492 0 0 0 0
0.09954834 -0.044372559 -0.35229492 0 0 0 0
0.10089111 -0.044250488 -0.35131836 0 0 0 0
0.10253906 -0.044250488 -0.35131836 0 0 0 0
0.10418701 -0.044250488 -0.35131836 0 0 0 0
0.10583496 -0.044250488 -0.35131836 0 0 0 0
0.10748291 -0.044250488 -0.35131836 0 0 0 0
0.10943604 -0.044372559 -0.35229492 0 0 0 0
0.11108398 -0.044372559 -0.35229492 0 0 0 0
0.11273193 -0.044372559 -0.35229492 0 0 0 0
0.11437988 -0.044372559 -0.35229492 0 0 0 0
-0.10852051 -0.046691895 -0.35717773 0 0 0 0
-0.10681152 -0.046691895 -0.35717773 0 0 0 0
-0.1048584 -0.046569824 -0.35620117 0 0 0 0
-0.10290527 -0.046417236 -0.35522461 0 0 0 0
-0.10119629 -0.046417236 -0.35522461 0 0 0 0
-0.099243164 -0.046295166 -0.35424805 0 0 0 0
-0.097595215 -0.046295166 -0.35424805 0 0 0 0
-0.09564209 -0.046173096 -0.35327148 0 0 0 0
-0.093994141 -0.046173096 -0.35327148 0 0 0 0
-0.092346191 -0.046173096 -0.35327148 0 0 0 0
-0.090454102 -0.046020508 -0.35229492 0 0 0 0
-0.088806152 -0.046020508 -0.35229492 0 0 0 0
-0.087158203 -0.046020508 -0.35229492 0 0 0 0
-0.085510254 -0.046020508 -0.35229492 0 0 0 0
-0.083618164 -0.045898438 -0.35131836 0 0 0 0
-0.081970215 -0.045898438 -0.35131836 0 0 0 0
-0.080322266 -0.045898438 -0.35131836 0 0 0 0
-0.078674316 -0.045898438 -0.35131836 0 0 0 0
-0.077026367 -0.045898438 -0.35131836 0 0 0 0
-0.075378418 -0.045898438 -0.35131836 0 0 0 0
-0.073913574 -0.046020508 -0.35229492 0 0 0 0
-0.072265625 -0.046020508 -0.35229492 0 0 0 0
-0.070800781 -0.046173096 -0.35327148 0 0 0 0
-0.069335938 -0.046295166 -0.35424805 0 0 0 0
-0.067871094 -0.046417236 -0.35522461 0 0 0 0
-0.066589355 -0.046691895 -0.35717773 0 0 0 0
-0.065124512 -0.046813965 -0.35839844 0 0 0 0
-0.063781738 -0.047088623 -0.36035156 0 0 0 0
-0.062438965 -0.047332764 -0.36230469 0 0 0 0
-0.061065674 -0.047607422 -0.36425781 0 0 0 0
-0.059692383 -0.04788208 -0.36621094 0 0 0 0
-0.058288574 -0.048126221 -0.3684082 0 0 0 0
-0.056732178 -0.048248291 -0.36938477 0 0 0 0
-0.055297852 -0.048522949 -0.37133789 0 0 0 0
-0.05368042 -0.04864502 -0.37231445 0 0 0 0
-0.052093506 -0.048797607 -0.37329102 0 0 0 0
-0.050323486 -0.048797607 -0.37329102 0 0 0 0
-0.036315918 -0.048797607 -0.37329102 0 0 0 0
-0.034576416 -0.048797607 -0.37329102 0 0 0 0
-0.032745361 -0.04864502 -0.37231445 0 0 0 0
-0.030990601 -0.04864502 -0.37231445 0 0 0 0
-0.029251099 -0.04864502 -0.37231445 0 0 0 0
-0.027420044 -0.048522949 -0.37133789 0 0 0 0
-0.025680542 -0.048522949 -0.37133789 0 0 0 0
-0.024002075 -0.04864502 -0.37231445 0 0 0 0
-0.022262573 -0.04864502 -0.37231445 0 0 0 0
-0.020568848 -0.048797607 -0.37329102 0 0 0 0
-0.018875122 -0.048919678 -0.37426758 0 0 0 0
-0.017166138 -0.049041748 -0.37524414 0 0 0 0
-0.015441895 -0.049194336 -0.37646484 0 0 0 0
-0.013748169 -0.049438477 -0.37841797 0 0 0 0
-0.012039185 -0.049713135 -0.38037109 0 0 0 0
-0.010307312 -0.049957275 -0.38232422 0 0 0 0
-0.0085830688 -0.050354004 -0.38549805 0 0 0 0
-0.0068130493 -0.050628662 -0.38745117 0 0 0 0
-0.0050201416 -0.050872803 -0.3894043 0 0 0 0
-0.0032119751 -0.051147461 -0.39135742 0 0 0 0
-0.0013799667 -0.051269531 -0.39233398 0 0 0 0
0.00046157837 -0.051422119 -0.39331055 0 0 0 0
0.0023117065 -0.051544189 -0.39453125 0 0 0 0
0.023742676 -0.046417236 -0.35522461 0 0 0 0
0.02532959 -0.046295166 -0.35424805 0 0 0 0
0.026992798 -0.046295166 -0.35424805 0 0 0 0
0.028656006 -0.046295166 -0.35424805 0 0 0 0
0.03024292 -0.046173096 -0.35327148 0 0 0 0
0.031890869 -0.046173096 -0.35327148 0 0 0 0
0.033538818 -0.046173096 -0.35327148 0 0 0 0
0.035095215 -0.046020508 -0.35229492 0 0 0 0
0.036743164 -0.046020508 -0.35229492 0 0 0 0
0.038391113 -0.046020508 -0.35229492 0 0 0 0
0.04006958 -0.046020508 -0.35229492 0 0 0 0
0.041717529 -0.046020508 -0.35229492 0 0 0 0
0.043365479 -0.046020508 -0.35229492 0 0 0 0
0.045013428 -0.046020508 -0.35229492 0 0 0 0
0.046661377 -0.046020508 -0.35229492 0 0 0 0
0.048309326 -0.046020508 -0.35229492 0 0 0 0
0.049987793 -0.046020508 -0.35229492 0 0 0 0
0.051635742 -0.046020508 -0.35229492 0 0 0 0
0.053283691 -0.046020508 -0.35229492 0 0 0 0
0.054931641 -0.046020508 -0.35229492 0 0 0 0
0.05657959 -0.046020508 -0.35229492 0 0 0 0
0.058227539 -0.046020508 -0.35229492 0 0 0 0
0.059875488 -0.046020508 -0.35229492 0 0 0 0
0.061553955 -0.046020508 -0.35229492 0 0 0 0
0.063171387 -0.046020508 -0.35229492 0 0 0 0
0.064819336 -0.046020508 -0.35229492 0 0 0 0
0.066467285 -0.046020508 -0.35229492 0 0 0 0
0.068115234 -0.046020508 -0.35229492 0 0 0 0
0.069763184 -0.046020508 -0.35229492 0 0 0 0
0.071411133 -0.046020508 -0.35229492 0 0 0 0
0.073120117 -0.046020508 -0.35229492 0 0 0 0
0.074768066 -0.046020508 -0.35229492 0 0 0 0
0.076416016 -0.046020508 -0.35229492 0 0 0 0
0.078063965 -0.046020508 -0.35229492 0 0 0 0
0.079711914 -0.046020508 -0.35229492 0 0 0 0
0.081359863 -0.046020508 -0.35229492 0 0 0 0
0.083007812 -0.046020508 -0.35229492 0 0 0 0
0.084655762 -0.046020508 -0.35229492 0 0 0 0
0.086303711 -0.046020508 -0.35229492 0 0 0 0
0.08795166 -0.046020508 -0.35229492 0 0 0 0
0.089599609 -0.046020508 -0.35229492 0 0 0 0
0.091247559 -0.046020508 -0.35229492 0 0 0 0
0.092895508 -0.046020508 -0.35229492 0 0 0 0
0.094604492 -0.046020508 -0.35229492 0 0 0 0
0.096252441 -0.046020508 -0.35229492 0 0 0 0
0.097900391 -0.046020508 -0.35229492 0 0 0 0
0.099243164 -0.045898438 -0.35131836 0 0 0 0
0.10089111 -0.045898438 -0.35131836 0 0 0 0
0.10253906 -0.045898438 -0.35131836 0 0 0 0
0.10418701 -0.045898438 -0.35131836 0 0 0 0
0.10583496 -0.045898438 -0.35131836 0 0 0 0
0.10748291 -0.045898438 -0.35131836 0 0 0 0
0.10943604 -0.046020508 -0.35229492 0 0 0 0
0.11108398 -0.046020508 -0.35229492 0 0 0 0
0.11273193 -0.046020508 -0.35229492 0 0 0 0
0.11437988 -0.046020508 -0.35229492 0 0 0 0
-0.10852051 -0.048370361 -0.35717773 0 0 0 0
-0.10681152 -0.048370361 -0.35717773 0 0 0 0
-0.1048584 -0.048217773 -0.35620117 0 0 0 0
-0.10290527 -0.048095703 -0.35522461 0 0 0 0
-0.10119629 -0.048095703 -0.35522461 0 0 0 0
-0.099243164 -0.047943115 -0.35424805 0 0 0 0
-0.097595215 -0.047943115 -0.35424805 0 0 0 0
-0.09564209 -0.047821045 -0.35327148 0 0 0 0
-0.093994141 -0.047821045 -0.35327148 0 0 0 0
-0.092346191 -0.047821045 -0.35327148 0 0 0 0
-0.090454102 -0.047698975 -0.35229492 0 0 0 0
-0.088806152 -0.047698975 -0.35229492 0 0 0 0
-0.087158203 -0.047698975 -0.35229492 0 0 0 0
-0.085510254 -0.047698975 -0.35229492 0 0 0 0
-0.083618164 -0.047546387 -0.35131836 0 0 0 0
-0.081970215 -0.047546387 -0.35131836 0 0 0 0
-0.080322266 -0.047546387 -0.35131836 0 0 0 0
-0.078674316 -0.047546387 -0.35131836 0 0 0 0
-0.077026367 -0.047546387 -0.35131836 0 0 0 0
-0.075378418 -0.047546387 -0.35131836 0 0 0 0
-0.073913574 -0.047698975 -0.35229492 0 0 0 0
-0.072265625 -0.047698975 -0.35229492 0 0 0 0
-0.070800781 -0.047821045 -0.35327148 0 0 0 0
-0.069335938 -0.047943115 -0.35424805 0 0 0 0
-0.068054199 -0.048217773 -0.35620117 0 0 0 0
-0.066589355 -0.048370361 -0.35717773 0 0 0 0
-0.065307617 -0.04864502 -0.359375 0 0 0 0
-0.063964844 -0.048919678 -0.36132812 0 0 0 0
-0.06262207 -0.049194336 -0.36328125 0 0 0 0
-0.061248779 -0.049438477 -0.36523438 0 0 0 0
-0.059875488 -0.049713135 -0.36743164 0 0 0 0
-0.058288574 -0.049865723 -0.3684082 0 0 0 0
-0.056884766 -0.050140381 -0.37036133 0 0 0 0
-0.055297852 -0.050262451 -0.37133789 0 0 0 0
-0.05368042 -0.050415039 -0.37231445 0 0 0 0
-0.052093506 -0.050537109 -0.37329102 0 0 0 0
-0.050476074 -0.050689697 -0.37426758 0 0 0 0
-0.048706055 -0.050689697 -0.37426758 0 0 0 0
-0.038085938 -0.050537109 -0.37329102 0 0 0 0
-0.036315918 -0.050537109 -0.37329102 0 0 0 0
-0.034484863 -0.050415039 -0.37231445 0 0 0 0
-0.032745361 -0.050415039 -0.37231445 0 0 0 0
-0.030990601 -0.050415039 -0.37231445 0 0 0 0
-0.029174805 -0.050262451 -0.37133789 0 0 0 0
-0.027420044 -0.050262451 -0.37133789 0 0 0 0
-0.025680542 -0.050262451 -0.37133789 0 0 0 0
-0.024002075 -0.050415039 -0.37231445 0 0 0 0
-0.022262573 -0.050415039 -0.37231445 0 0 0 0
-0.020568848 -0.050537109 -0.37329102 0 0 0 0
-0.018875122 -0.050689697 -0.37426758 0 0 0 0
-0.017166138 -0.050811768 -0.37524414 0 0 0 0
-0.015487671 -0.051086426 -0.37744141 0 0 0 0
-0.013786316 -0.051361084 -0.37939453 0 0 0 0
-0.012069702 -0.051635742 -0.38134766 0 0 0 0
-0.010360718 -0.052032471 -0.38427734 0 0 0 0
-0.0086517334 -0.052581787 -0.38842773 0 0 0 0
-0.0068664551 -0.052856445 -0.39038086 0 0 0 0
-0.0050582886 -0.053131104 -0.39233398 0 0 0 0
-0.0032291412 -0.053253174 -0.39331055 0 0 0 0
-0.0013866425 -0.053405762 -0.39453125 0 0 0 0
0.023742676 -0.048095703 -0.35522461 0 0 0 0
0.02532959 -0.047943115 -0.35424805 0 0 0 0
0.026992798 -0.047943115 -0.35424805 0 0 0 0
0.028656006 -0.047943115 -0.35424805 0 0 0 0
0.03024292 -0.047821045 -0.35327148 0 0 0 0
0.031890869 -0.047821045 -0.35327148 0 0 0 0
0.033538818 -0.047821045 -0.35327148 0 0 0 0
0.035095215 -0.047698975 -0.35229492 0 0 0 0
0.036743164 -0.047698975 -0.35229492 0 0 0 0
0.038391113 -0.047698975 -0.35229492 0 0 0 0
0.04006958 -0.047698975 -0.35229492 0 0 0 0
0.041717529 -0.047698975 -0.35229492 0 0 0 0
0.043365479 -0.047698975 -0.35229492 0 0 0 0
0.045013428 -0.047698975 -0.35229492 0 0 0 0
0.046661377 -0.047698975 -0.35229492 0 0 0 0
0.048309326 -0.047698975 -0.35229492 0 0 0 0
0.049987793 -0.047698975 -0.35229492 0 0 0 0
0.051635742 -0.047698975 -0.35229492 0 0 0 0
0.053283691 -0.047698975 -0.35229492 0 0 0 0
0.054931641 -0.047698975 -0.35229492 0 0 0 0
0.05657959 -0.047698975 -0.35229492 0 0 0 0
0.058227539 -0.047698975 -0.35229492 0 0 0 0
0.059875488 -0.047698975 -0.35229492 0 0 0 0
0.061553955 -0.047698975 -0.35229492 0 0 0 0
0.063171387 -0.047698975 -0.35229492 0 0 0 0
0.064819336 -0.047698975 -0.35229492 0 0 0 0
0.066467285 -0.047698975 -0.35229492 0 0 0 0
0.067932129 -0.047546387 -0.35131836 0 0 0 0
0.069580078 -0.047546387 -0.35131836 0 0 0 0
0.071411133 -0.047698975 -0.35229492 0 0 0 0
0.073120117 -0.047698975 -0.35229492 0 0 0 0
0.074768066 -0.047698975 -0.35229492 0 0 0 0
0.076416016 -0.047698975 -0.35229492 0 0 0 0
0.078063965 -0.047698975 -0.35229492 0 0 0 0
0.079711914 -0.047698975 -0.35229492 0 0 0 0
0.081359863 -0.047698975 -0.35229492 0 0 0 0
0.083007812 -0.047698975 -0.35229492 0 0 0 0
0.084655762 -0.047698975 -0.35229492 0 0 0 0
0.086303711 -0.047698975 -0.35229492 0 0 0 0
0.08795166 -0.047698975 -0.35229492 0 0 0 0
0.089599609 -0.047698975 -0.35229492 0 0 0 0
0.091247559 -0.047698975 -0.35229492 0 0 0 0
0.092895508 -0.047698975 -0.35229492 0 0 0 0
0.094604492 -0.047698975 -0.35229492 0 0 0 0
0.096252441 -0.047698975 -0.35229492 0 0 0 0
0.097595215 -0.047546387 -0.35131836 0 0 0 0
0.099243164 -0.047546387 -0.35131836 0 0 0 0
0.10089111 -0.047546387 -0.35131836 0 0 0 0
0.10253906 -0.047546387 -0.35131836 0 0 0 0
0.10418701 -0.047546387 -0.35131836 0 0 0 0
0.10583496 -0.047546387 -0.35131836 0 0 0 0
0.10748291 -0.047546387 -0.35131836 0 0 0 0
0.10913086 -0.047546387 -0.35131836 0 0 0 0
0.11108398 -0.047698975 -0.35229492 0 0 0 0
0.11273193 -0.047698975 -0.35229492 0 0 0 0
0.11437988 -0.047698975 -0.35229492 0 0 0 0
-0.11016846 -0.050048828 -0.35717773 0 0 0 0
-0.10852051 -0.050048828 -0.35717773 0 0 0 0
-0.10650635 -0.04989624 -0.35620117 0 0 0 0
-0.1048584 -0.04989624 -0.35620117 0 0 0 0
-0.10290527 -0.04977417 -0.35522461 0 0 0 0
-0.10119629 -0.04977417 -0.35522461 0 0 0 0
-0.099243164 -0.049621582 -0.35424805 0 0 0 0
-0.097595215 -0.049621582 -0.35424805 0 0 0 0
-0.09564209 -0.049468994 -0.35327148 0 0 0 0
-0.093994141 -0.049468994 -0.35327148 0 0 0 0
-0.092346191 -0.049468994 -0.35327148 0 0 0 0
-0.090454102 -0.049346924 -0.35229492 0 0 0 0
-0.088806152 -0.049346924 -0.35229492 0 0 0 0
-0.087158203 -0.049346924 -0.35229492 0 0 0 0
-0.085266113 -0.049194336 -0.35131836 0 0 0 0
-0.083618164 -0.049194336 -0.35131836 0 0 0 0
-0.081970215 -0.049194336 -0.35131836 0 0 0 0
-0.080322266 -0.049194336 -0.35131836 0 0 0 0
-0.078674316 -0.049194336 -0.35131836 0 0 0 0
-0.077026367 -0.049194336 -0.35131836 0 0 0 0
-0.075378418 -0.049194336 -0.35131836 0 0 0 0
-0.073913574 -0.049346924 -0.35229492 0 0 0 0
-0.072265625 -0.049346924 -0.35229492 0 0 0 0
-0.070800781 -0.049468994 -0.35327148 0 0 0 0
-0.069580078 -0.04977417 -0.35522461 0 0 0 0
-0.068054199 -0.04989624 -0.35620117 0 0 0 0
-0.066772461 -0.050170898 -0.35839844 0 0 0 0
-0.065490723 -0.050476074 -0.36035156 0 0 0 0
-0.063964844 -0.050598145 -0.36132812 0 0 0 0
-0.06262207 -0.050872803 -0.36328125 0 0 0 0
-0.061248779 -0.051177979 -0.36523438 0 0 0 0
-0.059875488 -0.051452637 -0.36743164 0 0 0 0
-0.05847168 -0.051727295 -0.36938477 0 0 0 0
-0.056884766 -0.051879883 -0.37036133 0 0 0 0
-0.055450439 -0.052154541 -0.37231445 0 0 0 0
-0.053833008 -0.052276611 -0.37329102 0 0 0 0
-0.052093506 -0.052276611 -0.37329102 0 0 0 0
-0.050476074 -0.052429199 -0.37426758 0 0 0 0
-0.048706055 -0.052429199 -0.37426758 0 0 0 0
-0.046966553 -0.052429199 -0.37426758 0 0 0 0
-0.045074463 -0.052276611 -0.37329102 0 0 0 0
-0.043334961 -0.052276611 -0.37329102 0 0 0 0
-0.041473389 -0.052154541 -0.37231445 0 0 0 0
-0.039733887 -0.052154541 -0.37231445 0 0 0 0
-0.037963867 -0.052154541 -0.37231445 0 0 0 0
-0.036224365 -0.052154541 -0.37231445 0 0 0 0
-0.034484863 -0.052154541 -0.37231445 0 0 0 0
-0.032653809 -0.052001953 -0.37133789 0 0 0 0
-0.030914307 -0.052001953 -0.37133789 0 0 0 0
-0.029174805 -0.052001953 -0.37133789 0 0 0 0
-0.027420044 -0.052001953 -0.37133789 0 0 0 0
-0.025680542 -0.052001953 -0.37133789 0 0 0 0
-0.024002075 -0.052154541 -0.37231445 0 0 0 0
-0.022262573 -0.052154541 -0.37231445 0 0 0 0
-0.020568848 -0.052276611 -0.37329102 0 0 0 0
-0.018875122 -0.052429199 -0.37426758 0 0 0 0
-0.017166138 -0.052581787 -0.37524414 0 0 0 0
-0.015487671 -0.052856445 -0.37744141 0 0 0 0
-0.013786316 -0.053131104 -0.37939453 0 0 0 0
-0.01210022 -0.05355835 -0.38232422 0 0 0 0
-0.010391235 -0.053985596 -0.38549805 0 0 0 0
-0.0086975098 -0.0546875 -0.39038086 0 0 0 0
-0.0069007874 -0.054962158 -0.39233398 0 0 0 0
-0.0050849915 -0.055236816 -0.39453125 0 0 0 0
0.023742676 -0.04977417 -0.35522461 0 0 0 0
0.02532959 -0.049621582 -0.35424805 0 0 0 0
0.026992798 -0.049621582 -0.35424805 0 0 0 0
0.028579712 -0.049468994 -0.35327148 0 0 0 0
0.03024292 -0.049468994 -0.35327148 0 0 0 0
0.031890869 -0.049468994 -0.35327148 0 0 0 0
0.033447266 -0.049346924 -0.35229492 0 0 0 0
0.035095215 -0.049346924 -0.35229492 0 0 0 0
0.036743164 -0.049346924 -0.35229492 0 0 0 0
0.038391113 -0.049346924 -0.35229492 0 0 0 0
0.04006958 -0.049346924 -0.35229492 0 0 0 0
0.041717529 -0.049346924 -0.35229492 0 0 0 0
0.043365479 -0.049346924 -0.35229492 0 0 0 0
0.045013428 -0.049346924 -0.35229492 0 0 0 0
0.046661377 -0.049346924 -0.35229492 0 0 0 0
0.048309326 -0.049346924 -0.35229492 0 0 0 0
0.049987793 -0.049346924 -0.35229492 0 0 0 0
0.051635742 -0.049346924 -0.35229492 0 0 0 0
0.053283691 -0.049346924 -0.35229492 0 0 0 0
0.054931641 -0.049346924 -0.35229492 0 0 0 0
0.05657959 -0.049346924 -0.35229492 0 0 0 0
0.058227539 -0.049346924 -0.35229492 0 0 0 0
0.059875488 -0.049346924 -0.35229492 0 0 0 0
0.061553955 -0.049346924 -0.35229492 0 0 0 0
0.063171387 -0.049346924 -0.35229492 0 0 0 0
0.064819336 -0.049346924 -0.35229492 0 0 0 0
0.06628418 -0.049194336 -0.35131836 0 0 0 0
0.067932129 -0.049194336 -0.35131836 0 0 0 0
0.069580078 -0.049194336 -0.35131836 0 0 0 0
0.071228027 -0.049194336 -0.35131836 0 0 0 0
0.073120117 -0.049346924 -0.35229492 0 0 0 0
0.074768066 -0.049346924 -0.35229492 0 0 0 0
0.076416016 -0.049346924 -0.35229492 0 0 0 0
0.078063965 -0.049346924 -0.35229492 0 0 0 0
0.079711914 -0.049346924 -0.35229492 0 0 0 0
0.081359863 -0.049346924 -0.35229492 0 0 0 0
0.083007812 -0.049346924 -0.35229492 0 0 0 0
0.084655762 -0.049346924 -0.35229492 0 0 0 0
0.086303711 -0.049346924 -0.35229492 0 0 0 0
0.08795166 -0.049346924 -0.35229492 0 0 0 0
0.089599609 -0.049346924 -0.35229492 0 0 0 0
0.091247559 -0.049346924 -0.35229492 0 0 0 0
0.092895508 -0.049346924 -0.35229492 0 0 0 0
0.094299316 -0.049194336 -0.35131836 0 0 0 0
0.095947266 -0.049194336 -0.35131836 0 0 0 0
0.097595215 -0.049194336 -0.35131836 0 0 0 0
0.099243164 -0.049194336 -0.35131836 0 0 0 0
0.10089111 -0.049194336 -0.35131836 0 0 0 0
0.10253906 -0.049194336 -0.35131836 0 0 0 0
0.10418701 -0.049194336 -0.35131836 0 0 0 0
0.10583496 -0.049194336 -0.35131836 0 0 0 0
0.10748291 -0.049194336 -0.35131836 0 0 0 0
0.10913086 -0.049194336 -0.35131836 0 0 0 0
0.11077881 -0.049194336 -0.35131836 0 0 0 0
0.11242676 -0.049194336 -0.35131836 0 0 0 0
0.11437988 -0.049346924 -0.35229492 0 0 0 0
-0.11218262 -0.051849365 -0.35839844 0 0 0 0
-0.11016846 -0.051727295 -0.35717773 0 0 0 0
-0.10852051 -0.051727295 -0.35717773 0 0 0 0
-0.10650635 -0.051574707 -0.35620117 0 0 0 0
-0.1048584 -0.051574707 -0.35620117 0 0 0 0
-0.10290527 -0.051422119 -0.35522461 0 0 0 0
-0.10095215 -0.051269531 -0.35424805 0 0 0 0
-0.099243164 -0.051269531 -0.35424805 0 0 0 0
-0.097595215 -0.051269531 -0.35424805 0 0 0 0
-0.09564209 -0.051147461 -0.35327148 0 0 0 0
-0.093994141 -0.051147461 -0.35327148 0 0 0 0
-0.092346191 -0.051147461 -0.35327148 0 0 0 0
-0.090454102 -0.050994873 -0.35229492 0 0 0 0
-0.088806152 -0.050994873 -0.35229492 0 0 0 0
-0.087158203 -0.050994873 -0.35229492 0 0 0 0
-0.085266113 -0.050842285 -0.35131836 0 0 0 0
-0.083618164 -0.050842285 -0.35131836 0 0 0 0
-0.081970215 -0.050842285 -0.35131836 0 0 0 0
-0.080322266 -0.050842285 -0.35131836 0 0 0 0
-0.078674316 -0.050842285 -0.35131836 0 0 0 0
-0.077026367 -0.050842285 -0.35131836 0 0 0 0
-0.075378418 -0.050842285 -0.35131836 0 0 0 0
-0.073913574 -0.050994873 -0.35229492 0 0 0 0
-0.07244873 -0.051147461 -0.35327148 0 0 0 0
-0.071044922 -0.051269531 -0.35424805 0 0 0 0
-0.069580078 -0.051422119 -0.35522461 0 0 0 0
-0.068054199 -0.051574707 -0.35620117 0 0 0 0
-0.066772461 -0.051849365 -0.35839844 0 0 0 0
-0.065490723 -0.052154541 -0.36035156 0 0 0 0
-0.064147949 -0.052429199 -0.36230469 0 0 0 0
-0.062744141 -0.052734375 -0.36425781 0 0 0 0
-0.061431885 -0.053039551 -0.36621094 0 0 0 0
-0.060028076 -0.053314209 -0.3684082 0 0 0 0
-0.05847168 -0.053466797 -0.36938477 0 0 0 0
-0.057037354 -0.053741455 -0.37133789 0 0 0 0
-0.055450439 -0.053894043 -0.37231445 0 0 0 0
-0.053833008 -0.054046631 -0.37329102 0 0 0 0
-0.052093506 -0.054046631 -0.37329102 0 0 0 0
-0.050323486 -0.054046631 -0.37329102 0 0 0 0
-0.048706055 -0.054199219 -0.37426758 0 0 0 0
-0.046844482 -0.054046631 -0.37329102 0 0 0 0
-0.045074463 -0.054046631 -0.37329102 0 0 0 0
-0.043212891 -0.053894043 -0.37231445 0 0 0 0
-0.041473389 -0.053894043 -0.37231445 0 0 0 0
-0.039733887 -0.053894043 -0.37231445 0 0 0 0
-0.037872314 -0.053741455 -0.37133789 0 0 0 0
-0.036132812 -0.053741455 -0.37133789 0 0 0 0
-0.034393311 -0.053741455 -0.37133789 0 0 0 0
-0.032653809 -0.053741455 -0.37133789 0 0 0 0
-0.030914307 -0.053741455 -0.37133789 0 0 0 0
-0.029083252 -0.053619385 -0.37036133 0 0 0 0
-0.027420044 -0.053741455 -0.37133789 0 0 0 0
-0.025680542 -0.053741455 -0.37133789 0 0 0 0
-0.02394104 -0.053741455 -0.37133789 0 0 0 0
-0.022262573 -0.053894043 -0.37231445 0 0 0 0
-0.020568848 -0.054046631 -0.37329102 0 0 0 0
-0.018875122 -0.054199219 -0.37426758 0 0 0 0
-0.017166138 -0.054321289 -0.37524414 0 0 0 0
-0.015441895 -0.054473877 -0.37646484 0 0 0 0
-0.013786316 -0.054901123 -0.37939453 0 0 0 0
-0.012138367 -0.055480957 -0.38330078 0 0 0 0
-0.010421753 -0.055938721 -0.38647461 0 0 0 0
-0.0087585449 -0.056945801 -0.39331055 0 0 0 0
0.023742676 -0.051422119 -0.35522461 0 0 0 0
0.02532959 -0.051269531 -0.35424805 0 0 0 0
0.026992798 -0.051269531 -0.35424805 0 0 0 0
0.028579712 -0.051147461 -0.35327148 0 0 0 0
0.03024292 -0.051147461 -0.35327148 0 0 0 0
0.031890869 -0.051147461 -0.35327148 0 0 0 0
0.033447266 -0.050994873 -0.35229492 0 0 0 0
0.035095215 -0.050994873 -0.35229492 0 0 0 0
0.036743164 -0.050994873 -0.35229492 0 0 0 0
0.038391113 -0.050994873 -0.35229492 0 0 0 0
0.04006958 -0.050994873 -0.35229492 0 0 0 0
0.041717529 -0.050994873 -0.35229492 0 0 0 0
0.043365479 -0.050994873 -0.35229492 0 0 0 0
0.045013428 -0.050994873 -0.35229492 0 0 0 0
0.046661377 -0.050994873 -0.35229492 0 0 0 0
0.048309326 -0.050994873 -0.35229492 0 0 0 0
0.049987793 -0.050994873 -0.35229492 0 0 0 0
0.051635742 -0.050994873 -0.35229492 0 0 0 0
0.053283691 -0.050994873 -0.35229492 0 0 0 0
0.054931641 -0.050994873 -0.35229492 0 0 0 0
0.05657959 -0.050994873 -0.35229492 0 0 0 0
0.058227539 -0.050994873 -0.35229492 0 0 0 0
0.059875488 -0.050994873 -0.35229492 0 0 0 0
0.061553955 -0.050994873 -0.35229492 0 0 0 0
0.063171387 -0.050994873 -0.35229492 0 0 0 0
0.06463623 -0.050842285 -0.35131836 0 0 0 0
0.06628418 -0.050842285 -0.35131836 0 0 0 0
0.067932129 -0.050842285 -0.35131836 0 0 0 0
0.069580078 -0.050842285 -0.35131836 0 0 0 0
0.071228027 -0.050842285 -0.35131836 0 0 0 0
0.072875977 -0.050842285 -0.35131836 0 0 0 0
0.074523926 -0.050842285 -0.35131836 0 0 0 0
0.076416016 -0.050994873 -0.35229492 0 0 0 0
0.078063965 -0.050994873 -0.35229492 0 0 0 0
0.079711914 -0.050994873 -0.35229492 0 0 0 0
0.081359863 -0.050994873 -0.35229492 0 0 0 0
0.083007812 -0.050994873 -0.35229492 0 0 0 0
0.084655762 -0.050994873 -0.35229492 0 0 0 0
0.086303711 -0.050994873 -0.35229492 0 0 0 0
0.08795166 -0.050994873 -0.35229492 0 0 0 0
0.089599609 -0.050994873 -0.35229492 0 0 0 0
0.091247559 -0.050994873 -0.35229492 0 0 0 0
0.092651367 -0.050842285 -0.35131836 0 0 0 0
0.094299316 -0.050842285 -0.35131836 0 0 0 0
0.095947266 -0.050842285 -0.35131836 0 0 0 0
0.097595215 -0.050842285 -0.35131836 0 0 0 0
0.099243164 -0.050842285 -0.35131836 0 0 0 0
0.10089111 -0.050842285 -0.35131836 0 0 0 0
0.10253906 -0.050842285 -0.35131836 0 0 0 0
0.10418701 -0.050842285 -0.35131836 0 0 0 0
0.10583496 -0.050842285 -0.35131836 0 0 0 0
0.10748291 -0.050842285 -0.35131836 0 0 0 0
0.10913086 -0.050842285 -0.35131836 0 0 0 0
0.11077881 -0.050842285 -0.35131836 0 0 0 0
0.11242676 -0.050842285 -0.35131836 0 0 0 0
0.11407471 -0.050842285 -0.35131836 0 0 0 0
-0.11181641 -0.053405762 -0.35717773 0 0 0 0
-0.11016846 -0.053405762 -0.35717773 0 0 0 0
-0.10852051 -0.053405762 -0.35717773 0 0 0 0
-0.10650635 -0.053253174 -0.35620117 0 0 0 0
-0.10455322 -0.053100586 -0.35522461 0 0 0 0
-0.10290527 -0.053100586 -0.35522461 0 0 0 0
-0.10095215 -0.052947998 -0.35424805 0 0 0 0
-0.099243164 -0.052947998 -0.35424805 0 0 0 0
-0.097351074 -0.05279541 -0.35327148 0 0 0 0
-0.09564209 -0.05279541 -0.35327148 0 0 0 0
-0.093994141 -0.05279541 -0.35327148 0 0 0 0
-0.092102051 -0.052642822 -0.35229492 0 0 0 0
-0.090454102 -0.052642822 -0.35229492 0 0 0 0
-0.088806152 -0.052642822 -0.35229492 0 0 0 0
-0.087158203 -0.052642822 -0.35229492 0 0 0 0
-0.085266113 -0.052490234 -0.35131836 0 0 0 0
-0.083618164 -0.052490234 -0.35131836 0 0 0 0
-0.081970215 -0.052490234 -0.35131836 0 0 0 0
-0.080322266 -0.052490234 -0.35131836 0 0 0 0
-0.078674316 -0.052490234 -0.35131836 0 0 0 0
-0.077026367 -0.052490234 -0.35131836 0 0 0 0
-0.075561523 -0.052642822 -0.35229492 0 0 0 0
-0.073913574 -0.052642822 -0.35229492 0 0 0 0
-0.07244873 -0.05279541 -0.35327148 0 0 0 0
-0.071044922 -0.052947998 -0.35424805 0 0 0 0
-0.069580078 -0.053100586 -0.35522461 0 0 0 0
-0.068237305 -0.053405762 -0.35717773 0 0 0 0
-0.066955566 -0.05368042 -0.359375 0 0 0 0
-0.065673828 -0.053985596 -0.36132812 0 0 0 0
-0.064331055 -0.054290771 -0.36328125 0 0 0 0
-0.062927246 -0.054595947 -0.36523438 0 0 0 0
-0.061584473 -0.054901123 -0.36743164 0 0 0 0
-0.060028076 -0.055053711 -0.3684082 0 0 0 0
-0.058624268 -0.055328369 -0.37036133 0 0 0 0
-0.057037354 -0.055480957 -0.37133789 0 0 0 0
-0.055450439 -0.055633545 -0.37231445 0 0 0 0
-0.05368042 -0.055633545 -0.37231445 0 0 0 0
-0.052093506 -0.055786133 -0.37329102 0 0 0 0
-0.050323486 -0.055786133 -0.37329102 0 0 0 0
-0.048583984 -0.055786133 -0.37329102 0 0 0 0
-0.046844482 -0.055786133 -0.37329102 0 0 0 0
-0.044952393 -0.055633545 -0.37231445 0 0 0 0
-0.043212891 -0.055633545 -0.37231445 0 0 0 0
-0.041351318 -0.055480957 -0.37133789 0 0 0 0
-0.039611816 -0.055480957 -0.37133789 0 0 0 0
-0.037780762 -0.055328369 -0.37036133 0 0 0 0
-0.03604126 -0.055328369 -0.37036133 0 0 0 0
-0.034301758 -0.055328369 -0.37036133 0 0 0 0
-0.032562256 -0.055328369 -0.37036133 0 0 0 0
-0.030822754 -0.055328369 -0.37036133 0 0 0 0
-0.029083252 -0.055328369 -0.37036133 0 0 0 0
-0.027359009 -0.055328369 -0.37036133 0 0 0 0
-0.025619507 -0.055328369 -0.37036133 0 0 0 0
-0.02394104 -0.055480957 -0.37133789 0 0 0 0
