ply
format ascii 1.0
comment PCL generated
element vertex 1077
property float x
property float y
property float z
property float nx
property float ny
property float nz
property float curvature
element face 0
element camera 0
property float view_px
property float view_py
property float view_pz
property float x_axisx
property float x_axisy
property float x_axisz
property float y_axisx
property float y_axisy
property float y_axisz
property float z_axisx
property float z_axisy
property float z_axisz
property float focal
property float scalex
property float scaley
property float centerx
property float centery
property int viewportx
property int viewporty
property float k1
property float k2
end_header
0.040039062 0.020904541 -0.36743164 0 0 0 0
0.041870117 0.020965576 -0.3684082 0 0 0 0
0.043609619 0.020965576 -0.3684082 0 0 0 0
0.045471191 0.021011353 -0.36938477 0 0 0 0
0.072387695 0.01940918 -0.34130859 0 0 0 0
0.073974609 0.01940918 -0.34130859 0 0 0 0
0.075378418 0.019363403 -0.34008789 0 0 0 0
0.076965332 0.019363403 -0.34008789 0 0 0 0
0.078552246 0.019363403 -0.34008789 0 0 0 0
0.08013916 0.019363403 -0.34008789 0 0 0 0
0.081787109 0.019363403 -0.34008789 0 0 0 0
0.083374023 0.019363403 -0.34008789 0 0 0 0
0.084960938 0.019363403 -0.34008789 0 0 0 0
0.086547852 0.019363403 -0.34008789 0 0 0 0
0.088134766 0.019363403 -0.34008789 0 0 0 0
0.08972168 0.019363403 -0.34008789 0 0 0 0
0.091369629 0.019363403 -0.34008789 0 0 0 0
0.092956543 0.019363403 -0.34008789 0 0 0 0
0.094787598 0.01940918 -0.34130859 0 0 0 0
0.096435547 0.01940918 -0.34130859 0 0 0 0
0.098022461 0.01940918 -0.34130859 0 0 0 0
0.099914551 0.019470215 -0.34228516 0 0 0 0
0.10150146 0.019470215 -0.34228516 0 0 0 0
0.10308838 0.019470215 -0.34228516 0 0 0 0
0.1050415 0.01953125 -0.34326172 0 0 0 0
0.10662842 0.01953125 -0.34326172 0 0 0 0
0.10827637 0.01953125 -0.34326172 0 0 0 0
0.11016846 0.019592285 -0.34423828 0 0 0 0
0.11181641 0.019592285 -0.34423828 0 0 0 0
0.11340332 0.019592285 -0.34423828 0 0 0 0
0.11535645 0.019638062 -0.34521484 0 0 0 0
0.11700439 0.019638062 -0.34521484 0 0 0 0
0.11859131 0.019638062 -0.34521484 0 0 0 0
0.12023926 0.019638062 -0.34521484 0 0 0 0
0.12219238 0.019699097 -0.34619141 0 0 0 0
0.12384033 0.019699097 -0.34619141 0 0 0 0
0.12536621 0.019699097 -0.34619141 0 0 0 0
0.1270752 0.019699097 -0.34619141 0 0 0 0
0.12902832 0.019760132 -0.34716797 0 0 0 0
0.13061523 0.019760132 -0.34716797 0 0 0 0
0.13232422 0.019760132 -0.34716797 0 0 0 0
0.13427734 0.019821167 -0.34814453 0 0 0 0
0.13598633 0.019821167 -0.34814453 0 0 0 0
0.13757324 0.019821167 -0.34814453 0 0 0 0
0.13964844 0.019866943 -0.34912109 0 0 0 0
0.14123535 0.019866943 -0.34912109 0 0 0 0
0.14294434 0.019866943 -0.34912109 0 0 0 0
0.14489746 0.019927979 -0.3503418 0 0 0 0
0.14660645 0.019927979 -0.3503418 0 0 0 0
0.14819336 0.019927979 -0.3503418 0 0 0 0
0.14990234 0.019927979 -0.3503418 0 0 0 0
0.15148926 0.019927979 -0.3503418 0 0 0 0
0.15356445 0.019989014 -0.35131836 0 0 0 0
0.15527344 0.019989014 -0.35131836 0 0 0 0
0.15686035 0.019989014 -0.35131836 0 0 0 0
0.15856934 0.019989014 -0.35131836 0 0 0 0
0.16015625 0.019989014 -0.35131836 0 0 0 0
0.16235352 0.020050049 -0.35229492 0 0 0 0
0.16394043 0.020050049 -0.35229492 0 0 0 0
0.16564941 0.020050049 -0.35229492 0 0 0 0
0.16723633 0.020050049 -0.35229492 0 0 0 0
0.16894531 0.020050049 -0.35229492 0 0 0 0
0.17102051 0.020095825 -0.35327148 0 0 0 0
0.17272949 0.020095825 -0.35327148 0 0 0 0
0.17431641 0.020095825 -0.35327148 0 0 0 0
0.17602539 0.020095825 -0.35327148 0 0 0 0
-0.0081787109 0.019180298 -0.36743164 0 0 0 0
-0.0064430237 0.019119263 -0.36621094 0 0 0 0
-0.0047111511 0.019073486 -0.36523438 0 0 0 0
-0.0029888153 0.01902771 -0.36425781 0 0 0 0
-0.0012741089 0.018920898 -0.36230469 0 0 0 0
0.00042390823 0.018859863 -0.36132812 0 0 0 0
0.0021057129 0.018753052 -0.359375 0 0 0 0
0.003780365 0.018707275 -0.35839844 0 0 0 0
0.005443573 0.01864624 -0.35717773 0 0 0 0
0.0070800781 0.018554688 -0.35522461 0 0 0 0
0.0087432861 0.018554688 -0.35522461 0 0 0 0
0.010383606 0.018493652 -0.35424805 0 0 0 0
0.012008667 0.018447876 -0.35327148 0 0 0 0
0.013671875 0.018447876 -0.35327148 0 0 0 0
0.015281677 0.018386841 -0.35229492 0 0 0 0
0.016937256 0.018386841 -0.35229492 0 0 0 0
0.01852417 0.018341064 -0.35131836 0 0 0 0
0.020172119 0.018341064 -0.35131836 0 0 0 0
0.021820068 0.018341064 -0.35131836 0 0 0 0
0.023468018 0.018341064 -0.35131836 0 0 0 0
0.032958984 0.019073486 -0.36523438 0 0 0 0
0.034606934 0.01902771 -0.36425781 0 0 0 0
0.036407471 0.019073486 -0.36523438 0 0 0 0
0.038208008 0.019119263 -0.36621094 0 0 0 0
0.040039062 0.019180298 -0.36743164 0 0 0 0
0.041778564 0.019180298 -0.36743164 0 0 0 0
0.043609619 0.019226074 -0.3684082 0 0 0 0
0.045471191 0.019287109 -0.36938477 0 0 0 0
0.069580078 0.017913818 -0.34326172 0 0 0 0
0.070983887 0.017868042 -0.34228516 0 0 0 0
0.072387695 0.017822266 -0.34130859 0 0 0 0
0.073974609 0.017822266 -0.34130859 0 0 0 0
0.075378418 0.01776123 -0.34008789 0 0 0 0
0.076965332 0.01776123 -0.34008789 0 0 0 0
0.078552246 0.01776123 -0.34008789 0 0 0 0
0.08013916 0.01776123 -0.34008789 0 0 0 0
0.081787109 0.01776123 -0.34008789 0 0 0 0
0.083374023 0.01776123 -0.34008789 0 0 0 0
0.084960938 0.01776123 -0.34008789 0 0 0 0
0.086547852 0.01776123 -0.34008789 0 0 0 0
0.088134766 0.01776123 -0.34008789 0 0 0 0
0.08972168 0.01776123 -0.34008789 0 0 0 0
0.091369629 0.01776123 -0.34008789 0 0 0 0
0.093200684 0.017822266 -0.34130859 0 0 0 0
0.094787598 0.017822266 -0.34130859 0 0 0 0
0.096435547 0.017822266 -0.34130859 0 0 0 0
0.098327637 0.017868042 -0.34228516 0 0 0 0
0.099914551 0.017868042 -0.34228516 0 0 0 0
0.10150146 0.017868042 -0.34228516 0 0 0 0
0.10308838 0.017868042 -0.34228516 0 0 0 0
0.1050415 0.017913818 -0.34326172 0 0 0 0
0.10662842 0.017913818 -0.34326172 0 0 0 0
0.10827637 0.017913818 -0.34326172 0 0 0 0
0.11016846 0.017974854 -0.34423828 0 0 0 0
0.11181641 0.017974854 -0.34423828 0 0 0 0
0.11340332 0.017974854 -0.34423828 0 0 0 0
0.11535645 0.01802063 -0.34521484 0 0 0 0
0.11700439 0.01802063 -0.34521484 0 0 0 0
0.11859131 0.01802063 -0.34521484 0 0 0 0
0.12023926 0.01802063 -0.34521484 0 0 0 0
0.12219238 0.018081665 -0.34619141 0 0 0 0
0.12384033 0.018081665 -0.34619141 0 0 0 0
0.12536621 0.018081665 -0.34619141 0 0 0 0
0.1270752 0.018081665 -0.34619141 0 0 0 0
0.12902832 0.018127441 -0.34716797 0 0 0 0
0.13061523 0.018127441 -0.34716797 0 0 0 0
0.13232422 0.018127441 -0.34716797 0 0 0 0
0.13427734 0.018188477 -0.34814453 0 0 0 0
0.13598633 0.018188477 -0.34814453 0 0 0 0
0.13757324 0.018188477 -0.34814453 0 0 0 0
0.13964844 0.018234253 -0.34912109 0 0 0 0
0.14123535 0.018234253 -0.34912109 0 0 0 0
0.14294434 0.018234253 -0.34912109 0 0 0 0
0.14489746 0.018280029 -0.3503418 0 0 0 0
0.14660645 0.018280029 -0.3503418 0 0 0 0
0.14819336 0.018280029 -0.3503418 0 0 0 0
0.14990234 0.018280029 -0.3503418 0 0 0 0
0.15148926 0.018280029 -0.3503418 0 0 0 0
0.15356445 0.018341064 -0.35131836 0 0 0 0
0.15527344 0.018341064 -0.35131836 0 0 0 0
0.15686035 0.018341064 -0.35131836 0 0 0 0
0.15856934 0.018341064 -0.35131836 0 0 0 0
0.16064453 0.018386841 -0.35229492 0 0 0 0
0.16235352 0.018386841 -0.35229492 0 0 0 0
0.16394043 0.018386841 -0.35229492 0 0 0 0
0.16564941 0.018386841 -0.35229492 0 0 0 0
0.16723633 0.018386841 -0.35229492 0 0 0 0
0.16943359 0.018447876 -0.35327148 0 0 0 0
0.17102051 0.018447876 -0.35327148 0 0 0 0
0.17272949 0.018447876 -0.35327148 0 0 0 0
0.17431641 0.018447876 -0.35327148 0 0 0 0
-0.0081787109 0.017456055 -0.36743164 0 0 0 0
-0.0064430237 0.017410278 -0.36621094 0 0 0 0
-0.0047111511 0.017364502 -0.36523438 0 0 0 0
-0.0029888153 0.017318726 -0.36425781 0 0 0 0
-0.0012741089 0.017211914 -0.36230469 0 0 0 0
0.00042390823 0.017166138 -0.36132812 0 0 0 0
0.0021057129 0.017074585 -0.359375 0 0 0 0
0.003780365 0.017028809 -0.35839844 0 0 0 0
0.0054283142 0.016937256 -0.35620117 0 0 0 0
0.0070800781 0.016876221 -0.35522461 0 0 0 0
0.0087203979 0.016830444 -0.35424805 0 0 0 0
0.010383606 0.016830444 -0.35424805 0 0 0 0
0.012008667 0.016784668 -0.35327148 0 0 0 0
0.013626099 0.016738892 -0.35229492 0 0 0 0
0.015281677 0.016738892 -0.35229492 0 0 0 0
0.016937256 0.016738892 -0.35229492 0 0 0 0
0.01852417 0.016693115 -0.35131836 0 0 0 0
0.020172119 0.016693115 -0.35131836 0 0 0 0
0.021820068 0.016693115 -0.35131836 0 0 0 0
0.023468018 0.016693115 -0.35131836 0 0 0 0
0.025115967 0.016693115 -0.35131836 0 0 0 0
0.032714844 0.017211914 -0.36230469 0 0 0 0
0.034484863 0.01725769 -0.36328125 0 0 0 0
0.036315918 0.017318726 -0.36425781 0 0 0 0
0.038116455 0.017364502 -0.36523438 0 0 0 0
0.03994751 0.017410278 -0.36621094 0 0 0 0
0.041778564 0.017456055 -0.36743164 0 0 0 0
0.043609619 0.017501831 -0.3684082 0 0 0 0
0.045349121 0.017501831 -0.3684082 0 0 0 0
0.067993164 0.016311646 -0.34326172 0 0 0 0
0.069396973 0.016265869 -0.34228516 0 0 0 0
0.070983887 0.016265869 -0.34228516 0 0 0 0
0.072387695 0.016220093 -0.34130859 0 0 0 0
0.073974609 0.016220093 -0.34130859 0 0 0 0
0.075378418 0.016159058 -0.34008789 0 0 0 0
0.076965332 0.016159058 -0.34008789 0 0 0 0
0.078552246 0.016159058 -0.34008789 0 0 0 0
0.08013916 0.016159058 -0.34008789 0 0 0 0
0.081542969 0.016113281 -0.33911133 0 0 0 0
0.083374023 0.016159058 -0.34008789 0 0 0 0
0.084960938 0.016159058 -0.34008789 0 0 0 0
0.086547852 0.016159058 -0.34008789 0 0 0 0
0.088134766 0.016159058 -0.34008789 0 0 0 0
0.08972168 0.016159058 -0.34008789 0 0 0 0
0.09161377 0.016220093 -0.34130859 0 0 0 0
0.093200684 0.016220093 -0.34130859 0 0 0 0
0.094787598 0.016220093 -0.34130859 0 0 0 0
0.096435547 0.016220093 -0.34130859 0 0 0 0
0.098327637 0.016265869 -0.34228516 0 0 0 0
0.099914551 0.016265869 -0.34228516 0 0 0 0
0.10150146 0.016265869 -0.34228516 0 0 0 0
0.10339355 0.016311646 -0.34326172 0 0 0 0
0.1050415 0.016311646 -0.34326172 0 0 0 0
0.10662842 0.016311646 -0.34326172 0 0 0 0
0.10827637 0.016311646 -0.34326172 0 0 0 0
0.11016846 0.016357422 -0.34423828 0 0 0 0
0.11181641 0.016357422 -0.34423828 0 0 0 0
0.11340332 0.016357422 -0.34423828 0 0 0 0
0.11535645 0.016403198 -0.34521484 0 0 0 0
0.11700439 0.016403198 -0.34521484 0 0 0 0
0.11859131 0.016403198 -0.34521484 0 0 0 0
0.12023926 0.016403198 -0.34521484 0 0 0 0
0.12219238 0.016448975 -0.34619141 0 0 0 0
0.12384033 0.016448975 -0.34619141 0 0 0 0
0.12536621 0.016448975 -0.34619141 0 0 0 0
0.12744141 0.016494751 -0.34716797 0 0 0 0
0.12902832 0.016494751 -0.34716797 0 0 0 0
0.13061523 0.016494751 -0.34716797 0 0 0 0
0.13269043 0.016555786 -0.34814453 0 0 0 0
0.13427734 0.016555786 -0.34814453 0 0 0 0
0.13598633 0.016555786 -0.34814453 0 0 0 0
0.13793945 0.016601562 -0.34912109 0 0 0 0
0.13964844 0.016601562 -0.34912109 0 0 0 0
0.14123535 0.016601562 -0.34912109 0 0 0 0
0.14331055 0.016647339 -0.3503418 0 0 0 0
0.14489746 0.016647339 -0.3503418 0 0 0 0
0.14660645 0.016647339 -0.3503418 0 0 0 0
0.14819336 0.016647339 -0.3503418 0 0 0 0
0.14990234 0.016647339 -0.3503418 0 0 0 0
0.15148926 0.016647339 -0.3503418 0 0 0 0
0.15356445 0.016693115 -0.35131836 0 0 0 0
0.15527344 0.016693115 -0.35131836 0 0 0 0
0.15686035 0.016693115 -0.35131836 0 0 0 0
0.15856934 0.016693115 -0.35131836 0 0 0 0
0.16064453 0.016738892 -0.35229492 0 0 0 0
0.16235352 0.016738892 -0.35229492 0 0 0 0
0.16394043 0.016738892 -0.35229492 0 0 0 0
0.16564941 0.016738892 -0.35229492 0 0 0 0
0.16723633 0.016738892 -0.35229492 0 0 0 0
0.16943359 0.016784668 -0.35327148 0 0 0 0
0.17102051 0.016784668 -0.35327148 0 0 0 0
0.17272949 0.016784668 -0.35327148 0 0 0 0
0.17431641 0.016784668 -0.35327148 0 0 0 0
-0.0081787109 0.015731812 -0.36743164 0 0 0 0
-0.0064430237 0.015686035 -0.36621094 0 0 0 0
-0.0047111511 0.015640259 -0.36523438 0 0 0 0
-0.0029888153 0.015609741 -0.36425781 0 0 0 0
-0.0012741089 0.015518188 -0.36230469 0 0 0 0
0.00042390823 0.015480042 -0.36132812 0 0 0 0
0.0021057129 0.015388489 -0.359375 0 0 0 0
0.003780365 0.015350342 -0.35839844 0 0 0 0
0.0054283142 0.015258789 -0.35620117 0 0 0 0
0.0070800781 0.015220642 -0.35522461 0 0 0 0
0.0087203979 0.015174866 -0.35424805 0 0 0 0
0.010353088 0.015136719 -0.35327148 0 0 0 0
0.012008667 0.015136719 -0.35327148 0 0 0 0
0.013626099 0.015090942 -0.35229492 0 0 0 0
0.015281677 0.015090942 -0.35229492 0 0 0 0
0.016937256 0.015090942 -0.35229492 0 0 0 0
0.01852417 0.015045166 -0.35131836 0 0 0 0
0.020172119 0.015045166 -0.35131836 0 0 0 0
0.021820068 0.015045166 -0.35131836 0 0 0 0
0.023468018 0.015045166 -0.35131836 0 0 0 0
0.025192261 0.015090942 -0.35229492 0 0 0 0
0.026916504 0.015136719 -0.35327148 0 0 0 0
0.028747559 0.015220642 -0.35522461 0 0 0 0
0.030578613 0.015304565 -0.35717773 0 0 0 0
0.032440186 0.015388489 -0.359375 0 0 0 0
0.034301758 0.015480042 -0.36132812 0 0 0 0
0.036193848 0.015563965 -0.36328125 0 0 0 0
0.038024902 0.015609741 -0.36425781 0 0 0 0
0.039825439 0.015640259 -0.36523438 0 0 0 0
0.041656494 0.015686035 -0.36621094 0 0 0 0
0.043487549 0.015731812 -0.36743164 0 0 0 0
0.045349121 0.015777588 -0.3684082 0 0 0 0
0.067993164 0.014701843 -0.34326172 0 0 0 0
0.069396973 0.014663696 -0.34228516 0 0 0 0
0.070983887 0.014663696 -0.34228516 0 0 0 0
0.072387695 0.01461792 -0.34130859 0 0 0 0
0.073791504 0.014572144 -0.34008789 0 0 0 0
0.075378418 0.014572144 -0.34008789 0 0 0 0
0.076965332 0.014572144 -0.34008789 0 0 0 0
0.078552246 0.014572144 -0.34008789 0 0 0 0
0.079956055 0.014533997 -0.33911133 0 0 0 0
0.081542969 0.014533997 -0.33911133 0 0 0 0
0.083374023 0.014572144 -0.34008789 0 0 0 0
0.084960938 0.014572144 -0.34008789 0 0 0 0
0.086547852 0.014572144 -0.34008789 0 0 0 0
0.088134766 0.014572144 -0.34008789 0 0 0 0
0.08972168 0.014572144 -0.34008789 0 0 0 0
0.09161377 0.01461792 -0.34130859 0 0 0 0
0.093200684 0.01461792 -0.34130859 0 0 0 0
0.094787598 0.01461792 -0.34130859 0 0 0 0
0.096435547 0.01461792 -0.34130859 0 0 0 0
0.098327637 0.014663696 -0.34228516 0 0 0 0
0.099914551 0.014663696 -0.34228516 0 0 0 0
0.10150146 0.014663696 -0.34228516 0 0 0 0
0.10339355 0.014701843 -0.34326172 0 0 0 0
0.1050415 0.014701843 -0.34326172 0 0 0 0
0.10662842 0.014701843 -0.34326172 0 0 0 0
0.10827637 0.014701843 -0.34326172 0 0 0 0
0.11016846 0.01474762 -0.34423828 0 0 0 0
0.11181641 0.01474762 -0.34423828 0 0 0 0
0.11340332 0.01474762 -0.34423828 0 0 0 0
0.11535645 0.014785767 -0.34521484 0 0 0 0
0.11700439 0.014785767 -0.34521484 0 0 0 0
0.11859131 0.014785767 -0.34521484 0 0 0 0
0.12023926 0.014785767 -0.34521484 0 0 0 0
0.12219238 0.014831543 -0.34619141 0 0 0 0
0.12384033 0.014831543 -0.34619141 0 0 0 0
0.12536621 0.014831543 -0.34619141 0 0 0 0
0.12744141 0.014877319 -0.34716797 0 0 0 0
0.12902832 0.014877319 -0.34716797 0 0 0 0
0.13061523 0.014877319 -0.34716797 0 0 0 0
0.13269043 0.014915466 -0.34814453 0 0 0 0
0.13427734 0.014915466 -0.34814453 0 0 0 0
0.13598633 0.014915466 -0.34814453 0 0 0 0
0.13793945 0.014961243 -0.34912109 0 0 0 0
0.13964844 0.014961243 -0.34912109 0 0 0 0
0.14123535 0.014961243 -0.34912109 0 0 0 0
0.14331055 0.015007019 -0.3503418 0 0 0 0
0.14489746 0.015007019 -0.3503418 0 0 0 0
0.14660645 0.015007019 -0.3503418 0 0 0 0
0.14819336 0.015007019 -0.3503418 0 0 0 0
0.14990234 0.015007019 -0.3503418 0 0 0 0
0.15197754 0.015045166 -0.35131836 0 0 0 0
0.15356445 0.015045166 -0.35131836 0 0 0 0
0.15527344 0.015045166 -0.35131836 0 0 0 0
0.15686035 0.015045166 -0.35131836 0 0 0 0
0.15856934 0.015045166 -0.35131836 0 0 0 0
0.16064453 0.015090942 -0.35229492 0 0 0 0
0.16235352 0.015090942 -0.35229492 0 0 0 0
0.16394043 0.015090942 -0.35229492 0 0 0 0
0.16564941 0.015090942 -0.35229492 0 0 0 0
0.16772461 0.015136719 -0.35327148 0 0 0 0
0.16943359 0.015136719 -0.35327148 0 0 0 0
0.17102051 0.015136719 -0.35327148 0 0 0 0
0.17272949 0.015136719 -0.35327148 0 0 0 0
-0.0081787109 0.014015198 -0.36743164 0 0 0 0
-0.0064430237 0.013977051 -0.36621094 0 0 0 0
-0.0047111511 0.013938904 -0.36523438 0 0 0 0
-0.0029888153 0.013900757 -0.36425781 0 0 0 0
-0.0012741089 0.013824463 -0.36230469 0 0 0 0
0.00042390823 0.013786316 -0.36132812 0 0 0 0
0.0021057129 0.013702393 -0.359375 0 0 0 0
0.003780365 0.013664246 -0.35839844 0 0 0 0
0.0054283142 0.013587952 -0.35620117 0 0 0 0
0.0070800781 0.013549805 -0.35522461 0 0 0 0
0.0087203979 0.013511658 -0.35424805 0 0 0 0
0.010353088 0.013473511 -0.35327148 0 0 0 0
0.012008667 0.013473511 -0.35327148 0 0 0 0
0.013626099 0.013435364 -0.35229492 0 0 0 0
0.015281677 0.013435364 -0.35229492 0 0 0 0
0.016876221 0.013397217 -0.35131836 0 0 0 0
0.01852417 0.013397217 -0.35131836 0 0 0 0
0.020172119 0.013397217 -0.35131836 0 0 0 0
0.021820068 0.013397217 -0.35131836 0 0 0 0
0.023468018 0.013397217 -0.35131836 0 0 0 0
0.025192261 0.013435364 -0.35229492 0 0 0 0
0.026916504 0.013473511 -0.35327148 0 0 0 0
0.028747559 0.013549805 -0.35522461 0 0 0 0
0.030487061 0.013587952 -0.35620117 0 0 0 0
0.032348633 0.013664246 -0.35839844 0 0 0 0
0.034210205 0.01374054 -0.36035156 0 0 0 0
0.036010742 0.013786316 -0.36132812 0 0 0 0
0.037902832 0.01386261 -0.36328125 0 0 0 0
0.039733887 0.013900757 -0.36425781 0 0 0 0
0.041534424 0.013938904 -0.36523438 0 0 0 0
0.043365479 0.013977051 -0.36621094 0 0 0 0
0.045227051 0.014015198 -0.36743164 0 0 0 0
0.06640625 0.013092041 -0.34326172 0 0 0 0
0.067810059 0.013053894 -0.34228516 0 0 0 0
0.069396973 0.013053894 -0.34228516 0 0 0 0
0.070800781 0.013015747 -0.34130859 0 0 0 0
0.072387695 0.013015747 -0.34130859 0 0 0 0
0.073791504 0.0129776 -0.34008789 0 0 0 0
0.075378418 0.0129776 -0.34008789 0 0 0 0
0.076965332 0.0129776 -0.34008789 0 0 0 0
0.078552246 0.0129776 -0.34008789 0 0 0 0
0.079956055 0.012939453 -0.33911133 0 0 0 0
0.081787109 0.0129776 -0.34008789 0 0 0 0
0.083374023 0.0129776 -0.34008789 0 0 0 0
0.084960938 0.0129776 -0.34008789 0 0 0 0
0.086547852 0.0129776 -0.34008789 0 0 0 0
0.088134766 0.0129776 -0.34008789 0 0 0 0
0.090026855 0.013015747 -0.34130859 0 0 0 0
0.09161377 0.013015747 -0.34130859 0 0 0 0
0.093200684 0.013015747 -0.34130859 0 0 0 0
0.094787598 0.013015747 -0.34130859 0 0 0 0
0.096435547 0.013015747 -0.34130859 0 0 0 0
0.098327637 0.013053894 -0.34228516 0 0 0 0
0.099914551 0.013053894 -0.34228516 0 0 0 0
0.10150146 0.013053894 -0.34228516 0 0 0 0
0.10339355 0.013092041 -0.34326172 0 0 0 0
0.1050415 0.013092041 -0.34326172 0 0 0 0
0.10662842 0.013092041 -0.34326172 0 0 0 0
0.10827637 0.013092041 -0.34326172 0 0 0 0
0.11016846 0.013130188 -0.34423828 0 0 0 0
0.11181641 0.013130188 -0.34423828 0 0 0 0
0.11340332 0.013130188 -0.34423828 0 0 0 0
0.11535645 0.013168335 -0.34521484 0 0 0 0
0.11700439 0.013168335 -0.34521484 0 0 0 0
0.11859131 0.013168335 -0.34521484 0 0 0 0
0.12054443 0.013206482 -0.34619141 0 0 0 0
0.12219238 0.013206482 -0.34619141 0 0 0 0
0.12384033 0.013206482 -0.34619141 0 0 0 0
0.12536621 0.013206482 -0.34619141 0 0 0 0
0.12744141 0.013244629 -0.34716797 0 0 0 0
0.12902832 0.013244629 -0.34716797 0 0 0 0
0.13061523 0.013244629 -0.34716797 0 0 0 0
0.13269043 0.013282776 -0.34814453 0 0 0 0
0.13427734 0.013282776 -0.34814453 0 0 0 0
0.13598633 0.013282776 -0.34814453 0 0 0 0
0.13793945 0.013320923 -0.34912109 0 0 0 0
0.13964844 0.013320923 -0.34912109 0 0 0 0
0.14123535 0.013320923 -0.34912109 0 0 0 0
0.14331055 0.01335907 -0.3503418 0 0 0 0
0.14489746 0.01335907 -0.3503418 0 0 0 0
0.14660645 0.01335907 -0.3503418 0 0 0 0
0.14819336 0.01335907 -0.3503418 0 0 0 0
0.14990234 0.01335907 -0.3503418 0 0 0 0
0.15197754 0.013397217 -0.35131836 0 0 0 0
0.15356445 0.013397217 -0.35131836 0 0 0 0
0.15527344 0.013397217 -0.35131836 0 0 0 0
0.15686035 0.013397217 -0.35131836 0 0 0 0
0.15893555 0.013435364 -0.35229492 0 0 0 0
0.16064453 0.013435364 -0.35229492 0 0 0 0
0.16235352 0.013435364 -0.35229492 0 0 0 0
0.16394043 0.013435364 -0.35229492 0 0 0 0
0.16601562 0.013473511 -0.35327148 0 0 0 0
0.16772461 0.013473511 -0.35327148 0 0 0 0
0.16943359 0.013473511 -0.35327148 0 0 0 0
0.17102051 0.013473511 -0.35327148 0 0 0 0
0.17272949 0.013473511 -0.35327148 0 0 0 0
-0.0064430237 0.012252808 -0.36621094 0 0 0 0
-0.0046958923 0.012191772 -0.36425781 0 0 0 0
-0.0029811859 0.012153625 -0.36328125 0 0 0 0
-0.0012741089 0.012123108 -0.36230469 0 0 0 0
0.00042271614 0.012054443 -0.36035156 0 0 0 0
0.0021057129 0.012023926 -0.359375 0 0 0 0
0.0037708282 0.011955261 -0.35717773 0 0 0 0
0.0054283142 0.011917114 -0.35620117 0 0 0 0
0.0070800781 0.011886597 -0.35522461 0 0 0 0
0.0087203979 0.011856079 -0.35424805 0 0 0 0
0.010353088 0.011817932 -0.35327148 0 0 0 0
0.011978149 0.011787415 -0.35229492 0 0 0 0
0.013626099 0.011787415 -0.35229492 0 0 0 0
0.015235901 0.011749268 -0.35131836 0 0 0 0
0.016876221 0.011749268 -0.35131836 0 0 0 0
0.01852417 0.011749268 -0.35131836 0 0 0 0
0.020172119 0.011749268 -0.35131836 0 0 0 0
0.021820068 0.011749268 -0.35131836 0 0 0 0
0.023468018 0.011749268 -0.35131836 0 0 0 0
0.025192261 0.011787415 -0.35229492 0 0 0 0
0.026916504 0.011817932 -0.35327148 0 0 0 0
0.028656006 0.011856079 -0.35424805 0 0 0 0
0.030487061 0.011917114 -0.35620117 0 0 0 0
0.03225708 0.011955261 -0.35717773 0 0 0 0
0.034118652 0.012023926 -0.359375 0 0 0 0
0.035888672 0.012054443 -0.36035156 0 0 0 0
0.037811279 0.012123108 -0.36230469 0 0 0 0
0.039611816 0.012153625 -0.36328125 0 0 0 0
0.041442871 0.012191772 -0.36425781 0 0 0 0
0.043243408 0.01222229 -0.36523438 0 0 0 0
0.04510498 0.012252808 -0.36621094 0 0 0 0
0.065734863 0.011650085 -0.34814453 0 0 0 0
0.066772461 0.011550903 -0.34521484 0 0 0 0
0.067810059 0.011451721 -0.34228516 0 0 0 0
0.069396973 0.011451721 -0.34228516 0 0 0 0
0.070800781 0.011413574 -0.34130859 0 0 0 0
0.072387695 0.011413574 -0.34130859 0 0 0 0
0.073791504 0.011383057 -0.34008789 0 0 0 0
0.075378418 0.011383057 -0.34008789 0 0 0 0
0.076965332 0.011383057 -0.34008789 0 0 0 0
0.078552246 0.011383057 -0.34008789 0 0 0 0
0.079956055 0.011352539 -0.33911133 0 0 0 0
0.081787109 0.011383057 -0.34008789 0 0 0 0
0.083374023 0.011383057 -0.34008789 0 0 0 0
0.084960938 0.011383057 -0.34008789 0 0 0 0
0.086547852 0.011383057 -0.34008789 0 0 0 0
0.088134766 0.011383057 -0.34008789 0 0 0 0
0.090026855 0.011413574 -0.34130859 0 0 0 0
0.09161377 0.011413574 -0.34130859 0 0 0 0
0.093200684 0.011413574 -0.34130859 0 0 0 0
0.094787598 0.011413574 -0.34130859 0 0 0 0
0.096679688 0.011451721 -0.34228516 0 0 0 0
0.098327637 0.011451721 -0.34228516 0 0 0 0
0.099914551 0.011451721 -0.34228516 0 0 0 0
0.10150146 0.011451721 -0.34228516 0 0 0 0
0.10339355 0.011482239 -0.34326172 0 0 0 0
0.1050415 0.011482239 -0.34326172 0 0 0 0
0.10662842 0.011482239 -0.34326172 0 0 0 0
0.10827637 0.011482239 -0.34326172 0 0 0 0
0.11016846 0.011520386 -0.34423828 0 0 0 0
0.11181641 0.011520386 -0.34423828 0 0 0 0
0.11340332 0.011520386 -0.34423828 0 0 0 0
0.11535645 0.011550903 -0.34521484 0 0 0 0
0.11700439 0.011550903 -0.34521484 0 0 0 0
0.11859131 0.011550903 -0.34521484 0 0 0 0
0.12054443 0.011581421 -0.34619141 0 0 0 0
0.12219238 0.011581421 -0.34619141 0 0 0 0
0.12384033 0.011581421 -0.34619141 0 0 0 0
0.12536621 0.011581421 -0.34619141 0 0 0 0
0.12744141 0.011619568 -0.34716797 0 0 0 0
0.12902832 0.011619568 -0.34716797 0 0 0 0
0.13061523 0.011619568 -0.34716797 0 0 0 0
0.13269043 0.011650085 -0.34814453 0 0 0 0
0.13427734 0.011650085 -0.34814453 0 0 0 0
0.13598633 0.011650085 -0.34814453 0 0 0 0
0.13793945 0.011688232 -0.34912109 0 0 0 0
0.13964844 0.011688232 -0.34912109 0 0 0 0
0.14123535 0.011688232 -0.34912109 0 0 0 0
0.14331055 0.01171875 -0.3503418 0 0 0 0
0.14489746 0.01171875 -0.3503418 0 0 0 0
0.14660645 0.01171875 -0.3503418 0 0 0 0
0.14819336 0.01171875 -0.3503418 0 0 0 0
0.15026855 0.011749268 -0.35131836 0 0 0 0
0.15197754 0.011749268 -0.35131836 0 0 0 0
0.15356445 0.011749268 -0.35131836 0 0 0 0
0.15527344 0.011749268 -0.35131836 0 0 0 0
0.15686035 0.011749268 -0.35131836 0 0 0 0
0.15893555 0.011787415 -0.35229492 0 0 0 0
0.16064453 0.011787415 -0.35229492 0 0 0 0
0.16235352 0.011787415 -0.35229492 0 0 0 0
0.16394043 0.011787415 -0.35229492 0 0 0 0
0.16601562 0.011817932 -0.35327148 0 0 0 0
0.16772461 0.011817932 -0.35327148 0 0 0 0
0.16943359 0.011817932 -0.35327148 0 0 0 0
0.17102051 0.011817932 -0.35327148 0 0 0 0
-0.0064239502 0.010505676 -0.36523438 0 0 0 0
-0.0046958923 0.010482788 -0.36425781 0 0 0 0
-0.0029811859 0.010452271 -0.36328125 0 0 0 0
-0.0012702942 0.010391235 -0.36132812 0 0 0 0
0.00042271614 0.010360718 -0.36035156 0 0 0 0
0.0021057129 0.01033783 -0.359375 0 0 0 0
0.0037708282 0.010276794 -0.35717773 0 0 0 0
0.0054283142 0.010246277 -0.35620117 0 0 0 0
0.0070800781 0.010223389 -0.35522461 0 0 0 0
0.0087203979 0.010192871 -0.35424805 0 0 0 0
0.010353088 0.010162354 -0.35327148 0 0 0 0
0.011978149 0.010131836 -0.35229492 0 0 0 0
0.013626099 0.010131836 -0.35229492 0 0 0 0
0.015235901 0.010101318 -0.35131836 0 0 0 0
0.016876221 0.010101318 -0.35131836 0 0 0 0
0.01852417 0.010101318 -0.35131836 0 0 0 0
0.020172119 0.010101318 -0.35131836 0 0 0 0
0.021820068 0.010101318 -0.35131836 0 0 0 0
0.023468018 0.010101318 -0.35131836 0 0 0 0
0.025192261 0.010131836 -0.35229492 0 0 0 0
0.026916504 0.010162354 -0.35327148 0 0 0 0
0.028656006 0.010192871 -0.35424805 0 0 0 0
0.030410767 0.010223389 -0.35522461 0 0 0 0
0.03225708 0.010276794 -0.35717773 0 0 0 0
0.0340271 0.010307312 -0.35839844 0 0 0 0
0.035888672 0.010360718 -0.36035156 0 0 0 0
0.037689209 0.010391235 -0.36132812 0 0 0 0
0.039489746 0.010421753 -0.36230469 0 0 0 0
0.041320801 0.010452271 -0.36328125 0 0 0 0
0.043151855 0.010482788 -0.36425781 0 0 0 0
0.04498291 0.010505676 -0.36523438 0 0 0 0
0.064758301 0.0098724365 -0.34326172 0 0 0 0
0.066589355 0.0099029541 -0.34423828 0 0 0 0
0.067993164 0.0098724365 -0.34326172 0 0 0 0
0.069396973 0.0098419189 -0.34228516 0 0 0 0
0.070800781 0.0098190308 -0.34130859 0 0 0 0
0.07220459 0.0097885132 -0.34008789 0 0 0 0
0.073791504 0.0097885132 -0.34008789 0 0 0 0
0.075378418 0.0097885132 -0.34008789 0 0 0 0
0.076965332 0.0097885132 -0.34008789 0 0 0 0
0.078369141 0.0097579956 -0.33911133 0 0 0 0
0.08013916 0.0097885132 -0.34008789 0 0 0 0
0.081787109 0.0097885132 -0.34008789 0 0 0 0
0.083374023 0.0097885132 -0.34008789 0 0 0 0
0.084960938 0.0097885132 -0.34008789 0 0 0 0
0.086547852 0.0097885132 -0.34008789 0 0 0 0
0.088134766 0.0097885132 -0.34008789 0 0 0 0
0.090026855 0.0098190308 -0.34130859 0 0 0 0
0.09161377 0.0098190308 -0.34130859 0 0 0 0
0.093200684 0.0098190308 -0.34130859 0 0 0 0
0.094787598 0.0098190308 -0.34130859 0 0 0 0
0.096679688 0.0098419189 -0.34228516 0 0 0 0
0.098327637 0.0098419189 -0.34228516 0 0 0 0
0.099914551 0.0098419189 -0.34228516 0 0 0 0
0.10150146 0.0098419189 -0.34228516 0 0 0 0
0.10339355 0.0098724365 -0.34326172 0 0 0 0
0.1050415 0.0098724365 -0.34326172 0 0 0 0
0.10662842 0.0098724365 -0.34326172 0 0 0 0
0.10827637 0.0098724365 -0.34326172 0 0 0 0
0.11016846 0.0099029541 -0.34423828 0 0 0 0
0.11181641 0.0099029541 -0.34423828 0 0 0 0
0.11340332 0.0099029541 -0.34423828 0 0 0 0
0.11535645 0.0099334717 -0.34521484 0 0 0 0
0.11700439 0.0099334717 -0.34521484 0 0 0 0
0.11859131 0.0099334717 -0.34521484 0 0 0 0
0.12054443 0.0099563599 -0.34619141 0 0 0 0
0.12219238 0.0099563599 -0.34619141 0 0 0 0
0.12384033 0.0099563599 -0.34619141 0 0 0 0
0.12536621 0.0099563599 -0.34619141 0 0 0 0
0.12744141 0.0099868774 -0.34716797 0 0 0 0
0.12902832 0.0099868774 -0.34716797 0 0 0 0
0.13061523 0.0099868774 -0.34716797 0 0 0 0
0.13269043 0.010017395 -0.34814453 0 0 0 0
0.13427734 0.010017395 -0.34814453 0 0 0 0
0.13598633 0.010017395 -0.34814453 0 0 0 0
0.13793945 0.010047913 -0.34912109 0 0 0 0
0.13964844 0.010047913 -0.34912109 0 0 0 0
0.14123535 0.010047913 -0.34912109 0 0 0 0
0.14331055 0.01007843 -0.3503418 0 0 0 0
0.14489746 0.01007843 -0.3503418 0 0 0 0
0.14660645 0.01007843 -0.3503418 0 0 0 0
0.14868164 0.010101318 -0.35131836 0 0 0 0
0.15026855 0.010101318 -0.35131836 0 0 0 0
0.15197754 0.010101318 -0.35131836 0 0 0 0
0.15356445 0.010101318 -0.35131836 0 0 0 0
0.15527344 0.010101318 -0.35131836 0 0 0 0
0.15734863 0.010131836 -0.35229492 0 0 0 0
0.15893555 0.010131836 -0.35229492 0 0 0 0
0.16064453 0.010131836 -0.35229492 0 0 0 0
0.16235352 0.010131836 -0.35229492 0 0 0 0
0.16442871 0.010162354 -0.35327148 0 0 0 0
0.16601562 0.010162354 -0.35327148 0 0 0 0
0.16772461 0.010162354 -0.35327148 0 0 0 0
0.16943359 0.010162354 -0.35327148 0 0 0 0
0.17102051 0.010162354 -0.35327148 0 0 0 0
-0.0046844482 0.0087432861 -0.36328125 0 0 0 0
-0.0029735565 0.0087203979 -0.36230469 0 0 0 0
-0.0012702942 0.0086975098 -0.36132812 0 0 0 0
0.00042271614 0.0086746216 -0.36035156 0 0 0 0
0.0020999908 0.0086288452 -0.35839844 0 0 0 0
0.0037708282 0.0085983276 -0.35717773 0 0 0 0
0.0054283142 0.0085754395 -0.35620117 0 0 0 0
0.0070800781 0.0085525513 -0.35522461 0 0 0 0
0.0087203979 0.0085296631 -0.35424805 0 0 0 0
0.010353088 0.0085067749 -0.35327148 0 0 0 0
0.011978149 0.0084838867 -0.35229492 0 0 0 0
0.013626099 0.0084838867 -0.35229492 0 0 0 0
0.015235901 0.0084533691 -0.35131836 0 0 0 0
0.016876221 0.0084533691 -0.35131836 0 0 0 0
0.01852417 0.0084533691 -0.35131836 0 0 0 0
0.020172119 0.0084533691 -0.35131836 0 0 0 0
0.021820068 0.0084533691 -0.35131836 0 0 0 0
0.023468018 0.0084533691 -0.35131836 0 0 0 0
0.025192261 0.0084838867 -0.35229492 0 0 0 0
0.026916504 0.0085067749 -0.35327148 0 0 0 0
0.028656006 0.0085296631 -0.35424805 0 0 0 0
0.030410767 0.0085525513 -0.35522461 0 0 0 0
0.032165527 0.0085754395 -0.35620117 0 0 0 0
0.0340271 0.0086288452 -0.35839844 0 0 0 0
0.035797119 0.0086517334 -0.359375 0 0 0 0
0.037597656 0.0086746216 -0.36035156 0 0 0 0
0.039398193 0.0086975098 -0.36132812 0 0 0 0
0.04119873 0.0087203979 -0.36230469 0 0 0 0
0.043029785 0.0087432861 -0.36328125 0 0 0 0
0.04486084 0.0087738037 -0.36425781 0 0 0 0
0.064758301 0.0082626343 -0.34326172 0 0 0 0
0.06640625 0.0082626343 -0.34326172 0 0 0 0
0.067810059 0.0082397461 -0.34228516 0 0 0 0
0.069213867 0.0082168579 -0.34130859 0 0 0 0
0.070800781 0.0082168579 -0.34130859 0 0 0 0
0.07220459 0.0081939697 -0.34008789 0 0 0 0
0.073791504 0.0081939697 -0.34008789 0 0 0 0
0.075378418 0.0081939697 -0.34008789 0 0 0 0
0.076965332 0.0081939697 -0.34008789 0 0 0 0
0.078369141 0.0081634521 -0.33911133 0 0 0 0
0.08013916 0.0081939697 -0.34008789 0 0 0 0
0.081787109 0.0081939697 -0.34008789 0 0 0 0
0.083374023 0.0081939697 -0.34008789 0 0 0 0
0.084960938 0.0081939697 -0.34008789 0 0 0 0
0.086547852 0.0081939697 -0.34008789 0 0 0 0
0.088378906 0.0082168579 -0.34130859 0 0 0 0
0.090026855 0.0082168579 -0.34130859 0 0 0 0
0.09161377 0.0082168579 -0.34130859 0 0 0 0
0.093200684 0.0082168579 -0.34130859 0 0 0 0
0.094787598 0.0082168579 -0.34130859 0 0 0 0
0.096679688 0.0082397461 -0.34228516 0 0 0 0
0.098327637 0.0082397461 -0.34228516 0 0 0 0
0.099914551 0.0082397461 -0.34228516 0 0 0 0
0.10150146 0.0082397461 -0.34228516 0 0 0 0
0.10339355 0.0082626343 -0.34326172 0 0 0 0
0.1050415 0.0082626343 -0.34326172 0 0 0 0
0.10662842 0.0082626343 -0.34326172 0 0 0 0
0.10858154 0.0082855225 -0.34423828 0 0 0 0
0.11016846 0.0082855225 -0.34423828 0 0 0 0
0.11181641 0.0082855225 -0.34423828 0 0 0 0
0.11340332 0.0082855225 -0.34423828 0 0 0 0
0.11535645 0.0083084106 -0.34521484 0 0 0 0
0.11700439 0.0083084106 -0.34521484 0 0 0 0
0.11859131 0.0083084106 -0.34521484 0 0 0 0
0.12054443 0.0083389282 -0.34619141 0 0 0 0
0.12219238 0.0083389282 -0.34619141 0 0 0 0
0.12384033 0.0083389282 -0.34619141 0 0 0 0
0.12536621 0.0083389282 -0.34619141 0 0 0 0
0.12744141 0.0083618164 -0.34716797 0 0 0 0
0.12902832 0.0083618164 -0.34716797 0 0 0 0
0.13061523 0.0083618164 -0.34716797 0 0 0 0
0.13269043 0.0083847046 -0.34814453 0 0 0 0
0.13427734 0.0083847046 -0.34814453 0 0 0 0
0.13635254 0.0084075928 -0.34912109 0 0 0 0
0.13793945 0.0084075928 -0.34912109 0 0 0 0
0.13964844 0.0084075928 -0.34912109 0 0 0 0
0.14160156 0.008430481 -0.3503418 0 0 0 0
0.14331055 0.008430481 -0.3503418 0 0 0 0
0.14489746 0.008430481 -0.3503418 0 0 0 0
0.14660645 0.008430481 -0.3503418 0 0 0 0
0.14868164 0.0084533691 -0.35131836 0 0 0 0
0.15026855 0.0084533691 -0.35131836 0 0 0 0
0.15197754 0.0084533691 -0.35131836 0 0 0 0
0.15356445 0.0084533691 -0.35131836 0 0 0 0
0.15527344 0.0084533691 -0.35131836 0 0 0 0
0.15734863 0.0084838867 -0.35229492 0 0 0 0
0.15893555 0.0084838867 -0.35229492 0 0 0 0
0.16064453 0.0084838867 -0.35229492 0 0 0 0
0.16235352 0.0084838867 -0.35229492 0 0 0 0
0.16442871 0.0085067749 -0.35327148 0 0 0 0
0.16601562 0.0085067749 -0.35327148 0 0 0 0
0.16772461 0.0085067749 -0.35327148 0 0 0 0
0.16943359 0.0085067749 -0.35327148 0 0 0 0
0.17150879 0.0085296631 -0.35424805 0 0 0 0
-0.0046844482 0.0070457458 -0.36328125 0 0 0 0
-0.0029735565 0.0070228577 -0.36230469 0 0 0 0
-0.0012702942 0.0070037842 -0.36132812 0 0 0 0
0.00042271614 0.0069847107 -0.36035156 0 0 0 0
0.0020999908 0.0069465637 -0.35839844 0 0 0 0
0.0037708282 0.0069274902 -0.35717773 0 0 0 0
0.0054283142 0.0069084167 -0.35620117 0 0 0 0
0.0070800781 0.0068893433 -0.35522461 0 0 0 0
0.0087203979 0.0068702698 -0.35424805 0 0 0 0
0.010353088 0.0068511963 -0.35327148 0 0 0 0
0.012008667 0.0068511963 -0.35327148 0 0 0 0
0.013626099 0.0068283081 -0.35229492 0 0 0 0
0.015281677 0.0068283081 -0.35229492 0 0 0 0
0.016876221 0.0068092346 -0.35131836 0 0 0 0
0.01852417 0.0068092346 -0.35131836 0 0 0 0
0.020172119 0.0068092346 -0.35131836 0 0 0 0
0.021820068 0.0068092346 -0.35131836 0 0 0 0
0.023468018 0.0068092346 -0.35131836 0 0 0 0
0.025192261 0.0068283081 -0.35229492 0 0 0 0
0.02684021 0.0068283081 -0.35229492 0 0 0 0
0.028656006 0.0068702698 -0.35424805 0 0 0 0
0.030410767 0.0068893433 -0.35522461 0 0 0 0
0.032165527 0.0069084167 -0.35620117 0 0 0 0
0.033935547 0.0069274902 -0.35717773 0 0 0 0
0.035705566 0.0069465637 -0.35839844 0 0 0 0
0.037597656 0.0069847107 -0.36035156 0 0 0 0
0.039398193 0.0070037842 -0.36132812 0 0 0 0
0.04119873 0.0070228577 -0.36230469 0 0 0 0
0.043029785 0.0070457458 -0.36328125 0 0 0 0
0.04486084 0.0070648193 -0.36425781 0 0 0 0
0.064758301 0.006652832 -0.34326172 0 0 0 0
0.06640625 0.006652832 -0.34326172 0 0 0 0
0.067810059 0.0066337585 -0.34228516 0 0 0 0
0.069213867 0.0066146851 -0.34130859 0 0 0 0
0.070617676 0.0065956116 -0.34008789 0 0 0 0
0.07220459 0.0065956116 -0.34008789 0 0 0 0
0.073791504 0.0065956116 -0.34008789 0 0 0 0
0.075378418 0.0065956116 -0.34008789 0 0 0 0
0.076721191 0.0065765381 -0.33911133 0 0 0 0
0.078369141 0.0065765381 -0.33911133 0 0 0 0
0.08013916 0.0065956116 -0.34008789 0 0 0 0
0.081787109 0.0065956116 -0.34008789 0 0 0 0
0.083374023 0.0065956116 -0.34008789 0 0 0 0
0.084960938 0.0065956116 -0.34008789 0 0 0 0
0.086547852 0.0065956116 -0.34008789 0 0 0 0
0.088378906 0.0066146851 -0.34130859 0 0 0 0
0.090026855 0.0066146851 -0.34130859 0 0 0 0
0.09161377 0.0066146851 -0.34130859 0 0 0 0
0.093200684 0.0066146851 -0.34130859 0 0 0 0
0.094787598 0.0066146851 -0.34130859 0 0 0 0
0.096679688 0.0066337585 -0.34228516 0 0 0 0
0.098327637 0.0066337585 -0.34228516 0 0 0 0
0.099914551 0.0066337585 -0.34228516 0 0 0 0
0.10150146 0.0066337585 -0.34228516 0 0 0 0
0.10339355 0.006652832 -0.34326172 0 0 0 0
0.1050415 0.006652832 -0.34326172 0 0 0 0
0.10662842 0.006652832 -0.34326172 0 0 0 0
0.10858154 0.0066757202 -0.34423828 0 0 0 0
0.11016846 0.0066757202 -0.34423828 0 0 0 0
0.11181641 0.0066757202 -0.34423828 0 0 0 0
0.11340332 0.0066757202 -0.34423828 0 0 0 0
0.11535645 0.0066947937 -0.34521484 0 0 0 0
0.11700439 0.0066947937 -0.34521484 0 0 0 0
0.11859131 0.0066947937 -0.34521484 0 0 0 0
0.12054443 0.0067138672 -0.34619141 0 0 0 0
0.12219238 0.0067138672 -0.34619141 0 0 0 0
0.12384033 0.0067138672 -0.34619141 0 0 0 0
0.12536621 0.0067138672 -0.34619141 0 0 0 0
0.12744141 0.0067329407 -0.34716797 0 0 0 0
0.12902832 0.0067329407 -0.34716797 0 0 0 0
0.13061523 0.0067329407 -0.34716797 0 0 0 0
0.13269043 0.0067520142 -0.34814453 0 0 0 0
0.13427734 0.0067520142 -0.34814453 0 0 0 0
0.13635254 0.0067710876 -0.34912109 0 0 0 0
0.13793945 0.0067710876 -0.34912109 0 0 0 0
0.13964844 0.0067710876 -0.34912109 0 0 0 0
0.14160156 0.0067901611 -0.3503418 0 0 0 0
0.14331055 0.0067901611 -0.3503418 0 0 0 0
0.14489746 0.0067901611 -0.3503418 0 0 0 0
0.14660645 0.0067901611 -0.3503418 0 0 0 0
0.14868164 0.0068092346 -0.35131836 0 0 0 0
0.15026855 0.0068092346 -0.35131836 0 0 0 0
0.15197754 0.0068092346 -0.35131836 0 0 0 0
0.15356445 0.0068092346 -0.35131836 0 0 0 0
0.15563965 0.0068283081 -0.35229492 0 0 0 0
0.15734863 0.0068283081 -0.35229492 0 0 0 0
0.15893555 0.0068283081 -0.35229492 0 0 0 0
0.16064453 0.0068283081 -0.35229492 0 0 0 0
0.16271973 0.0068511963 -0.35327148 0 0 0 0
0.16442871 0.0068511963 -0.35327148 0 0 0 0
0.16601562 0.0068511963 -0.35327148 0 0 0 0
0.16772461 0.0068511963 -0.35327148 0 0 0 0
0.16943359 0.0068511963 -0.35327148 0 0 0 0
0.17150879 0.0068702698 -0.35424805 0 0 0 0
-0.0046730042 0.0053253174 -0.36230469 0 0 0 0
-0.0029640198 0.0053100586 -0.36132812 0 0 0 0
-0.0012664795 0.0052947998 -0.36035156 0 0 0 0
0.00042152405 0.005279541 -0.359375 0 0 0 0
0.0020999908 0.0052642822 -0.35839844 0 0 0 0
0.0037708282 0.0052528381 -0.35717773 0 0 0 0
0.0054283142 0.0052375793 -0.35620117 0 0 0 0
0.0070800781 0.0052223206 -0.35522461 0 0 0 0
0.0087203979 0.0052070618 -0.35424805 0 0 0 0
0.010353088 0.005191803 -0.35327148 0 0 0 0
0.012008667 0.005191803 -0.35327148 0 0 0 0
0.013626099 0.0051765442 -0.35229492 0 0 0 0
0.015281677 0.0051765442 -0.35229492 0 0 0 0
0.016876221 0.0051612854 -0.35131836 0 0 0 0
0.01852417 0.0051612854 -0.35131836 0 0 0 0
0.020172119 0.0051612854 -0.35131836 0 0 0 0
0.021820068 0.0051612854 -0.35131836 0 0 0 0
0.023468018 0.0051612854 -0.35131836 0 0 0 0
0.025115967 0.0051612854 -0.35131836 0 0 0 0
0.02684021 0.0051765442 -0.35229492 0 0 0 0
0.028656006 0.0052070618 -0.35424805 0 0 0 0
0.030410767 0.0052223206 -0.35522461 0 0 0 0
0.032165527 0.0052375793 -0.35620117 0 0 0 0
0.033935547 0.0052528381 -0.35717773 0 0 0 0
0.035705566 0.0052642822 -0.35839844 0 0 0 0
0.037475586 0.005279541 -0.359375 0 0 0 0
0.039276123 0.0052947998 -0.36035156 0 0 0 0
0.04107666 0.0053100586 -0.36132812 0 0 0 0
0.042907715 0.0053253174 -0.36230469 0 0 0 0
0.04486084 0.005355835 -0.36425781 0 0 0 0
0.046813965 0.0053825378 -0.36621094 0 0 0 0
0.064758301 0.0050430298 -0.34326172 0 0 0 0
0.066223145 0.0050315857 -0.34228516 0 0 0 0
0.067626953 0.0050163269 -0.34130859 0 0 0 0
0.069213867 0.0050163269 -0.34130859 0 0 0 0
0.070617676 0.0050010681 -0.34008789 0 0 0 0
0.07220459 0.0050010681 -0.34008789 0 0 0 0
0.073791504 0.0050010681 -0.34008789 0 0 0 0
0.075134277 0.0049858093 -0.33911133 0 0 0 0
0.076721191 0.0049858093 -0.33911133 0 0 0 0
0.078369141 0.0049858093 -0.33911133 0 0 0 0
0.08013916 0.0050010681 -0.34008789 0 0 0 0
0.081787109 0.0050010681 -0.34008789 0 0 0 0
0.083374023 0.0050010681 -0.34008789 0 0 0 0
0.084960938 0.0050010681 -0.34008789 0 0 0 0
0.086791992 0.0050163269 -0.34130859 0 0 0 0
0.088378906 0.0050163269 -0.34130859 0 0 0 0
0.090026855 0.0050163269 -0.34130859 0 0 0 0
0.09161377 0.0050163269 -0.34130859 0 0 0 0
0.093200684 0.0050163269 -0.34130859 0 0 0 0
0.095092773 0.0050315857 -0.34228516 0 0 0 0
0.096679688 0.0050315857 -0.34228516 0 0 0 0
0.098327637 0.0050315857 -0.34228516 0 0 0 0
0.099914551 0.0050315857 -0.34228516 0 0 0 0
0.10180664 0.0050430298 -0.34326172 0 0 0 0
0.10339355 0.0050430298 -0.34326172 0 0 0 0
0.1050415 0.0050430298 -0.34326172 0 0 0 0
0.10662842 0.0050430298 -0.34326172 0 0 0 0
0.10858154 0.0050582886 -0.34423828 0 0 0 0
0.11016846 0.0050582886 -0.34423828 0 0 0 0
0.11181641 0.0050582886 -0.34423828 0 0 0 0
0.11376953 0.0050735474 -0.34521484 0 0 0 0
0.11535645 0.0050735474 -0.34521484 0 0 0 0
0.11700439 0.0050735474 -0.34521484 0 0 0 0
0.11859131 0.0050735474 -0.34521484 0 0 0 0
0.12054443 0.0050888062 -0.34619141 0 0 0 0
0.12219238 0.0050888062 -0.34619141 0 0 0 0
0.12384033 0.0050888062 -0.34619141 0 0 0 0
0.12573242 0.0051040649 -0.34716797 0 0 0 0
0.12744141 0.0051040649 -0.34716797 0 0 0 0
0.12902832 0.0051040649 -0.34716797 0 0 0 0
0.13098145 0.0051193237 -0.34814453 0 0 0 0
0.13269043 0.0051193237 -0.34814453 0 0 0 0
0.13427734 0.0051193237 -0.34814453 0 0 0 0
0.13635254 0.0051345825 -0.34912109 0 0 0 0
0.13793945 0.0051345825 -0.34912109 0 0 0 0
0.13964844 0.0051345825 -0.34912109 0 0 0 0
0.14160156 0.0051460266 -0.3503418 0 0 0 0
0.14331055 0.0051460266 -0.3503418 0 0 0 0
0.14489746 0.0051460266 -0.3503418 0 0 0 0
0.14697266 0.0051612854 -0.35131836 0 0 0 0
0.14868164 0.0051612854 -0.35131836 0 0 0 0
0.15026855 0.0051612854 -0.35131836 0 0 0 0
0.15197754 0.0051612854 -0.35131836 0 0 0 0
0.15356445 0.0051612854 -0.35131836 0 0 0 0
0.15563965 0.0051765442 -0.35229492 0 0 0 0
0.15734863 0.0051765442 -0.35229492 0 0 0 0
0.15893555 0.0051765442 -0.35229492 0 0 0 0
0.16064453 0.0051765442 -0.35229492 0 0 0 0
0.16271973 0.005191803 -0.35327148 0 0 0 0
0.16442871 0.005191803 -0.35327148 0 0 0 0
0.16601562 0.005191803 -0.35327148 0 0 0 0
0.16772461 0.005191803 -0.35327148 0 0 0 0
0.16992188 0.0052070618 -0.35424805 0 0 0 0
-0.0046730042 0.0036258698 -0.36230469 0 0 0 0
-0.0029640198 0.003616333 -0.36132812 0 0 0 0
-0.0012664795 0.0036067963 -0.36035156 0 0 0 0
0.00042152405 0.0035953522 -0.359375 0 0 0 0
0.0020999908 0.0035858154 -0.35839844 0 0 0 0
0.0037708282 0.0035762787 -0.35717773 0 0 0 0
0.0054283142 0.0035667419 -0.35620117 0 0 0 0
0.0070800781 0.0035552979 -0.35522461 0 0 0 0
0.0087203979 0.0035457611 -0.35424805 0 0 0 0
0.010383606 0.0035457611 -0.35424805 0 0 0 0
0.012008667 0.0035362244 -0.35327148 0 0 0 0
0.013626099 0.0035266876 -0.35229492 0 0 0 0
0.015281677 0.0035266876 -0.35229492 0 0 0 0
0.016876221 0.0035152435 -0.35131836 0 0 0 0
0.01852417 0.0035152435 -0.35131836 0 0 0 0
0.020172119 0.0035152435 -0.35131836 0 0 0 0
0.021820068 0.0035152435 -0.35131836 0 0 0 0
0.023468018 0.0035152435 -0.35131836 0 0 0 0
0.025115967 0.0035152435 -0.35131836 0 0 0 0
0.02684021 0.0035266876 -0.35229492 0 0 0 0
0.030410767 0.0035552979 -0.35522461 0 0 0 0
0.032165527 0.0035667419 -0.35620117 0 0 0 0
0.033935547 0.0035762787 -0.35717773 0 0 0 0
0.035705566 0.0035858154 -0.35839844 0 0 0 0
0.037475586 0.0035953522 -0.359375 0 0 0 0
0.039276123 0.0036067963 -0.36035156 0 0 0 0
0.04107666 0.003616333 -0.36132812 0 0 0 0
0.042907715 0.0036258698 -0.36230469 0 0 0 0
0.04510498 0.0036659241 -0.36621094 0 0 0 0
0.047210693 0.0036964417 -0.36938477 0 0 0 0
0.064575195 0.0034255981 -0.34228516 0 0 0 0
0.066223145 0.0034255981 -0.34228516 0 0 0 0
0.067626953 0.0034160614 -0.34130859 0 0 0 0
0.068969727 0.0034046173 -0.34008789 0 0 0 0
0.070617676 0.0034046173 -0.34008789 0 0 0 0
0.07220459 0.0034046173 -0.34008789 0 0 0 0
0.073547363 0.0033950806 -0.33911133 0 0 0 0
0.075134277 0.0033950806 -0.33911133 0 0 0 0
0.076721191 0.0033950806 -0.33911133 0 0 0 0
0.078369141 0.0033950806 -0.33911133 0 0 0 0
0.08013916 0.0034046173 -0.34008789 0 0 0 0
0.081787109 0.0034046173 -0.34008789 0 0 0 0
0.083374023 0.0034046173 -0.34008789 0 0 0 0
0.084960938 0.0034046173 -0.34008789 0 0 0 0
0.086791992 0.0034160614 -0.34130859 0 0 0 0
0.088378906 0.0034160614 -0.34130859 0 0 0 0
0.090026855 0.0034160614 -0.34130859 0 0 0 0
0.09161377 0.0034160614 -0.34130859 0 0 0 0
0.093200684 0.0034160614 -0.34130859 0 0 0 0
0.095092773 0.0034255981 -0.34228516 0 0 0 0
0.096679688 0.0034255981 -0.34228516 0 0 0 0
0.098327637 0.0034255981 -0.34228516 0 0 0 0
0.099914551 0.0034255981 -0.34228516 0 0 0 0
0.10180664 0.0034351349 -0.34326172 0 0 0 0
0.10339355 0.0034351349 -0.34326172 0 0 0 0
0.1050415 0.0034351349 -0.34326172 0 0 0 0
0.10662842 0.0034351349 -0.34326172 0 0 0 0
0.10858154 0.0034446716 -0.34423828 0 0 0 0
0.11016846 0.0034446716 -0.34423828 0 0 0 0
0.11181641 0.0034446716 -0.34423828 0 0 0 0
0.11376953 0.0034561157 -0.34521484 0 0 0 0
0.11535645 0.0034561157 -0.34521484 0 0 0 0
0.11700439 0.0034561157 -0.34521484 0 0 0 0
0.11859131 0.0034561157 -0.34521484 0 0 0 0
0.12054443 0.0034656525 -0.34619141 0 0 0 0
0.12219238 0.0034656525 -0.34619141 0 0 0 0
0.12384033 0.0034656525 -0.34619141 0 0 0 0
0.12573242 0.0034751892 -0.34716797 0 0 0 0
0.12744141 0.0034751892 -0.34716797 0 0 0 0
0.12902832 0.0034751892 -0.34716797 0 0 0 0
0.13098145 0.0034866333 -0.34814453 0 0 0 0
0.13269043 0.0034866333 -0.34814453 0 0 0 0
0.13427734 0.0034866333 -0.34814453 0 0 0 0
0.13635254 0.00349617 -0.34912109 0 0 0 0
0.13793945 0.00349617 -0.34912109 0 0 0 0
0.13964844 0.00349617 -0.34912109 0 0 0 0
0.14160156 0.0035057068 -0.3503418 0 0 0 0
0.14331055 0.0035057068 -0.3503418 0 0 0 0
0.14489746 0.0035057068 -0.3503418 0 0 0 0
0.14697266 0.0035152435 -0.35131836 0 0 0 0
0.14868164 0.0035152435 -0.35131836 0 0 0 0
0.15026855 0.0035152435 -0.35131836 0 0 0 0
0.15197754 0.0035152435 -0.35131836 0 0 0 0
0.15356445 0.0035152435 -0.35131836 0 0 0 0
0.15563965 0.0035266876 -0.35229492 0 0 0 0
0.15734863 0.0035266876 -0.35229492 0 0 0 0
0.15893555 0.0035266876 -0.35229492 0 0 0 0
0.16064453 0.0035266876 -0.35229492 0 0 0 0
0.16271973 0.0035362244 -0.35327148 0 0 0 0
0.16442871 0.0035362244 -0.35327148 0 0 0 0
0.16601562 0.0035362244 -0.35327148 0 0 0 0
0.16772461 0.0035362244 -0.35327148 0 0 0 0
0.16992188 0.0035457611 -0.35424805 0 0 0 0
-0.0029640198 0.0019216537 -0.36132812 0 0 0 0
-0.0012664795 0.0019168854 -0.36035156 0 0 0 0
0.00042152405 0.0019111633 -0.359375 0 0 0 0
0.0020999908 0.001906395 -0.35839844 0 0 0 0
0.0037708282 0.0019006729 -0.35717773 0 0 0 0
0.0054283142 0.0018949509 -0.35620117 0 0 0 0
0.0070800781 0.0018901825 -0.35522461 0 0 0 0
0.0087432861 0.0018901825 -0.35522461 0 0 0 0
0.010383606 0.0018844604 -0.35424805 0 0 0 0
0.012008667 0.0018796921 -0.35327148 0 0 0 0
0.013671875 0.0018796921 -0.35327148 0 0 0 0
0.015281677 0.00187397 -0.35229492 0 0 0 0
0.016937256 0.00187397 -0.35229492 0 0 0 0
0.01852417 0.001868248 -0.35131836 0 0 0 0
0.020172119 0.001868248 -0.35131836 0 0 0 0
0.021820068 0.001868248 -0.35131836 0 0 0 0
0.023468018 0.001868248 -0.35131836 0 0 0 0
0.025115967 0.001868248 -0.35131836 0 0 0 0
0.026763916 0.001868248 -0.35131836 0 0 0 0
0.028579712 0.0018796921 -0.35327148 0 0 0 0
0.030319214 0.0018844604 -0.35424805 0 0 0 0
0.032073975 0.0018901825 -0.35522461 0 0 0 0
0.033843994 0.0018949509 -0.35620117 0 0 0 0
0.035614014 0.0019006729 -0.35717773 0 0 0 0
0.037384033 0.001906395 -0.35839844 0 0 0 0
0.039276123 0.0019168854 -0.36035156 0 0 0 0
0.04107666 0.0019216537 -0.36132812 0 0 0 0
0.042785645 0.0019216537 -0.36132812 0 0 0 0
0.044708252 0.0019330978 -0.36328125 0 0 0 0
0.049591064 0.001991272 -0.37426758 0 0 0 0
0.051483154 0.001996994 -0.37524414 0 0 0 0
0.061187744 0.0018634796 -0.3503418 0 0 0 0
0.061920166 0.0018367767 -0.34521484 0 0 0 0
0.063720703 0.0018415451 -0.34619141 0 0 0 0
0.064575195 0.0018205643 -0.34228516 0 0 0 0
0.065979004 0.0018148422 -0.34130859 0 0 0 0
0.067382812 0.0018100739 -0.34008789 0 0 0 0
0.068969727 0.0018100739 -0.34008789 0 0 0 0
0.070617676 0.0018100739 -0.34008789 0 0 0 0
0.071960449 0.0018043518 -0.33911133 0 0 0 0
0.073547363 0.0018043518 -0.33911133 0 0 0 0
0.075134277 0.0018043518 -0.33911133 0 0 0 0
0.076721191 0.0018043518 -0.33911133 0 0 0 0
0.078369141 0.0018043518 -0.33911133 0 0 0 0
0.08013916 0.0018100739 -0.34008789 0 0 0 0
0.081787109 0.0018100739 -0.34008789 0 0 0 0
0.083374023 0.0018100739 -0.34008789 0 0 0 0
0.084960938 0.0018100739 -0.34008789 0 0 0 0
0.086791992 0.0018148422 -0.34130859 0 0 0 0
0.088378906 0.0018148422 -0.34130859 0 0 0 0
0.090026855 0.0018148422 -0.34130859 0 0 0 0
0.09161377 0.0018148422 -0.34130859 0 0 0 0
0.093505859 0.0018205643 -0.34228516 0 0 0 0
0.095092773 0.0018205643 -0.34228516 0 0 0 0
0.096679688 0.0018205643 -0.34228516 0 0 0 0
0.098327637 0.0018205643 -0.34228516 0 0 0 0
0.099914551 0.0018205643 -0.34228516 0 0 0 0
0.10180664 0.0018262863 -0.34326172 0 0 0 0
0.10339355 0.0018262863 -0.34326172 0 0 0 0
0.1050415 0.0018262863 -0.34326172 0 0 0 0
0.10693359 0.0018310547 -0.34423828 0 0 0 0
0.10858154 0.0018310547 -0.34423828 0 0 0 0
0.11016846 0.0018310547 -0.34423828 0 0 0 0
0.11181641 0.0018310547 -0.34423828 0 0 0 0
0.11376953 0.0018367767 -0.34521484 0 0 0 0
0.11535645 0.0018367767 -0.34521484 0 0 0 0
0.11700439 0.0018367767 -0.34521484 0 0 0 0
0.11859131 0.0018367767 -0.34521484 0 0 0 0
0.12054443 0.0018415451 -0.34619141 0 0 0 0
0.12219238 0.0018415451 -0.34619141 0 0 0 0
0.12384033 0.0018415451 -0.34619141 0 0 0 0
