ply
format ascii 1.0
comment PCL generated
element vertex 1080
property float x
property float y
property float z
property float nx
property float ny
property float nz
property float curvature
element face 0
element camera 0
property float view_px
property float view_py
property float view_pz
property float x_axisx
property float x_axisy
property float x_axisz
property float y_axisx
property float y_axisy
property float y_axisz
property float z_axisx
property float z_axisy
property float z_axisz
property float focal
property float scalex
property float scaley
property float centerx
property float centery
property int viewportx
property int viewporty
property float k1
property float k2
end_header
0.038543701 0.085083008 -0.36938477 0 0 0 0
0.088928223 0.092468262 -0.40136719 0 0 0 0
0.090576172 0.092285156 -0.40039062 0 0 0 0
0.092224121 0.092041016 -0.39941406 0 0 0 0
0.09387207 0.091796875 -0.3984375 0 0 0 0
0.09576416 0.091796875 -0.3984375 0 0 0 0
0.09765625 0.091796875 -0.3984375 0 0 0 0
0.099487305 0.091796875 -0.3984375 0 0 0 0
0.10443115 0.08807373 -0.38232422 0 0 0 0
0.10650635 0.088317871 -0.38330078 0 0 0 0
0.10858154 0.088562012 -0.38427734 0 0 0 0
0.11071777 0.088806152 -0.38549805 0 0 0 0
0.11279297 0.089050293 -0.38647461 0 0 0 0
0.1149292 0.089233398 -0.38745117 0 0 0 0
0.11700439 0.089477539 -0.38842773 0 0 0 0
0.11914062 0.08972168 -0.3894043 0 0 0 0
0.12097168 0.08972168 -0.3894043 0 0 0 0
0.12310791 0.08996582 -0.39038086 0 0 0 0
0.12493896 0.08996582 -0.39038086 0 0 0 0
0.12670898 0.08996582 -0.39038086 0 0 0 0
0.12854004 0.08996582 -0.39038086 0 0 0 0
0.13012695 0.08972168 -0.3894043 0 0 0 0
0.13195801 0.08972168 -0.3894043 0 0 0 0
0.13342285 0.089477539 -0.38842773 0 0 0 0
0.13525391 0.089477539 -0.38842773 0 0 0 0
0.13671875 0.089233398 -0.38745117 0 0 0 0
0.13818359 0.089050293 -0.38647461 0 0 0 0
0.13964844 0.088806152 -0.38549805 0 0 0 0
0.14099121 0.088562012 -0.38427734 0 0 0 0
0.14245605 0.088317871 -0.38330078 0 0 0 0
0.1439209 0.08807373 -0.38232422 0 0 0 0
0.14526367 0.087890625 -0.38134766 0 0 0 0
0.14672852 0.087646484 -0.38037109 0 0 0 0
0.14807129 0.087402344 -0.37939453 0 0 0 0
0.14990234 0.087402344 -0.37939453 0 0 0 0
0.15124512 0.087158203 -0.37841797 0 0 0 0
0.15307617 0.087158203 -0.37841797 0 0 0 0
0.15441895 0.086975098 -0.37744141 0 0 0 0
0.15576172 0.086730957 -0.37646484 0 0 0 0
-0.0063896179 0.08203125 -0.36328125 0 0 0 0
-0.0046844482 0.08203125 -0.36328125 0 0 0 0
-0.0029735565 0.081787109 -0.36230469 0 0 0 0
-0.0012741089 0.081787109 -0.36230469 0 0 0 0
0.00042510033 0.081787109 -0.36230469 0 0 0 0
0.002122879 0.081787109 -0.36230469 0 0 0 0
0.0038337708 0.08203125 -0.36328125 0 0 0 0
0.005569458 0.082458496 -0.36523438 0 0 0 0
0.0073013306 0.082702637 -0.36621094 0 0 0 0
0.0090408325 0.082885742 -0.36743164 0 0 0 0
0.010765076 0.082885742 -0.36743164 0 0 0 0
0.012489319 0.082885742 -0.36743164 0 0 0 0
0.014251709 0.083129883 -0.3684082 0 0 0 0
0.015975952 0.083129883 -0.3684082 0 0 0 0
0.017700195 0.083129883 -0.3684082 0 0 0 0
0.019424438 0.083129883 -0.3684082 0 0 0 0
0.02116394 0.083129883 -0.3684082 0 0 0 0
0.022827148 0.082885742 -0.36743164 0 0 0 0
0.024551392 0.082885742 -0.36743164 0 0 0 0
0.026275635 0.082885742 -0.36743164 0 0 0 0
0.027999878 0.082885742 -0.36743164 0 0 0 0
0.029632568 0.082702637 -0.36621094 0 0 0 0
0.031433105 0.082885742 -0.36743164 0 0 0 0
0.03314209 0.082885742 -0.36743164 0 0 0 0
0.034881592 0.082885742 -0.36743164 0 0 0 0
0.036712646 0.083129883 -0.3684082 0 0 0 0
0.038421631 0.083129883 -0.3684082 0 0 0 0
0.088928223 0.090637207 -0.40136719 0 0 0 0
0.090576172 0.090393066 -0.40039062 0 0 0 0
0.092224121 0.090148926 -0.39941406 0 0 0 0
0.09387207 0.089904785 -0.3984375 0 0 0 0
0.09576416 0.089904785 -0.3984375 0 0 0 0
0.097412109 0.08972168 -0.39746094 0 0 0 0
0.097045898 0.08605957 -0.38134766 0 0 0 0
0.098815918 0.08605957 -0.38134766 0 0 0 0
0.10058594 0.08605957 -0.38134766 0 0 0 0
0.10241699 0.08605957 -0.38134766 0 0 0 0
0.10418701 0.08605957 -0.38134766 0 0 0 0
0.10626221 0.086303711 -0.38232422 0 0 0 0
0.1083374 0.086547852 -0.38330078 0 0 0 0
0.1104126 0.086791992 -0.38427734 0 0 0 0
0.11224365 0.086791992 -0.38427734 0 0 0 0
0.11431885 0.086975098 -0.38549805 0 0 0 0
0.11645508 0.087219238 -0.38647461 0 0 0 0
0.11853027 0.087463379 -0.38745117 0 0 0 0
0.12036133 0.087463379 -0.38745117 0 0 0 0
0.12249756 0.087646484 -0.38842773 0 0 0 0
0.12432861 0.087646484 -0.38842773 0 0 0 0
0.12609863 0.087646484 -0.38842773 0 0 0 0
0.12792969 0.087646484 -0.38842773 0 0 0 0
0.12976074 0.087646484 -0.38842773 0 0 0 0
0.13122559 0.087463379 -0.38745117 0 0 0 0
0.13305664 0.087463379 -0.38745117 0 0 0 0
0.13452148 0.087219238 -0.38647461 0 0 0 0
0.13635254 0.087219238 -0.38647461 0 0 0 0
0.13781738 0.086975098 -0.38549805 0 0 0 0
0.13928223 0.086791992 -0.38427734 0 0 0 0
0.140625 0.086547852 -0.38330078 0 0 0 0
0.14245605 0.086547852 -0.38330078 0 0 0 0
0.1439209 0.086303711 -0.38232422 0 0 0 0
0.14526367 0.08605957 -0.38134766 0 0 0 0
0.14672852 0.085876465 -0.38037109 0 0 0 0
0.1484375 0.085876465 -0.38037109 0 0 0 0
0.14990234 0.085632324 -0.37939453 0 0 0 0
0.15161133 0.085632324 -0.37939453 0 0 0 0
0.15307617 0.085388184 -0.37841797 0 0 0 0
0.15478516 0.085388184 -0.37841797 0 0 0 0
0.15612793 0.085205078 -0.37744141 0 0 0 0
-0.017303467 0.069396973 -0.31420898 0 0 0 0
-0.015838623 0.069396973 -0.31420898 0 0 0 0
-0.01436615 0.069396973 -0.31420898 0 0 0 0
-0.0046730042 0.080078125 -0.36230469 0 0 0 0
-0.0029735565 0.080078125 -0.36230469 0 0 0 0
-0.0012741089 0.080078125 -0.36230469 0 0 0 0
0.00042390823 0.079833984 -0.36132812 0 0 0 0
0.002117157 0.079833984 -0.36132812 0 0 0 0
0.003824234 0.080078125 -0.36230469 0 0 0 0
0.0073013306 0.080993652 -0.36621094 0 0 0 0
0.0090408325 0.081176758 -0.36743164 0 0 0 0
0.010765076 0.081176758 -0.36743164 0 0 0 0
0.012489319 0.081176758 -0.36743164 0 0 0 0
0.014213562 0.081176758 -0.36743164 0 0 0 0
0.015930176 0.081176758 -0.36743164 0 0 0 0
0.017654419 0.081176758 -0.36743164 0 0 0 0
0.019378662 0.081176758 -0.36743164 0 0 0 0
0.021102905 0.081176758 -0.36743164 0 0 0 0
0.022827148 0.081176758 -0.36743164 0 0 0 0
0.024551392 0.081176758 -0.36743164 0 0 0 0
0.026199341 0.080993652 -0.36621094 0 0 0 0
0.027923584 0.080993652 -0.36621094 0 0 0 0
0.029632568 0.080993652 -0.36621094 0 0 0 0
0.031341553 0.080993652 -0.36621094 0 0 0 0
0.03314209 0.081176758 -0.36743164 0 0 0 0
0.034881592 0.081176758 -0.36743164 0 0 0 0
0.036712646 0.081420898 -0.3684082 0 0 0 0
0.038421631 0.081420898 -0.3684082 0 0 0 0
0.087280273 0.088928223 -0.40234375 0 0 0 0
0.088928223 0.088745117 -0.40136719 0 0 0 0
0.090576172 0.088500977 -0.40039062 0 0 0 0
0.092224121 0.088317871 -0.39941406 0 0 0 0
0.09387207 0.08807373 -0.3984375 0 0 0 0
0.09576416 0.08807373 -0.3984375 0 0 0 0
0.096862793 0.087402344 -0.39550781 0 0 0 0
0.095458984 0.084533691 -0.38232422 0 0 0 0
0.097045898 0.084289551 -0.38134766 0 0 0 0
0.098815918 0.084289551 -0.38134766 0 0 0 0
0.1003418 0.08404541 -0.38037109 0 0 0 0
0.10211182 0.08404541 -0.38037109 0 0 0 0
0.10388184 0.08404541 -0.38037109 0 0 0 0
0.10595703 0.084289551 -0.38134766 0 0 0 0
0.10778809 0.084289551 -0.38134766 0 0 0 0
0.10986328 0.084533691 -0.38232422 0 0 0 0
0.11193848 0.084716797 -0.38330078 0 0 0 0
0.1137085 0.084716797 -0.38330078 0 0 0 0
0.11584473 0.084960938 -0.38427734 0 0 0 0
0.11791992 0.085205078 -0.38549805 0 0 0 0
0.12005615 0.085388184 -0.38647461 0 0 0 0
0.12188721 0.085388184 -0.38647461 0 0 0 0
0.12365723 0.085388184 -0.38647461 0 0 0 0
0.12573242 0.085632324 -0.38745117 0 0 0 0
0.12756348 0.085632324 -0.38745117 0 0 0 0
0.12902832 0.085388184 -0.38647461 0 0 0 0
0.13085938 0.085388184 -0.38647461 0 0 0 0
0.13269043 0.085388184 -0.38647461 0 0 0 0
0.13415527 0.085205078 -0.38549805 0 0 0 0
0.13598633 0.085205078 -0.38549805 0 0 0 0
0.13745117 0.084960938 -0.38427734 0 0 0 0
0.13928223 0.084960938 -0.38427734 0 0 0 0
0.140625 0.084716797 -0.38330078 0 0 0 0
0.14208984 0.084533691 -0.38232422 0 0 0 0
0.1439209 0.084533691 -0.38232422 0 0 0 0
0.14526367 0.084289551 -0.38134766 0 0 0 0
0.14709473 0.084289551 -0.38134766 0 0 0 0
0.1484375 0.08404541 -0.38037109 0 0 0 0
0.15026855 0.08404541 -0.38037109 0 0 0 0
0.15161133 0.083862305 -0.37939453 0 0 0 0
0.15344238 0.083862305 -0.37939453 0 0 0 0
0.15478516 0.083618164 -0.37841797 0 0 0 0
-0.020187378 0.067749023 -0.31298828 0 0 0 0
-0.018722534 0.067749023 -0.31298828 0 0 0 0
-0.017303467 0.067932129 -0.31420898 0 0 0 0
-0.015838623 0.067932129 -0.31420898 0 0 0 0
-0.01436615 0.067932129 -0.31420898 0 0 0 0
-0.012886047 0.067932129 -0.31420898 0 0 0 0
-0.011413574 0.067932129 -0.31420898 0 0 0 0
-0.0099411011 0.067932129 -0.31420898 0 0 0 0
-0.0084686279 0.067932129 -0.31420898 0 0 0 0
-0.0069961548 0.067932129 -0.31420898 0 0 0 0
-0.0055236816 0.067932129 -0.31420898 0 0 0 0
-0.0040512085 0.067932129 -0.31420898 0 0 0 0
-0.002576828 0.067932129 -0.31420898 0 0 0 0
0.00042271614 0.077941895 -0.36035156 0 0 0 0
0.0055847168 0.079223633 -0.36621094 0 0 0 0
0.0073013306 0.079223633 -0.36621094 0 0 0 0
0.0090408325 0.079467773 -0.36743164 0 0 0 0
0.010765076 0.079467773 -0.36743164 0 0 0 0
0.012489319 0.079467773 -0.36743164 0 0 0 0
0.014213562 0.079467773 -0.36743164 0 0 0 0
0.015930176 0.079467773 -0.36743164 0 0 0 0
0.017654419 0.079467773 -0.36743164 0 0 0 0
0.019378662 0.079467773 -0.36743164 0 0 0 0
0.021102905 0.079467773 -0.36743164 0 0 0 0
0.022827148 0.079467773 -0.36743164 0 0 0 0
0.024475098 0.079223633 -0.36621094 0 0 0 0
0.026199341 0.079223633 -0.36621094 0 0 0 0
0.027923584 0.079223633 -0.36621094 0 0 0 0
0.029632568 0.079223633 -0.36621094 0 0 0 0
0.031341553 0.079223633 -0.36621094 0 0 0 0
0.03314209 0.079467773 -0.36743164 0 0 0 0
0.034881592 0.079467773 -0.36743164 0 0 0 0
0.036590576 0.079467773 -0.36743164 0 0 0 0
0.038421631 0.079650879 -0.3684082 0 0 0 0
0.088928223 0.086853027 -0.40136719 0 0 0 0
0.090576172 0.086608887 -0.40039062 0 0 0 0
0.092224121 0.086425781 -0.39941406 0 0 0 0
0.09387207 0.086181641 -0.3984375 0 0 0 0
0.091918945 0.082702637 -0.38232422 0 0 0 0
0.093688965 0.082702637 -0.38232422 0 0 0 0
0.095214844 0.082519531 -0.38134766 0 0 0 0
0.097045898 0.082519531 -0.38134766 0 0 0 0
0.098571777 0.082275391 -0.38037109 0 0 0 0
0.1003418 0.082275391 -0.38037109 0 0 0 0
0.10211182 0.082275391 -0.38037109 0 0 0 0
0.10388184 0.082275391 -0.38037109 0 0 0 0
0.10571289 0.082275391 -0.38037109 0 0 0 0
0.10748291 0.082275391 -0.38037109 0 0 0 0
0.10955811 0.082519531 -0.38134766 0 0 0 0
0.11132812 0.082519531 -0.38134766 0 0 0 0
0.11340332 0.082702637 -0.38232422 0 0 0 0
0.11523438 0.082702637 -0.38232422 0 0 0 0
0.11730957 0.082946777 -0.38330078 0 0 0 0
0.1194458 0.083129883 -0.38427734 0 0 0 0
0.12121582 0.083129883 -0.38427734 0 0 0 0
0.12304688 0.083129883 -0.38427734 0 0 0 0
0.12512207 0.083374023 -0.38549805 0 0 0 0
0.12695312 0.083374023 -0.38549805 0 0 0 0
0.12878418 0.083374023 -0.38549805 0 0 0 0
0.13061523 0.083374023 -0.38549805 0 0 0 0
0.13232422 0.083374023 -0.38549805 0 0 0 0
0.13378906 0.083129883 -0.38427734 0 0 0 0
0.13562012 0.083129883 -0.38427734 0 0 0 0
0.13745117 0.083129883 -0.38427734 0 0 0 0
0.13891602 0.082946777 -0.38330078 0 0 0 0
0.140625 0.082946777 -0.38330078 0 0 0 0
0.14208984 0.082702637 -0.38232422 0 0 0 0
0.1439209 0.082702637 -0.38232422 0 0 0 0
0.14562988 0.082702637 -0.38232422 0 0 0 0
0.14709473 0.082519531 -0.38134766 0 0 0 0
0.14892578 0.082519531 -0.38134766 0 0 0 0
0.15026855 0.082275391 -0.38037109 0 0 0 0
0.15209961 0.082275391 -0.38037109 0 0 0 0
0.15344238 0.082092285 -0.37939453 0 0 0 0
-0.021652222 0.06628418 -0.31298828 0 0 0 0
-0.020187378 0.06628418 -0.31298828 0 0 0 0
-0.018722534 0.06628418 -0.31298828 0 0 0 0
-0.01725769 0.06628418 -0.31298828 0 0 0 0
-0.015777588 0.06628418 -0.31298828 0 0 0 0
-0.014320374 0.06628418 -0.31298828 0 0 0 0
-0.0128479 0.06628418 -0.31298828 0 0 0 0
-0.011383057 0.06628418 -0.31298828 0 0 0 0
-0.0099105835 0.06628418 -0.31298828 0 0 0 0
-0.0084457397 0.06628418 -0.31298828 0 0 0 0
-0.0069732666 0.06628418 -0.31298828 0 0 0 0
-0.0055046082 0.06628418 -0.31298828 0 0 0 0
-0.0040359497 0.06628418 -0.31298828 0 0 0 0
-0.0025691986 0.06628418 -0.31298828 0 0 0 0
-0.0011005402 0.06628418 -0.31298828 0 0 0 0
0.00036740303 0.06628418 -0.31298828 0 0 0 0
0.0038452148 0.077087402 -0.36425781 0 0 0 0
0.0055847168 0.077514648 -0.36621094 0 0 0 0
0.0073013306 0.077514648 -0.36621094 0 0 0 0
0.0090179443 0.077514648 -0.36621094 0 0 0 0
0.010765076 0.077758789 -0.36743164 0 0 0 0
0.012489319 0.077758789 -0.36743164 0 0 0 0
0.014213562 0.077758789 -0.36743164 0 0 0 0
0.015930176 0.077758789 -0.36743164 0 0 0 0
0.017654419 0.077758789 -0.36743164 0 0 0 0
0.019378662 0.077758789 -0.36743164 0 0 0 0
0.02104187 0.077514648 -0.36621094 0 0 0 0
0.022766113 0.077514648 -0.36621094 0 0 0 0
0.024475098 0.077514648 -0.36621094 0 0 0 0
0.026199341 0.077514648 -0.36621094 0 0 0 0
0.027923584 0.077514648 -0.36621094 0 0 0 0
0.029632568 0.077514648 -0.36621094 0 0 0 0
0.031341553 0.077514648 -0.36621094 0 0 0 0
0.033050537 0.077514648 -0.36621094 0 0 0 0
0.034881592 0.077758789 -0.36743164 0 0 0 0
0.036590576 0.077758789 -0.36743164 0 0 0 0
0.038421631 0.077941895 -0.3684082 0 0 0 0
0.088928223 0.084960938 -0.40136719 0 0 0 0
0.090576172 0.084777832 -0.40039062 0 0 0 0
0.088317871 0.080932617 -0.38232422 0 0 0 0
0.090087891 0.080932617 -0.38232422 0 0 0 0
0.091918945 0.080932617 -0.38232422 0 0 0 0
0.093444824 0.080688477 -0.38134766 0 0 0 0
0.095214844 0.080688477 -0.38134766 0 0 0 0
0.096740723 0.080505371 -0.38037109 0 0 0 0
0.098571777 0.080505371 -0.38037109 0 0 0 0
0.10009766 0.08026123 -0.37939453 0 0 0 0
0.10186768 0.08026123 -0.37939453 0 0 0 0
0.1036377 0.08026123 -0.37939453 0 0 0 0
0.10540771 0.08026123 -0.37939453 0 0 0 0
0.10717773 0.08026123 -0.37939453 0 0 0 0
0.10894775 0.08026123 -0.37939453 0 0 0 0
0.11102295 0.080505371 -0.38037109 0 0 0 0
0.112854 0.080505371 -0.38037109 0 0 0 0
0.1149292 0.080688477 -0.38134766 0 0 0 0
0.11669922 0.080688477 -0.38134766 0 0 0 0
0.11877441 0.080932617 -0.38232422 0 0 0 0
0.12060547 0.080932617 -0.38232422 0 0 0 0
0.1227417 0.081115723 -0.38330078 0 0 0 0
0.12451172 0.081115723 -0.38330078 0 0 0 0
0.1262207 0.081115723 -0.38330078 0 0 0 0
0.12841797 0.081359863 -0.38427734 0 0 0 0
0.13024902 0.081359863 -0.38427734 0 0 0 0
0.13208008 0.081359863 -0.38427734 0 0 0 0
0.13378906 0.081359863 -0.38427734 0 0 0 0
0.13525391 0.081115723 -0.38330078 0 0 0 0
0.13708496 0.081115723 -0.38330078 0 0 0 0
0.13891602 0.081115723 -0.38330078 0 0 0 0
0.140625 0.081115723 -0.38330078 0 0 0 0
0.14245605 0.081115723 -0.38330078 0 0 0 0
0.1439209 0.080932617 -0.38232422 0 0 0 0
0.14562988 0.080932617 -0.38232422 0 0 0 0
0.14746094 0.080932617 -0.38232422 0 0 0 0
0.14892578 0.080688477 -0.38134766 0 0 0 0
0.15063477 0.080688477 -0.38134766 0 0 0 0
-0.02305603 0.064575195 -0.31201172 0 0 0 0
-0.021591187 0.064575195 -0.31201172 0 0 0 0
-0.020187378 0.064819336 -0.31298828 0 0 0 0
-0.018722534 0.064819336 -0.31298828 0 0 0 0
-0.01725769 0.064819336 -0.31298828 0 0 0 0
-0.015777588 0.064819336 -0.31298828 0 0 0 0
-0.014320374 0.064819336 -0.31298828 0 0 0 0
-0.0128479 0.064819336 -0.31298828 0 0 0 0
-0.011383057 0.064819336 -0.31298828 0 0 0 0
-0.0099105835 0.064819336 -0.31298828 0 0 0 0
-0.0084457397 0.064819336 -0.31298828 0 0 0 0
-0.0069732666 0.064819336 -0.31298828 0 0 0 0
-0.0055046082 0.064819336 -0.31298828 0 0 0 0
-0.0040359497 0.064819336 -0.31298828 0 0 0 0
-0.0025691986 0.064819336 -0.31298828 0 0 0 0
-0.0011005402 0.064819336 -0.31298828 0 0 0 0
0.00036740303 0.064819336 -0.31298828 0 0 0 0
0.001830101 0.064575195 -0.31201172 0 0 0 0
0.0073013306 0.075805664 -0.36621094 0 0 0 0
0.0090179443 0.075805664 -0.36621094 0 0 0 0
0.010734558 0.075805664 -0.36621094 0 0 0 0
0.012451172 0.075805664 -0.36621094 0 0 0 0
0.014175415 0.075805664 -0.36621094 0 0 0 0
0.015884399 0.075805664 -0.36621094 0 0 0 0
0.017608643 0.075805664 -0.36621094 0 0 0 0
0.019317627 0.075805664 -0.36621094 0 0 0 0
0.02104187 0.075805664 -0.36621094 0 0 0 0
0.022766113 0.075805664 -0.36621094 0 0 0 0
0.024475098 0.075805664 -0.36621094 0 0 0 0
0.026123047 0.075622559 -0.36523438 0 0 0 0
0.02784729 0.075622559 -0.36523438 0 0 0 0
0.029556274 0.075622559 -0.36523438 0 0 0 0
0.031341553 0.075805664 -0.36621094 0 0 0 0
0.033050537 0.075805664 -0.36621094 0 0 0 0
0.034881592 0.07598877 -0.36743164 0 0 0 0
0.036590576 0.07598877 -0.36743164 0 0 0 0
0.038421631 0.07623291 -0.3684082 0 0 0 0
0.088928223 0.083068848 -0.40136719 0 0 0 0
0.086975098 0.079528809 -0.38427734 0 0 0 0
0.088317871 0.079162598 -0.38232422 0 0 0 0
0.090087891 0.079162598 -0.38232422 0 0 0 0
0.091674805 0.078918457 -0.38134766 0 0 0 0
0.093444824 0.078918457 -0.38134766 0 0 0 0
0.094970703 0.078735352 -0.38037109 0 0 0 0
0.096740723 0.078735352 -0.38037109 0 0 0 0
0.098266602 0.078491211 -0.37939453 0 0 0 0
0.10009766 0.078491211 -0.37939453 0 0 0 0
0.10186768 0.078491211 -0.37939453 0 0 0 0
0.10333252 0.078308105 -0.37841797 0 0 0 0
0.10510254 0.078308105 -0.37841797 0 0 0 0
0.10693359 0.078308105 -0.37841797 0 0 0 0
0.10870361 0.078308105 -0.37841797 0 0 0 0
0.11077881 0.078491211 -0.37939453 0 0 0 0
0.11254883 0.078491211 -0.37939453 0 0 0 0
0.11431885 0.078491211 -0.37939453 0 0 0 0
0.11639404 0.078735352 -0.38037109 0 0 0 0
0.11816406 0.078735352 -0.38037109 0 0 0 0
0.12030029 0.078918457 -0.38134766 0 0 0 0
0.12207031 0.078918457 -0.38134766 0 0 0 0
0.12420654 0.079162598 -0.38232422 0 0 0 0
0.12597656 0.079162598 -0.38232422 0 0 0 0
0.12805176 0.079345703 -0.38330078 0 0 0 0
0.12988281 0.079345703 -0.38330078 0 0 0 0
0.13171387 0.079345703 -0.38330078 0 0 0 0
0.13342285 0.079345703 -0.38330078 0 0 0 0
0.13525391 0.079345703 -0.38330078 0 0 0 0
0.13708496 0.079345703 -0.38330078 0 0 0 0
0.13891602 0.079345703 -0.38330078 0 0 0 0
0.140625 0.079345703 -0.38330078 0 0 0 0
0.14245605 0.079345703 -0.38330078 0 0 0 0
0.14428711 0.079345703 -0.38330078 0 0 0 0
0.14562988 0.079162598 -0.38232422 0 0 0 0
0.14746094 0.079162598 -0.38232422 0 0 0 0
-0.02444458 0.062927246 -0.31103516 0 0 0 0
-0.02305603 0.063110352 -0.31201172 0 0 0 0
-0.021591187 0.063110352 -0.31201172 0 0 0 0
-0.020126343 0.063110352 -0.31201172 0 0 0 0
-0.018661499 0.063110352 -0.31201172 0 0 0 0
-0.017196655 0.063110352 -0.31201172 0 0 0 0
-0.015731812 0.063110352 -0.31201172 0 0 0 0
-0.014274597 0.063110352 -0.31201172 0 0 0 0
-0.012809753 0.063110352 -0.31201172 0 0 0 0
-0.01134491 0.063110352 -0.31201172 0 0 0 0
-0.0098800659 0.063110352 -0.31201172 0 0 0 0
-0.0084152222 0.063110352 -0.31201172 0 0 0 0
-0.0069541931 0.063110352 -0.31201172 0 0 0 0
-0.0054893494 0.063110352 -0.31201172 0 0 0 0
-0.0040245056 0.063110352 -0.31201172 0 0 0 0
-0.0025615692 0.063110352 -0.31201172 0 0 0 0
-0.0010976791 0.063110352 -0.31201172 0 0 0 0
0.00036621094 0.063110352 -0.31201172 0 0 0 0
0.001830101 0.063110352 -0.31201172 0 0 0 0
0.0032939911 0.063110352 -0.31201172 0 0 0 0
0.0073204041 0.074279785 -0.36743164 0 0 0 0
0.0090179443 0.07409668 -0.36621094 0 0 0 0
0.010734558 0.07409668 -0.36621094 0 0 0 0
0.012451172 0.07409668 -0.36621094 0 0 0 0
0.014175415 0.07409668 -0.36621094 0 0 0 0
0.015884399 0.07409668 -0.36621094 0 0 0 0
0.017608643 0.07409668 -0.36621094 0 0 0 0
0.019317627 0.07409668 -0.36621094 0 0 0 0
0.02104187 0.07409668 -0.36621094 0 0 0 0
0.022766113 0.07409668 -0.36621094 0 0 0 0
0.024414062 0.073913574 -0.36523438 0 0 0 0
0.026123047 0.073913574 -0.36523438 0 0 0 0
0.02784729 0.073913574 -0.36523438 0 0 0 0
0.029556274 0.073913574 -0.36523438 0 0 0 0
0.03125 0.073913574 -0.36523438 0 0 0 0
0.033050537 0.07409668 -0.36621094 0 0 0 0
0.034790039 0.07409668 -0.36621094 0 0 0 0
0.036590576 0.074279785 -0.36743164 0 0 0 0
0.038421631 0.074523926 -0.3684082 0 0 0 0
0.085144043 0.077758789 -0.38427734 0 0 0 0
0.086730957 0.077514648 -0.38330078 0 0 0 0
0.088562012 0.077514648 -0.38330078 0 0 0 0
0.090087891 0.077331543 -0.38232422 0 0 0 0
0.091674805 0.077148438 -0.38134766 0 0 0 0
0.093444824 0.077148438 -0.38134766 0 0 0 0
0.094970703 0.076904297 -0.38037109 0 0 0 0
0.096496582 0.076721191 -0.37939453 0 0 0 0
0.098266602 0.076721191 -0.37939453 0 0 0 0
0.09979248 0.076538086 -0.37841797 0 0 0 0
0.1015625 0.076538086 -0.37841797 0 0 0 0
0.10333252 0.076538086 -0.37841797 0 0 0 0
0.10510254 0.076538086 -0.37841797 0 0 0 0
0.10693359 0.076538086 -0.37841797 0 0 0 0
0.10870361 0.076538086 -0.37841797 0 0 0 0
0.11047363 0.076538086 -0.37841797 0 0 0 0
0.11224365 0.076538086 -0.37841797 0 0 0 0
0.11401367 0.076538086 -0.37841797 0 0 0 0
0.11578369 0.076538086 -0.37841797 0 0 0 0
0.11785889 0.076721191 -0.37939453 0 0 0 0
0.11962891 0.076721191 -0.37939453 0 0 0 0
0.12139893 0.076721191 -0.37939453 0 0 0 0
0.12353516 0.076904297 -0.38037109 0 0 0 0
0.12561035 0.077148438 -0.38134766 0 0 0 0
0.12768555 0.077331543 -0.38232422 0 0 0 0
0.1295166 0.077331543 -0.38232422 0 0 0 0
0.13171387 0.077514648 -0.38330078 0 0 0 0
0.13342285 0.077514648 -0.38330078 0 0 0 0
0.13525391 0.077514648 -0.38330078 0 0 0 0
0.13708496 0.077514648 -0.38330078 0 0 0 0
0.13891602 0.077514648 -0.38330078 0 0 0 0
0.140625 0.077514648 -0.38330078 0 0 0 0
0.14245605 0.077514648 -0.38330078 0 0 0 0
0.14428711 0.077514648 -0.38330078 0 0 0 0
0.14611816 0.077514648 -0.38330078 0 0 0 0
-0.025894165 0.06149292 -0.31103516 0 0 0 0
-0.02444458 0.06149292 -0.31103516 0 0 0 0
-0.022979736 0.06149292 -0.31103516 0 0 0 0
-0.021591187 0.061676025 -0.31201172 0 0 0 0
-0.020126343 0.061676025 -0.31201172 0 0 0 0
-0.018661499 0.061676025 -0.31201172 0 0 0 0
-0.017196655 0.061676025 -0.31201172 0 0 0 0
-0.015731812 0.061676025 -0.31201172 0 0 0 0
-0.014274597 0.061676025 -0.31201172 0 0 0 0
-0.012763977 0.06149292 -0.31103516 0 0 0 0
-0.011306763 0.06149292 -0.31103516 0 0 0 0
-0.0098495483 0.06149292 -0.31103516 0 0 0 0
-0.0084152222 0.061676025 -0.31201172 0 0 0 0
-0.0069541931 0.061676025 -0.31201172 0 0 0 0
-0.0054893494 0.061676025 -0.31201172 0 0 0 0
-0.0040245056 0.061676025 -0.31201172 0 0 0 0
-0.0025615692 0.061676025 -0.31201172 0 0 0 0
-0.0010976791 0.061676025 -0.31201172 0 0 0 0
0.00036621094 0.061676025 -0.31201172 0 0 0 0
0.001830101 0.061676025 -0.31201172 0 0 0 0
0.0032939911 0.061676025 -0.31201172 0 0 0 0
0.0047569275 0.061676025 -0.31201172 0 0 0 0
0.0090179443 0.072387695 -0.36621094 0 0 0 0
0.010734558 0.072387695 -0.36621094 0 0 0 0
0.012451172 0.072387695 -0.36621094 0 0 0 0
0.014175415 0.072387695 -0.36621094 0 0 0 0
0.015884399 0.072387695 -0.36621094 0 0 0 0
0.017608643 0.072387695 -0.36621094 0 0 0 0
0.019317627 0.072387695 -0.36621094 0 0 0 0
0.020980835 0.07220459 -0.36523438 0 0 0 0
0.022705078 0.07220459 -0.36523438 0 0 0 0
0.024414062 0.07220459 -0.36523438 0 0 0 0
0.026123047 0.07220459 -0.36523438 0 0 0 0
0.02784729 0.07220459 -0.36523438 0 0 0 0
0.029556274 0.07220459 -0.36523438 0 0 0 0
0.03125 0.07220459 -0.36523438 0 0 0 0
0.033050537 0.072387695 -0.36621094 0 0 0 0
0.034790039 0.072387695 -0.36621094 0 0 0 0
0.036590576 0.072570801 -0.36743164 0 0 0 0
0.083557129 0.076171875 -0.38549805 0 0 0 0
0.085388184 0.076171875 -0.38549805 0 0 0 0
0.086975098 0.075927734 -0.38427734 0 0 0 0
0.088562012 0.075744629 -0.38330078 0 0 0 0
0.090087891 0.075561523 -0.38232422 0 0 0 0
0.091674805 0.075378418 -0.38134766 0 0 0 0
0.093200684 0.075134277 -0.38037109 0 0 0 0
0.094970703 0.075134277 -0.38037109 0 0 0 0
0.096496582 0.074951172 -0.37939453 0 0 0 0
0.098266602 0.074951172 -0.37939453 0 0 0 0
0.09979248 0.074768066 -0.37841797 0 0 0 0
0.1015625 0.074768066 -0.37841797 0 0 0 0
0.10308838 0.074584961 -0.37744141 0 0 0 0
0.1048584 0.074584961 -0.37744141 0 0 0 0
0.10662842 0.074584961 -0.37744141 0 0 0 0
0.10839844 0.074584961 -0.37744141 0 0 0 0
0.11016846 0.074584961 -0.37744141 0 0 0 0
0.11193848 0.074584961 -0.37744141 0 0 0 0
0.1137085 0.074584961 -0.37744141 0 0 0 0
0.11547852 0.074584961 -0.37744141 0 0 0 0
0.11724854 0.074584961 -0.37744141 0 0 0 0
0.11901855 0.074584961 -0.37744141 0 0 0 0
0.12078857 0.074584961 -0.37744141 0 0 0 0
0.12322998 0.074951172 -0.37939453 0 0 0 0
0.12524414 0.075134277 -0.38037109 0 0 0 0
0.12744141 0.075378418 -0.38134766 0 0 0 0
0.1295166 0.075561523 -0.38232422 0 0 0 0
0.13134766 0.075561523 -0.38232422 0 0 0 0
0.13342285 0.075744629 -0.38330078 0 0 0 0
0.13525391 0.075744629 -0.38330078 0 0 0 0
0.13708496 0.075744629 -0.38330078 0 0 0 0
0.13891602 0.075744629 -0.38330078 0 0 0 0
0.140625 0.075744629 -0.38330078 0 0 0 0
0.14245605 0.075744629 -0.38330078 0 0 0 0
-0.027267456 0.059814453 -0.31005859 0 0 0 0
-0.025817871 0.059814453 -0.31005859 0 0 0 0
-0.02444458 0.060028076 -0.31103516 0 0 0 0
-0.022979736 0.060028076 -0.31103516 0 0 0 0
-0.021514893 0.060028076 -0.31103516 0 0 0 0
-0.020065308 0.060028076 -0.31103516 0 0 0 0
-0.018600464 0.060028076 -0.31103516 0 0 0 0
-0.01713562 0.060028076 -0.31103516 0 0 0 0
-0.015686035 0.060028076 -0.31103516 0 0 0 0
-0.014228821 0.060028076 -0.31103516 0 0 0 0
-0.012763977 0.060028076 -0.31103516 0 0 0 0
-0.011306763 0.060028076 -0.31103516 0 0 0 0
-0.0098495483 0.060028076 -0.31103516 0 0 0 0
-0.0083847046 0.060028076 -0.31103516 0 0 0 0
-0.0069313049 0.060028076 -0.31103516 0 0 0 0
-0.0054702759 0.060028076 -0.31103516 0 0 0 0
-0.0040130615 0.060028076 -0.31103516 0 0 0 0
-0.0025520325 0.060028076 -0.31103516 0 0 0 0
-0.0010938644 0.060028076 -0.31103516 0 0 0 0
0.00036501884 0.060028076 -0.31103516 0 0 0 0
0.001830101 0.060211182 -0.31201172 0 0 0 0
0.0032939911 0.060211182 -0.31201172 0 0 0 0
0.0047569275 0.060211182 -0.31201172 0 0 0 0
0.0062217712 0.060211182 -0.31201172 0 0 0 0
0.010734558 0.070678711 -0.36621094 0 0 0 0
0.012451172 0.070678711 -0.36621094 0 0 0 0
0.014175415 0.070678711 -0.36621094 0 0 0 0
0.015884399 0.070678711 -0.36621094 0 0 0 0
0.017608643 0.070678711 -0.36621094 0 0 0 0
0.019317627 0.070678711 -0.36621094 0 0 0 0
0.020980835 0.07043457 -0.36523438 0 0 0 0
0.022705078 0.07043457 -0.36523438 0 0 0 0
0.024353027 0.070251465 -0.36425781 0 0 0 0
0.026062012 0.070251465 -0.36425781 0 0 0 0
0.027770996 0.070251465 -0.36425781 0 0 0 0
0.02947998 0.070251465 -0.36425781 0 0 0 0
0.03125 0.07043457 -0.36523438 0 0 0 0
0.033050537 0.070678711 -0.36621094 0 0 0 0
0.034790039 0.070678711 -0.36621094 0 0 0 0
0.036590576 0.070861816 -0.36743164 0 0 0 0
0.038421631 0.071044922 -0.3684082 0 0 0 0
0.082214355 0.074707031 -0.38745117 0 0 0 0
0.08380127 0.074523926 -0.38647461 0 0 0 0
0.085388184 0.07434082 -0.38549805 0 0 0 0
0.086975098 0.074157715 -0.38427734 0 0 0 0
0.088317871 0.073730469 -0.38232422 0 0 0 0
0.090087891 0.073730469 -0.38232422 0 0 0 0
0.091674805 0.073547363 -0.38134766 0 0 0 0
0.093200684 0.073364258 -0.38037109 0 0 0 0
0.094726562 0.073181152 -0.37939453 0 0 0 0
0.096496582 0.073181152 -0.37939453 0 0 0 0
0.098022461 0.072998047 -0.37841797 0 0 0 0
0.09979248 0.072998047 -0.37841797 0 0 0 0
0.10131836 0.072814941 -0.37744141 0 0 0 0
0.10308838 0.072814941 -0.37744141 0 0 0 0
0.1048584 0.072814941 -0.37744141 0 0 0 0
0.10662842 0.072814941 -0.37744141 0 0 0 0
0.10809326 0.072570801 -0.37646484 0 0 0 0
0.10986328 0.072570801 -0.37646484 0 0 0 0
0.1116333 0.072570801 -0.37646484 0 0 0 0
0.11340332 0.072570801 -0.37646484 0 0 0 0
0.11517334 0.072570801 -0.37646484 0 0 0 0
0.11663818 0.072387695 -0.37524414 0 0 0 0
0.1184082 0.072387695 -0.37524414 0 0 0 0
0.12011719 0.072387695 -0.37524414 0 0 0 0
0.12286377 0.072998047 -0.37841797 0 0 0 0
0.12524414 0.073364258 -0.38037109 0 0 0 0
0.12744141 0.073547363 -0.38134766 0 0 0 0
0.1295166 0.073730469 -0.38232422 0 0 0 0
0.13134766 0.073730469 -0.38232422 0 0 0 0
0.13342285 0.073974609 -0.38330078 0 0 0 0
0.13525391 0.073974609 -0.38330078 0 0 0 0
0.13708496 0.073974609 -0.38330078 0 0 0 0
-0.030273438 0.058563232 -0.31103516 0 0 0 0
-0.028717041 0.058380127 -0.31005859 0 0 0 0
-0.027267456 0.058380127 -0.31005859 0 0 0 0
-0.025817871 0.058380127 -0.31005859 0 0 0 0
-0.024353027 0.058380127 -0.31005859 0 0 0 0
-0.022979736 0.058563232 -0.31103516 0 0 0 0
-0.021514893 0.058563232 -0.31103516 0 0 0 0
-0.020065308 0.058563232 -0.31103516 0 0 0 0
-0.018600464 0.058563232 -0.31103516 0 0 0 0
-0.01713562 0.058563232 -0.31103516 0 0 0 0
-0.015686035 0.058563232 -0.31103516 0 0 0 0
-0.014228821 0.058563232 -0.31103516 0 0 0 0
-0.01272583 0.058380127 -0.31005859 0 0 0 0
-0.011268616 0.058380127 -0.31005859 0 0 0 0
-0.0098190308 0.058380127 -0.31005859 0 0 0 0
-0.0083618164 0.058380127 -0.31005859 0 0 0 0
-0.0069084167 0.058380127 -0.31005859 0 0 0 0
-0.0054550171 0.058380127 -0.31005859 0 0 0 0
-0.0040130615 0.058563232 -0.31103516 0 0 0 0
-0.0025520325 0.058563232 -0.31103516 0 0 0 0
-0.0010938644 0.058563232 -0.31103516 0 0 0 0
0.00036501884 0.058563232 -0.31103516 0 0 0 0
0.001824379 0.058563232 -0.31103516 0 0 0 0
0.003282547 0.058563232 -0.31103516 0 0 0 0
0.0047569275 0.058746338 -0.31201172 0 0 0 0
0.0062217712 0.058746338 -0.31201172 0 0 0 0
0.007686615 0.058746338 -0.31201172 0 0 0 0
0.010765076 0.069152832 -0.36743164 0 0 0 0
0.012451172 0.068908691 -0.36621094 0 0 0 0
0.014175415 0.068908691 -0.36621094 0 0 0 0
0.015884399 0.068908691 -0.36621094 0 0 0 0
0.017608643 0.068908691 -0.36621094 0 0 0 0
0.019271851 0.068725586 -0.36523438 0 0 0 0
0.020935059 0.06854248 -0.36425781 0 0 0 0
0.022644043 0.06854248 -0.36425781 0 0 0 0
0.024276733 0.068359375 -0.36328125 0 0 0 0
0.025985718 0.068359375 -0.36328125 0 0 0 0
0.027694702 0.068359375 -0.36328125 0 0 0 0
0.02947998 0.06854248 -0.36425781 0 0 0 0
0.03125 0.068725586 -0.36523438 0 0 0 0
0.033050537 0.068908691 -0.36621094 0 0 0 0
0.034790039 0.068908691 -0.36621094 0 0 0 0
0.036590576 0.069152832 -0.36743164 0 0 0 0
0.038421631 0.069335938 -0.3684082 0 0 0 0
0.081970215 0.072692871 -0.38647461 0 0 0 0
0.08380127 0.072692871 -0.38647461 0 0 0 0
0.085144043 0.07232666 -0.38427734 0 0 0 0
0.086730957 0.072143555 -0.38330078 0 0 0 0
0.088317871 0.071960449 -0.38232422 0 0 0 0
0.08984375 0.071777344 -0.38134766 0 0 0 0
0.091674805 0.071777344 -0.38134766 0 0 0 0
0.093200684 0.071594238 -0.38037109 0 0 0 0
0.094726562 0.071411133 -0.37939453 0 0 0 0
0.096496582 0.071411133 -0.37939453 0 0 0 0
0.098022461 0.071228027 -0.37841797 0 0 0 0
0.09979248 0.071228027 -0.37841797 0 0 0 0
0.10131836 0.071044922 -0.37744141 0 0 0 0
0.10308838 0.071044922 -0.37744141 0 0 0 0
0.1048584 0.071044922 -0.37744141 0 0 0 0
0.10632324 0.070800781 -0.37646484 0 0 0 0
0.10809326 0.070800781 -0.37646484 0 0 0 0
0.10986328 0.070800781 -0.37646484 0 0 0 0
0.11132812 0.070617676 -0.37524414 0 0 0 0
0.11309814 0.070617676 -0.37524414 0 0 0 0
0.11456299 0.07043457 -0.37426758 0 0 0 0
0.11633301 0.07043457 -0.37426758 0 0 0 0
0.11773682 0.070251465 -0.37329102 0 0 0 0
0.11950684 0.070251465 -0.37329102 0 0 0 0
0.12030029 0.069702148 -0.37036133 0 0 0 0
0.1217041 0.069519043 -0.36938477 0 0 0 0
-0.031738281 0.057098389 -0.31103516 0 0 0 0
-0.030181885 0.056915283 -0.31005859 0 0 0 0
-0.028717041 0.056915283 -0.31005859 0 0 0 0
-0.027267456 0.056915283 -0.31005859 0 0 0 0
-0.025817871 0.056915283 -0.31005859 0 0 0 0
-0.024353027 0.056915283 -0.31005859 0 0 0 0
-0.022903442 0.056915283 -0.31005859 0 0 0 0
-0.021453857 0.056915283 -0.31005859 0 0 0 0
-0.019989014 0.056915283 -0.31005859 0 0 0 0
-0.018539429 0.056915283 -0.31005859 0 0 0 0
-0.017089844 0.056915283 -0.31005859 0 0 0 0
-0.015625 0.056915283 -0.31005859 0 0 0 0
-0.014183044 0.056915283 -0.31005859 0 0 0 0
-0.01272583 0.056915283 -0.31005859 0 0 0 0
-0.011268616 0.056915283 -0.31005859 0 0 0 0
-0.0098190308 0.056915283 -0.31005859 0 0 0 0
-0.0083618164 0.056915283 -0.31005859 0 0 0 0
-0.0069084167 0.056915283 -0.31005859 0 0 0 0
-0.0054550171 0.056915283 -0.31005859 0 0 0 0
-0.0039978027 0.056915283 -0.31005859 0 0 0 0
-0.0025444031 0.056915283 -0.31005859 0 0 0 0
-0.0010900497 0.056915283 -0.31005859 0 0 0 0
0.00036501884 0.057098389 -0.31103516 0 0 0 0
0.001824379 0.057098389 -0.31103516 0 0 0 0
0.003282547 0.057098389 -0.31103516 0 0 0 0
0.0047416687 0.057098389 -0.31103516 0 0 0 0
0.0062026978 0.057098389 -0.31103516 0 0 0 0
0.007686615 0.057281494 -0.31201172 0 0 0 0
0.0091171265 0.057098389 -0.31103516 0 0 0 0
0.012451172 0.067199707 -0.36621094 0 0 0 0
0.014175415 0.067199707 -0.36621094 0 0 0 0
0.015884399 0.067199707 -0.36621094 0 0 0 0
0.017608643 0.067199707 -0.36621094 0 0 0 0
0.019271851 0.067016602 -0.36523438 0 0 0 0
0.020935059 0.066833496 -0.36425781 0 0 0 0
0.022567749 0.066650391 -0.36328125 0 0 0 0
0.024215698 0.066467285 -0.36230469 0 0 0 0
0.025909424 0.066467285 -0.36230469 0 0 0 0
0.027694702 0.066650391 -0.36328125 0 0 0 0
0.029388428 0.066650391 -0.36328125 0 0 0 0
0.031188965 0.066833496 -0.36425781 0 0 0 0
0.032958984 0.067016602 -0.36523438 0 0 0 0
0.034790039 0.067199707 -0.36621094 0 0 0 0
0.036590576 0.067382812 -0.36743164 0 0 0 0
0.038330078 0.067382812 -0.36743164 0 0 0 0
0.080383301 0.071105957 -0.38745117 0 0 0 0
0.081970215 0.070922852 -0.38647461 0 0 0 0
0.083557129 0.070739746 -0.38549805 0 0 0 0
0.085144043 0.070556641 -0.38427734 0 0 0 0
0.086730957 0.070373535 -0.38330078 0 0 0 0
0.088317871 0.07019043 -0.38232422 0 0 0 0
0.08984375 0.070007324 -0.38134766 0 0 0 0
0.091430664 0.069824219 -0.38037109 0 0 0 0
0.093200684 0.069824219 -0.38037109 0 0 0 0
0.094726562 0.069641113 -0.37939453 0 0 0 0
0.096252441 0.069458008 -0.37841797 0 0 0 0
0.098022461 0.069458008 -0.37841797 0 0 0 0
0.09954834 0.069274902 -0.37744141 0 0 0 0
0.10131836 0.069274902 -0.37744141 0 0 0 0
0.10308838 0.069274902 -0.37744141 0 0 0 0
0.10455322 0.069030762 -0.37646484 0 0 0 0
0.10632324 0.069030762 -0.37646484 0 0 0 0
0.10809326 0.069030762 -0.37646484 0 0 0 0
0.10955811 0.068847656 -0.37524414 0 0 0 0
0.11102295 0.068664551 -0.37426758 0 0 0 0
0.11279297 0.068664551 -0.37426758 0 0 0 0
0.11425781 0.068481445 -0.37329102 0 0 0 0
0.11566162 0.06829834 -0.37231445 0 0 0 0
0.11712646 0.068115234 -0.37133789 0 0 0 0
0.11883545 0.068115234 -0.37133789 0 0 0 0
0.11993408 0.067749023 -0.36938477 0 0 0 0
0.12133789 0.067565918 -0.3684082 0 0 0 0
0.12237549 0.067199707 -0.36621094 0 0 0 0
-0.033172607 0.055633545 -0.31103516 0 0 0 0
-0.031738281 0.055633545 -0.31103516 0 0 0 0
-0.030181885 0.055450439 -0.31005859 0 0 0 0
-0.028717041 0.055450439 -0.31005859 0 0 0 0
-0.027267456 0.055450439 -0.31005859 0 0 0 0
-0.025817871 0.055450439 -0.31005859 0 0 0 0
-0.024353027 0.055450439 -0.31005859 0 0 0 0
-0.022903442 0.055450439 -0.31005859 0 0 0 0
-0.021453857 0.055450439 -0.31005859 0 0 0 0
-0.019989014 0.055450439 -0.31005859 0 0 0 0
-0.018539429 0.055450439 -0.31005859 0 0 0 0
-0.017089844 0.055450439 -0.31005859 0 0 0 0
-0.015625 0.055450439 -0.31005859 0 0 0 0
-0.014183044 0.055450439 -0.31005859 0 0 0 0
-0.01272583 0.055450439 -0.31005859 0 0 0 0
-0.011268616 0.055450439 -0.31005859 0 0 0 0
-0.0098190308 0.055450439 -0.31005859 0 0 0 0
-0.0083618164 0.055450439 -0.31005859 0 0 0 0
-0.0069084167 0.055450439 -0.31005859 0 0 0 0
-0.0054550171 0.055450439 -0.31005859 0 0 0 0
-0.0039978027 0.055450439 -0.31005859 0 0 0 0
-0.0025444031 0.055450439 -0.31005859 0 0 0 0
-0.0010900497 0.055450439 -0.31005859 0 0 0 0
0.00036382675 0.055450439 -0.31005859 0 0 0 0
0.001824379 0.055633545 -0.31103516 0 0 0 0
0.003282547 0.055633545 -0.31103516 0 0 0 0
0.0047416687 0.055633545 -0.31103516 0 0 0 0
0.0062026978 0.055633545 -0.31103516 0 0 0 0
0.0076599121 0.055633545 -0.31103516 0 0 0 0
0.0091171265 0.055633545 -0.31103516 0 0 0 0
0.010574341 0.055633545 -0.31103516 0 0 0 0
0.014175415 0.065490723 -0.36621094 0 0 0 0
0.015884399 0.065490723 -0.36621094 0 0 0 0
0.017608643 0.065490723 -0.36621094 0 0 0 0
0.019271851 0.065307617 -0.36523438 0 0 0 0
0.020812988 0.064758301 -0.36230469 0 0 0 0
0.022445679 0.064575195 -0.36132812 0 0 0 0
0.024139404 0.064575195 -0.36132812 0 0 0 0
0.02583313 0.064575195 -0.36132812 0 0 0 0
0.027603149 0.064758301 -0.36230469 0 0 0 0
0.029388428 0.064941406 -0.36328125 0 0 0 0
0.031188965 0.065124512 -0.36425781 0 0 0 0
0.032958984 0.065307617 -0.36523438 0 0 0 0
0.034790039 0.065490723 -0.36621094 0 0 0 0
0.036590576 0.065673828 -0.36743164 0 0 0 0
0.038330078 0.065673828 -0.36743164 0 0 0 0
0.080383301 0.069274902 -0.38745117 0 0 0 0
0.081787109 0.068908691 -0.38549805 0 0 0 0
0.083557129 0.068908691 -0.38549805 0 0 0 0
0.085144043 0.068725586 -0.38427734 0 0 0 0
0.086730957 0.06854248 -0.38330078 0 0 0 0
0.088317871 0.068359375 -0.38232422 0 0 0 0
0.08984375 0.06817627 -0.38134766 0 0 0 0
0.091430664 0.067993164 -0.38037109 0 0 0 0
0.092956543 0.067810059 -0.37939453 0 0 0 0
0.094726562 0.067810059 -0.37939453 0 0 0 0
0.096252441 0.067626953 -0.37841797 0 0 0 0
0.098022461 0.067626953 -0.37841797 0 0 0 0
0.09979248 0.067626953 -0.37841797 0 0 0 0
0.10131836 0.067443848 -0.37744141 0 0 0 0
0.10308838 0.067443848 -0.37744141 0 0 0 0
0.10455322 0.067321777 -0.37646484 0 0 0 0
0.10632324 0.067321777 -0.37646484 0 0 0 0
0.10778809 0.067138672 -0.37524414 0 0 0 0
0.10955811 0.067138672 -0.37524414 0 0 0 0
0.11102295 0.066955566 -0.37426758 0 0 0 0
0.11248779 0.066772461 -0.37329102 0 0 0 0
0.11395264 0.066589355 -0.37231445 0 0 0 0
0.11535645 0.06640625 -0.37133789 0 0 0 0
0.11682129 0.066223145 -0.37036133 0 0 0 0
0.1182251 0.066040039 -0.36938477 0 0 0 0
0.11962891 0.065856934 -0.3684082 0 0 0 0
0.12103271 0.065673828 -0.36743164 0 0 0 0
0.12207031 0.065307617 -0.36523438 0 0 0 0
0.1237793 0.065307617 -0.36523438 0 0 0 0
-0.034637451 0.054168701 -0.31103516 0 0 0 0
-0.033172607 0.054168701 -0.31103516 0 0 0 0
-0.031738281 0.054168701 -0.31103516 0 0 0 0
-0.030181885 0.054016113 -0.31005859 0 0 0 0
-0.028717041 0.054016113 -0.31005859 0 0 0 0
-0.027267456 0.054016113 -0.31005859 0 0 0 0
-0.025817871 0.054016113 -0.31005859 0 0 0 0
-0.024353027 0.054016113 -0.31005859 0 0 0 0
-0.022903442 0.054016113 -0.31005859 0 0 0 0
-0.021453857 0.054016113 -0.31005859 0 0 0 0
-0.019989014 0.054016113 -0.31005859 0 0 0 0
-0.018539429 0.054016113 -0.31005859 0 0 0 0
-0.017089844 0.054016113 -0.31005859 0 0 0 0
-0.015625 0.054016113 -0.31005859 0 0 0 0
-0.014137268 0.053833008 -0.30908203 0 0 0 0
-0.012687683 0.053833008 -0.30908203 0 0 0 0
-0.011230469 0.053833008 -0.30908203 0 0 0 0
-0.0097808838 0.053833008 -0.30908203 0 0 0 0
-0.0083312988 0.053833008 -0.30908203 0 0 0 0
-0.0068855286 0.053833008 -0.30908203 0 0 0 0
-0.0054359436 0.053833008 -0.30908203 0 0 0 0
-0.0039863586 0.053833008 -0.30908203 0 0 0 0
-0.0025444031 0.054016113 -0.31005859 0 0 0 0
-0.0010900497 0.054016113 -0.31005859 0 0 0 0
0.00036382675 0.054016113 -0.31005859 0 0 0 0
0.0018177032 0.054016113 -0.31005859 0 0 0 0
0.003282547 0.054168701 -0.31103516 0 0 0 0
0.0047416687 0.054168701 -0.31103516 0 0 0 0
0.0062026978 0.054168701 -0.31103516 0 0 0 0
0.0076599121 0.054168701 -0.31103516 0 0 0 0
0.0091171265 0.054168701 -0.31103516 0 0 0 0
0.010574341 0.054168701 -0.31103516 0 0 0 0
0.012039185 0.054168701 -0.31103516 0 0 0 0
0.019165039 0.063232422 -0.36328125 0 0 0 0
0.020645142 0.062561035 -0.359375 0 0 0 0
0.022323608 0.062561035 -0.359375 0 0 0 0
0.024078369 0.062744141 -0.36035156 0 0 0 0
0.025772095 0.062744141 -0.36035156 0 0 0 0
0.027526855 0.062927246 -0.36132812 0 0 0 0
0.029388428 0.063232422 -0.36328125 0 0 0 0
0.031188965 0.063415527 -0.36425781 0 0 0 0
0.032958984 0.063598633 -0.36523438 0 0 0 0
0.034790039 0.063781738 -0.36621094 0 0 0 0
0.036590576 0.063964844 -0.36743164 0 0 0 0
0.062744141 0.064331055 -0.36938477 0 0 0 0
0.06451416 0.064331055 -0.36938477 0 0 0 0
0.066040039 0.064147949 -0.3684082 0 0 0 0
0.067993164 0.064331055 -0.36938477 0 0 0 0
0.080200195 0.067260742 -0.38647461 0 0 0 0
0.081542969 0.066955566 -0.38427734 0 0 0 0
0.083374023 0.066955566 -0.38427734 0 0 0 0
0.084960938 0.066772461 -0.38330078 0 0 0 0
0.086730957 0.066772461 -0.38330078 0 0 0 0
0.088317871 0.066589355 -0.38232422 0 0 0 0
0.08984375 0.06640625 -0.38134766 0 0 0 0
0.091430664 0.066223145 -0.38037109 0 0 0 0
0.092956543 0.066040039 -0.37939453 0 0 0 0
0.094726562 0.066040039 -0.37939453 0 0 0 0
0.096252441 0.065856934 -0.37841797 0 0 0 0
0.098022461 0.065856934 -0.37841797 0 0 0 0
0.09979248 0.065856934 -0.37841797 0 0 0 0
0.10131836 0.065673828 -0.37744141 0 0 0 0
0.10308838 0.065673828 -0.37744141 0 0 0 0
0.10455322 0.065551758 -0.37646484 0 0 0 0
0.10632324 0.065551758 -0.37646484 0 0 0 0
0.10778809 0.065368652 -0.37524414 0 0 0 0
0.10931396 0.065185547 -0.37426758 0 0 0 0
0.11071777 0.065002441 -0.37329102 0 0 0 0
0.11218262 0.064819336 -0.37231445 0 0 0 0
0.11364746 0.06463623 -0.37133789 0 0 0 0
0.11505127 0.064453125 -0.37036133 0 0 0 0
0.11645508 0.064331055 -0.36938477 0 0 0 0
0.11791992 0.064147949 -0.3684082 0 0 0 0
0.11932373 0.063964844 -0.36743164 0 0 0 0
0.1206665 0.063781738 -0.36621094 0 0 0 0
0.12207031 0.063598633 -0.36523438 0 0 0 0
0.12347412 0.063415527 -0.36425781 0 0 0 0
0.12512207 0.063415527 -0.36425781 0 0 0 0
-0.034637451 0.052734375 -0.31103516 0 0 0 0
-0.033172607 0.052734375 -0.31103516 0 0 0 0
-0.031738281 0.052734375 -0.31103516 0 0 0 0
-0.030181885 0.05255127 -0.31005859 0 0 0 0
-0.028717041 0.05255127 -0.31005859 0 0 0 0
-0.027267456 0.05255127 -0.31005859 0 0 0 0
-0.025817871 0.05255127 -0.31005859 0 0 0 0
-0.024353027 0.05255127 -0.31005859 0 0 0 0
-0.022903442 0.05255127 -0.31005859 0 0 0 0
-0.021453857 0.05255127 -0.31005859 0 0 0 0
-0.019927979 0.052368164 -0.30908203 0 0 0 0
-0.018478394 0.052368164 -0.30908203 0 0 0 0
-0.017028809 0.052368164 -0.30908203 0 0 0 0
-0.015586853 0.052368164 -0.30908203 0 0 0 0
-0.014137268 0.052368164 -0.30908203 0 0 0 0
-0.012687683 0.052368164 -0.30908203 0 0 0 0
-0.011230469 0.052368164 -0.30908203 0 0 0 0
-0.0097808838 0.052368164 -0.30908203 0 0 0 0
-0.0083312988 0.052368164 -0.30908203 0 0 0 0
-0.0068855286 0.052368164 -0.30908203 0 0 0 0
-0.0054359436 0.052368164 -0.30908203 0 0 0 0
-0.0039863586 0.052368164 -0.30908203 0 0 0 0
-0.0025367737 0.052368164 -0.30908203 0 0 0 0
-0.0010900497 0.05255127 -0.31005859 0 0 0 0
0.00036382675 0.05255127 -0.31005859 0 0 0 0
0.0018177032 0.05255127 -0.31005859 0 0 0 0
0.0032730103 0.05255127 -0.31005859 0 0 0 0
0.0047264099 0.05255127 -0.31005859 0 0 0 0
0.0062026978 0.052734375 -0.31103516 0 0 0 0
0.0076599121 0.052734375 -0.31103516 0 0 0 0
0.0091171265 0.052734375 -0.31103516 0 0 0 0
0.010574341 0.052734375 -0.31103516 0 0 0 0
0.012039185 0.052734375 -0.31103516 0 0 0 0
0.01890564 0.06072998 -0.35839844 0 0 0 0
0.020584106 0.06072998 -0.35839844 0 0 0 0
0.022262573 0.06072998 -0.35839844 0 0 0 0
0.024017334 0.060882568 -0.359375 0 0 0 0
0.025772095 0.061065674 -0.36035156 0 0 0 0
0.027526855 0.061218262 -0.36132812 0 0 0 0
0.029388428 0.061553955 -0.36328125 0 0 0 0
0.031188965 0.061737061 -0.36425781 0 0 0 0
0.033050537 0.062072754 -0.36621094 0 0 0 0
0.034881592 0.062255859 -0.36743164 0 0 0 0
0.036590576 0.062255859 -0.36743164 0 0 0 0
0.061218262 0.062744141 -0.37036133 0 0 0 0
0.062744141 0.062561035 -0.36938477 0 0 0 0
0.06451416 0.062561035 -0.36938477 0 0 0 0
0.066223145 0.062561035 -0.36938477 0 0 0 0
0.06817627 0.062744141 -0.37036133 0 0 0 0
0.069885254 0.062744141 -0.37036133 0 0 0 0
0.081359863 0.064941406 -0.38330078 0 0 0 0
0.083129883 0.064941406 -0.38330078 0 0 0 0
0.084960938 0.064941406 -0.38330078 0 0 0 0
0.086486816 0.064758301 -0.38232422 0 0 0 0
0.08807373 0.06463623 -0.38134766 0 0 0 0
0.08984375 0.06463623 -0.38134766 0 0 0 0
0.091430664 0.064453125 -0.38037109 0 0 0 0
0.092956543 0.06427002 -0.37939453 0 0 0 0
0.094726562 0.06427002 -0.37939453 0 0 0 0
0.096496582 0.06427002 -0.37939453 0 0 0 0
0.098022461 0.064086914 -0.37841797 0 0 0 0
0.09979248 0.064086914 -0.37841797 0 0 0 0
0.1015625 0.064086914 -0.37841797 0 0 0 0
0.10308838 0.063903809 -0.37744141 0 0 0 0
0.1048584 0.063903809 -0.37744141 0 0 0 0
0.10632324 0.063781738 -0.37646484 0 0 0 0
0.10778809 0.063598633 -0.37524414 0 0 0 0
0.10931396 0.063415527 -0.37426758 0 0 0 0
0.11071777 0.063232422 -0.37329102 0 0 0 0
0.11187744 0.062927246 -0.37133789 0 0 0 0
0.11334229 0.062744141 -0.37036133 0 0 0 0
0.11474609 0.062561035 -0.36938477 0 0 0 0
0.1161499 0.062408447 -0.3684082 0 0 0 0
0.11755371 0.062255859 -0.36743164 0 0 0 0
0.11895752 0.062072754 -0.36621094 0 0 0 0
0.12036133 0.061920166 -0.36523438 0 0 0 0
0.12207031 0.061920166 -0.36523438 0 0 0 0
0.12347412 0.061737061 -0.36425781 0 0 0 0
0.12512207 0.061737061 -0.36425781 0 0 0 0
-0.036224365 0.051422119 -0.31201172 0 0 0 0
-0.034637451 0.051269531 -0.31103516 0 0 0 0
-0.033172607 0.051269531 -0.31103516 0 0 0 0
-0.031738281 0.051269531 -0.31103516 0 0 0 0
-0.030181885 0.051086426 -0.31005859 0 0 0 0
-0.028717041 0.051086426 -0.31005859 0 0 0 0
-0.027267456 0.051086426 -0.31005859 0 0 0 0
-0.025817871 0.051086426 -0.31005859 0 0 0 0
-0.024353027 0.051086426 -0.31005859 0 0 0 0
-0.022827148 0.050933838 -0.30908203 0 0 0 0
-0.021377563 0.050933838 -0.30908203 0 0 0 0
-0.019927979 0.050933838 -0.30908203 0 0 0 0
-0.018478394 0.050933838 -0.30908203 0 0 0 0
-0.017028809 0.050933838 -0.30908203 0 0 0 0
-0.015586853 0.050933838 -0.30908203 0 0 0 0
-0.014137268 0.050933838 -0.30908203 0 0 0 0
-0.012687683 0.050933838 -0.30908203 0 0 0 0
-0.011230469 0.050933838 -0.30908203 0 0 0 0
-0.0097808838 0.050933838 -0.30908203 0 0 0 0
-0.0083312988 0.050933838 -0.30908203 0 0 0 0
-0.0068855286 0.050933838 -0.30908203 0 0 0 0
-0.0054359436 0.050933838 -0.30908203 0 0 0 0
-0.0039863586 0.050933838 -0.30908203 0 0 0 0
-0.0025367737 0.050933838 -0.30908203 0 0 0 0
-0.0010871887 0.050933838 -0.30908203 0 0 0 0
0.00036382675 0.051086426 -0.31005859 0 0 0 0
0.0018177032 0.051086426 -0.31005859 0 0 0 0
0.0032730103 0.051086426 -0.31005859 0 0 0 0
0.0047264099 0.051086426 -0.31005859 0 0 0 0
0.0062026978 0.051269531 -0.31103516 0 0 0 0
0.0076599121 0.051269531 -0.31103516 0 0 0 0
0.0091171265 0.051269531 -0.31103516 0 0 0 0
0.010574341 0.051269531 -0.31103516 0 0 0 0
0.012039185 0.051269531 -0.31103516 0 0 0 0
0.013496399 0.051269531 -0.31103516 0 0 0 0
0.018798828 0.05871582 -0.35620117 0 0 0 0
0.020523071 0.058868408 -0.35717773 0 0 0 0
0.022262573 0.059020996 -0.35839844 0 0 0 0
0.024017334 0.059204102 -0.359375 0 0 0 0
0.025772095 0.059356689 -0.36035156 0 0 0 0
0.027603149 0.059692383 -0.36230469 0 0 0 0
0.029388428 0.059875488 -0.36328125 0 0 0 0
0.03125 0.060180664 -0.36523438 0 0 0 0
0.033050537 0.06036377 -0.36621094 0 0 0 0
0.034881592 0.060516357 -0.36743164 0 0 0 0
0.036712646 0.060699463 -0.3684082 0 0 0 0
0.059631348 0.061187744 -0.37133789 0 0 0 0
0.061218262 0.061035156 -0.37036133 0 0 0 0
0.062927246 0.061035156 -0.37036133 0 0 0 0
0.064697266 0.061035156 -0.37036133 0 0 0 0
0.06640625 0.061035156 -0.37036133 0 0 0 0
0.06817627 0.061035156 -0.37036133 0 0 0 0
0.070251465 0.061340332 -0.37231445 0 0 0 0
0.07220459 0.061523438 -0.37329102 0 0 0 0
0.07434082 0.061859131 -0.37524414 0 0 0 0
0.076538086 0.062164307 -0.37744141 0 0 0 0
0.078735352 0.0625 -0.37939453 0 0 0 0
0.081115723 0.062988281 -0.38232422 0 0 0 0
0.082946777 0.062988281 -0.38232422 0 0 0 0
0.084716797 0.062988281 -0.38232422 0 0 0 0
0.086486816 0.062988281 -0.38232422 0 0 0 0
0.08807373 0.062805176 -0.38134766 0 0 0 0
0.08984375 0.062805176 -0.38134766 0 0 0 0
0.091430664 0.062683105 -0.38037109 0 0 0 0
0.093200684 0.062683105 -0.38037109 0 0 0 0
0.094726562 0.0625 -0.37939453 0 0 0 0
0.096496582 0.0625 -0.37939453 0 0 0 0
0.098022461 0.062347412 -0.37841797 0 0 0 0
0.09979248 0.062347412 -0.37841797 0 0 0 0
0.1015625 0.062347412 -0.37841797 0 0 0 0
0.10308838 0.062164307 -0.37744141 0 0 0 0
0.1048584 0.062164307 -0.37744141 0 0 0 0
0.10632324 0.062011719 -0.37646484 0 0 0 0
0.10778809 0.061859131 -0.37524414 0 0 0 0
0.10900879 0.061523438 -0.37329102 0 0 0 0
0.11047363 0.061340332 -0.37231445 0 0 0 0
0.11187744 0.061187744 -0.37133789 0 0 0 0
0.11334229 0.061035156 -0.37036133 0 0 0 0
0.11474609 0.060852051 -0.36938477 0 0 0 0
0.1161499 0.060699463 -0.3684082 0 0 0 0
0.11755371 0.060516357 -0.36743164 0 0 0 0
0.11895752 0.06036377 -0.36621094 0 0 0 0
0.12036133 0.060180664 -0.36523438 0 0 0 0
0.12207031 0.060180664 -0.36523438 0 0 0 0
0.12347412 0.060028076 -0.36425781 0 0 0 0
0.12512207 0.060028076 -0.36425781 0 0 0 0
