ply
format ascii 1.0
comment PCL generated
element vertex 1063
property float x
property float y
property float z
property float nx
property float ny
property float nz
property float curvature
element face 0
element camera 0
property float view_px
property float view_py
property float view_pz
property float x_axisx
property float x_axisy
property float x_axisz
property float y_axisx
property float y_axisy
property float y_axisz
property float z_axisx
property float z_axisy
property float z_axisz
property float focal
property float scalex
property float scaley
property float centerx
property float centery
property int viewportx
property int viewporty
property float k1
property float k2
end_header
0.085388184 0.016189575 -0.26293945 0 0 0 0
0.086608887 0.016189575 -0.26293945 0 0 0 0
0.08782959 0.016189575 -0.26293945 0 0 0 0
0.089111328 0.016189575 -0.26293945 0 0 0 0
0.090637207 0.01625061 -0.26391602 0 0 0 0
0.091918945 0.01625061 -0.26391602 0 0 0 0
0.093139648 0.01625061 -0.26391602 0 0 0 0
0.094360352 0.01625061 -0.26391602 0 0 0 0
0.09564209 0.01625061 -0.26391602 0 0 0 0
0.096862793 0.01625061 -0.26391602 0 0 0 0
0.098083496 0.01625061 -0.26391602 0 0 0 0
0.099304199 0.01625061 -0.26391602 0 0 0 0
0.10058594 0.01625061 -0.26391602 0 0 0 0
0.10180664 0.01625061 -0.26391602 0 0 0 0
0.10302734 0.01625061 -0.26391602 0 0 0 0
0.10467529 0.016311646 -0.26489258 0 0 0 0
0.10595703 0.016311646 -0.26489258 0 0 0 0
0.10717773 0.016311646 -0.26489258 0 0 0 0
-0.07800293 0.021636963 -0.38037109 0 0 0 0
-0.07623291 0.021636963 -0.38037109 0 0 0 0
-0.074462891 0.021636963 -0.38037109 0 0 0 0
-0.072509766 0.021591187 -0.37939453 0 0 0 0
-0.070678711 0.021591187 -0.37939453 0 0 0 0
-0.069091797 0.021636963 -0.38037109 0 0 0 0
-0.067321777 0.021636963 -0.38037109 0 0 0 0
-0.065734863 0.021697998 -0.38134766 0 0 0 0
-0.06427002 0.021820068 -0.38330078 0 0 0 0
-0.063293457 0.022094727 -0.38842773 0 0 0 0
-0.061462402 0.022094727 -0.38842773 0 0 0 0
-0.059814453 0.022155762 -0.3894043 0 0 0 0
-0.058135986 0.022216797 -0.39038086 0 0 0 0
-0.056304932 0.022216797 -0.39038086 0 0 0 0
-0.054473877 0.022216797 -0.39038086 0 0 0 0
-0.052764893 0.022277832 -0.39135742 0 0 0 0
-0.051055908 0.022323608 -0.39233398 0 0 0 0
-0.049346924 0.022384644 -0.39331055 0 0 0 0
-0.047637939 0.022445679 -0.39453125 0 0 0 0
-0.0012845993 0.020782471 -0.36523438 0 0 0 0
0.00042748451 0.020736694 -0.36425781 0 0 0 0
0.002122879 0.020614624 -0.36230469 0 0 0 0
0.0038127899 0.020553589 -0.36132812 0 0 0 0
0.0054931641 0.020507812 -0.36035156 0 0 0 0
0.0071601868 0.020446777 -0.359375 0 0 0 0
0.0088195801 0.020385742 -0.35839844 0 0 0 0
0.010475159 0.020324707 -0.35717773 0 0 0 0
0.012145996 0.020324707 -0.35717773 0 0 0 0
0.013786316 0.020278931 -0.35620117 0 0 0 0
0.015457153 0.020278931 -0.35620117 0 0 0 0
0.017074585 0.020217896 -0.35522461 0 0 0 0
0.018737793 0.020217896 -0.35522461 0 0 0 0
0.020355225 0.02015686 -0.35424805 0 0 0 0
0.022018433 0.02015686 -0.35424805 0 0 0 0
0.023681641 0.02015686 -0.35424805 0 0 0 0
0.02532959 0.02015686 -0.35424805 0 0 0 0
0.026992798 0.02015686 -0.35424805 0 0 0 0
0.028747559 0.020217896 -0.35522461 0 0 0 0
0.030410767 0.020217896 -0.35522461 0 0 0 0
0.032165527 0.020278931 -0.35620117 0 0 0 0
0.033935547 0.020324707 -0.35717773 0 0 0 0
0.035705566 0.020385742 -0.35839844 0 0 0 0
0.037475586 0.020446777 -0.359375 0 0 0 0
0.039276123 0.020507812 -0.36035156 0 0 0 0
0.040985107 0.020507812 -0.36035156 0 0 0 0
0.042785645 0.020553589 -0.36132812 0 0 0 0
0.044586182 0.020614624 -0.36230469 0 0 0 0
0.046295166 0.020614624 -0.36230469 0 0 0 0
0.04800415 0.020614624 -0.36230469 0 0 0 0
0.049682617 0.020614624 -0.36230469 0 0 0 0
0.051391602 0.020614624 -0.36230469 0 0 0 0
0.052093506 0.014961243 -0.26293945 0 0 0 0
0.053344727 0.014961243 -0.26293945 0 0 0 0
0.05456543 0.014961243 -0.26293945 0 0 0 0
0.055786133 0.014961243 -0.26293945 0 0 0 0
0.057037354 0.014961243 -0.26293945 0 0 0 0
0.058258057 0.014961243 -0.26293945 0 0 0 0
0.059509277 0.014961243 -0.26293945 0 0 0 0
0.06072998 0.014961243 -0.26293945 0 0 0 0
0.061981201 0.014961243 -0.26293945 0 0 0 0
0.063171387 0.014961243 -0.26293945 0 0 0 0
0.06439209 0.014961243 -0.26293945 0 0 0 0
0.065673828 0.014961243 -0.26293945 0 0 0 0
0.066894531 0.014961243 -0.26293945 0 0 0 0
0.068115234 0.014961243 -0.26293945 0 0 0 0
0.069335938 0.014961243 -0.26293945 0 0 0 0
0.070556641 0.014961243 -0.26293945 0 0 0 0
0.071838379 0.014961243 -0.26293945 0 0 0 0
0.073059082 0.014961243 -0.26293945 0 0 0 0
0.074279785 0.014961243 -0.26293945 0 0 0 0
0.075500488 0.014961243 -0.26293945 0 0 0 0
0.076782227 0.014961243 -0.26293945 0 0 0 0
0.07800293 0.014961243 -0.26293945 0 0 0 0
0.079223633 0.014961243 -0.26293945 0 0 0 0
0.080444336 0.014961243 -0.26293945 0 0 0 0
0.081665039 0.014961243 -0.26293945 0 0 0 0
0.082946777 0.014961243 -0.26293945 0 0 0 0
0.08416748 0.014961243 -0.26293945 0 0 0 0
0.085388184 0.014961243 -0.26293945 0 0 0 0
0.086608887 0.014961243 -0.26293945 0 0 0 0
0.08782959 0.014961243 -0.26293945 0 0 0 0
0.089111328 0.014961243 -0.26293945 0 0 0 0
0.090332031 0.014961243 -0.26293945 0 0 0 0
0.091918945 0.015022278 -0.26391602 0 0 0 0
0.093139648 0.015022278 -0.26391602 0 0 0 0
0.094360352 0.015022278 -0.26391602 0 0 0 0
0.09564209 0.015022278 -0.26391602 0 0 0 0
0.096862793 0.015022278 -0.26391602 0 0 0 0
0.098083496 0.015022278 -0.26391602 0 0 0 0
0.099304199 0.015022278 -0.26391602 0 0 0 0
0.10058594 0.015022278 -0.26391602 0 0 0 0
0.10180664 0.015022278 -0.26391602 0 0 0 0
0.10302734 0.015022278 -0.26391602 0 0 0 0
0.10430908 0.015022278 -0.26391602 0 0 0 0
0.10595703 0.015075684 -0.26489258 0 0 0 0
-0.07623291 0.019866943 -0.38037109 0 0 0 0
-0.074279785 0.019805908 -0.37939453 0 0 0 0
-0.072509766 0.019805908 -0.37939453 0 0 0 0
-0.070678711 0.019805908 -0.37939453 0 0 0 0
-0.068908691 0.019805908 -0.37939453 0 0 0 0
-0.067138672 0.019805908 -0.37939453 0 0 0 0
-0.065551758 0.019866943 -0.38037109 0 0 0 0
-0.064086914 0.019958496 -0.38232422 0 0 0 0
-0.062927246 0.020172119 -0.38647461 0 0 0 0
-0.061157227 0.020172119 -0.38647461 0 0 0 0
-0.059509277 0.020233154 -0.38745117 0 0 0 0
-0.057830811 0.020278931 -0.38842773 0 0 0 0
-0.055999756 0.020278931 -0.38842773 0 0 0 0
-0.054321289 0.020324707 -0.3894043 0 0 0 0
-0.052490234 0.020324707 -0.3894043 0 0 0 0
-0.050811768 0.020385742 -0.39038086 0 0 0 0
-0.049102783 0.020431519 -0.39135742 0 0 0 0
-0.047515869 0.02053833 -0.39331055 0 0 0 0
-0.02935791 0.020751953 -0.39746094 0 0 0 0
-0.027496338 0.020751953 -0.39746094 0 0 0 0
-0.025695801 0.020797729 -0.3984375 0 0 0 0
-0.001291275 0.019180298 -0.36743164 0 0 0 0
0.00042748451 0.01902771 -0.36425781 0 0 0 0
0.002122879 0.018920898 -0.36230469 0 0 0 0
0.0038127899 0.018859863 -0.36132812 0 0 0 0
0.0054779053 0.018753052 -0.359375 0 0 0 0
0.0071601868 0.018753052 -0.359375 0 0 0 0
0.0088195801 0.018707275 -0.35839844 0 0 0 0
0.010475159 0.01864624 -0.35717773 0 0 0 0
0.012145996 0.01864624 -0.35717773 0 0 0 0
0.013786316 0.018600464 -0.35620117 0 0 0 0
0.015457153 0.018600464 -0.35620117 0 0 0 0
0.017074585 0.018554688 -0.35522461 0 0 0 0
0.018737793 0.018554688 -0.35522461 0 0 0 0
0.020401001 0.018554688 -0.35522461 0 0 0 0
0.022018433 0.018493652 -0.35424805 0 0 0 0
0.023681641 0.018493652 -0.35424805 0 0 0 0
0.02532959 0.018493652 -0.35424805 0 0 0 0
0.026992798 0.018493652 -0.35424805 0 0 0 0
0.028747559 0.018554688 -0.35522461 0 0 0 0
0.030410767 0.018554688 -0.35522461 0 0 0 0
0.032165527 0.018600464 -0.35620117 0 0 0 0
0.033935547 0.01864624 -0.35717773 0 0 0 0
0.035705566 0.018707275 -0.35839844 0 0 0 0
0.037475586 0.018753052 -0.359375 0 0 0 0
0.039276123 0.018814087 -0.36035156 0 0 0 0
0.040985107 0.018814087 -0.36035156 0 0 0 0
0.042785645 0.018859863 -0.36132812 0 0 0 0
0.044586182 0.018920898 -0.36230469 0 0 0 0
0.046295166 0.018920898 -0.36230469 0 0 0 0
0.04800415 0.018920898 -0.36230469 0 0 0 0
0.049682617 0.018920898 -0.36230469 0 0 0 0
0.051391602 0.018920898 -0.36230469 0 0 0 0
0.050872803 0.01373291 -0.26293945 0 0 0 0
0.052093506 0.01373291 -0.26293945 0 0 0 0
0.053344727 0.01373291 -0.26293945 0 0 0 0
0.05456543 0.01373291 -0.26293945 0 0 0 0
0.055786133 0.01373291 -0.26293945 0 0 0 0
0.057037354 0.01373291 -0.26293945 0 0 0 0
0.058258057 0.01373291 -0.26293945 0 0 0 0
0.059509277 0.01373291 -0.26293945 0 0 0 0
0.06072998 0.01373291 -0.26293945 0 0 0 0
0.061981201 0.01373291 -0.26293945 0 0 0 0
0.063171387 0.01373291 -0.26293945 0 0 0 0
0.06439209 0.01373291 -0.26293945 0 0 0 0
0.065673828 0.01373291 -0.26293945 0 0 0 0
0.066894531 0.01373291 -0.26293945 0 0 0 0
0.068115234 0.01373291 -0.26293945 0 0 0 0
0.069335938 0.01373291 -0.26293945 0 0 0 0
0.070556641 0.01373291 -0.26293945 0 0 0 0
0.071838379 0.01373291 -0.26293945 0 0 0 0
0.073059082 0.01373291 -0.26293945 0 0 0 0
0.074279785 0.01373291 -0.26293945 0 0 0 0
0.075500488 0.01373291 -0.26293945 0 0 0 0
0.076782227 0.01373291 -0.26293945 0 0 0 0
0.07800293 0.01373291 -0.26293945 0 0 0 0
0.079223633 0.01373291 -0.26293945 0 0 0 0
0.080444336 0.01373291 -0.26293945 0 0 0 0
0.081665039 0.01373291 -0.26293945 0 0 0 0
0.082946777 0.01373291 -0.26293945 0 0 0 0
0.08416748 0.01373291 -0.26293945 0 0 0 0
0.085388184 0.01373291 -0.26293945 0 0 0 0
0.086608887 0.01373291 -0.26293945 0 0 0 0
0.08782959 0.01373291 -0.26293945 0 0 0 0
0.089111328 0.01373291 -0.26293945 0 0 0 0
0.090332031 0.01373291 -0.26293945 0 0 0 0
0.091552734 0.01373291 -0.26293945 0 0 0 0
0.093139648 0.013786316 -0.26391602 0 0 0 0
0.094360352 0.013786316 -0.26391602 0 0 0 0
0.09564209 0.013786316 -0.26391602 0 0 0 0
0.096862793 0.013786316 -0.26391602 0 0 0 0
0.098083496 0.013786316 -0.26391602 0 0 0 0
0.099304199 0.013786316 -0.26391602 0 0 0 0
0.10058594 0.013786316 -0.26391602 0 0 0 0
0.10180664 0.013786316 -0.26391602 0 0 0 0
0.10302734 0.013786316 -0.26391602 0 0 0 0
0.10430908 0.013786316 -0.26391602 0 0 0 0
0.10595703 0.013832092 -0.26489258 0 0 0 0
-0.074279785 0.01802063 -0.37939453 0 0 0 0
-0.072509766 0.01802063 -0.37939453 0 0 0 0
-0.070678711 0.01802063 -0.37939453 0 0 0 0
-0.068908691 0.01802063 -0.37939453 0 0 0 0
-0.067138672 0.01802063 -0.37939453 0 0 0 0
-0.065368652 0.01802063 -0.37939453 0 0 0 0
-0.063781738 0.018081665 -0.38037109 0 0 0 0
-0.062316895 0.018173218 -0.38232422 0 0 0 0
-0.060852051 0.018264771 -0.38427734 0 0 0 0
-0.059051514 0.018264771 -0.38427734 0 0 0 0
-0.057525635 0.018356323 -0.38647461 0 0 0 0
-0.055725098 0.018356323 -0.38647461 0 0 0 0
-0.054046631 0.0184021 -0.38745117 0 0 0 0
-0.052246094 0.0184021 -0.38745117 0 0 0 0
-0.050689697 0.018508911 -0.3894043 0 0 0 0
-0.048980713 0.018554688 -0.39038086 0 0 0 0
-0.047515869 0.018692017 -0.39331055 0 0 0 0
-0.033081055 0.018890381 -0.39746094 0 0 0 0
-0.031066895 0.018783569 -0.39550781 0 0 0 0
-0.029205322 0.018783569 -0.39550781 0 0 0 0
-0.027359009 0.018783569 -0.39550781 0 0 0 0
-0.025558472 0.018844604 -0.39648438 0 0 0 0
-0.02381897 0.018936157 -0.3984375 0 0 0 0
-0.022003174 0.018981934 -0.39941406 0 0 0 0
-0.001291275 0.017456055 -0.36743164 0 0 0 0
0.00042963028 0.017410278 -0.36621094 0 0 0 0
0.0021362305 0.017318726 -0.36425781 0 0 0 0
0.0038013458 0.017120361 -0.36035156 0 0 0 0
0.0054779053 0.017074585 -0.359375 0 0 0 0
0.0071411133 0.017028809 -0.35839844 0 0 0 0
0.0088195801 0.017028809 -0.35839844 0 0 0 0
0.010475159 0.016983032 -0.35717773 0 0 0 0
0.012115479 0.016937256 -0.35620117 0 0 0 0
0.013786316 0.016937256 -0.35620117 0 0 0 0
0.015457153 0.016937256 -0.35620117 0 0 0 0
0.017074585 0.016876221 -0.35522461 0 0 0 0
0.018737793 0.016876221 -0.35522461 0 0 0 0
0.020401001 0.016876221 -0.35522461 0 0 0 0
0.022079468 0.016876221 -0.35522461 0 0 0 0
0.023681641 0.016830444 -0.35424805 0 0 0 0
0.02532959 0.016830444 -0.35424805 0 0 0 0
0.027069092 0.016876221 -0.35522461 0 0 0 0
0.028747559 0.016876221 -0.35522461 0 0 0 0
0.030410767 0.016876221 -0.35522461 0 0 0 0
0.032165527 0.016937256 -0.35620117 0 0 0 0
0.033935547 0.016983032 -0.35717773 0 0 0 0
0.035705566 0.017028809 -0.35839844 0 0 0 0
0.037475586 0.017074585 -0.359375 0 0 0 0
0.039276123 0.017120361 -0.36035156 0 0 0 0
0.040985107 0.017120361 -0.36035156 0 0 0 0
0.042785645 0.017166138 -0.36132812 0 0 0 0
0.044586182 0.017211914 -0.36230469 0 0 0 0
0.046295166 0.017211914 -0.36230469 0 0 0 0
0.04800415 0.017211914 -0.36230469 0 0 0 0
0.049682617 0.017211914 -0.36230469 0 0 0 0
0.051544189 0.01725769 -0.36328125 0 0 0 0
0.050872803 0.012496948 -0.26293945 0 0 0 0
0.052093506 0.012496948 -0.26293945 0 0 0 0
0.053344727 0.012496948 -0.26293945 0 0 0 0
0.05456543 0.012496948 -0.26293945 0 0 0 0
0.055786133 0.012496948 -0.26293945 0 0 0 0
0.057037354 0.012496948 -0.26293945 0 0 0 0
0.058258057 0.012496948 -0.26293945 0 0 0 0
0.059509277 0.012496948 -0.26293945 0 0 0 0
0.06072998 0.012496948 -0.26293945 0 0 0 0
0.061981201 0.012496948 -0.26293945 0 0 0 0
0.063171387 0.012496948 -0.26293945 0 0 0 0
0.06439209 0.012496948 -0.26293945 0 0 0 0
0.065673828 0.012496948 -0.26293945 0 0 0 0
0.066894531 0.012496948 -0.26293945 0 0 0 0
0.068115234 0.012496948 -0.26293945 0 0 0 0
0.069335938 0.012496948 -0.26293945 0 0 0 0
0.070556641 0.012496948 -0.26293945 0 0 0 0
0.071838379 0.012496948 -0.26293945 0 0 0 0
0.073059082 0.012496948 -0.26293945 0 0 0 0
0.074279785 0.012496948 -0.26293945 0 0 0 0
0.075500488 0.012496948 -0.26293945 0 0 0 0
0.076782227 0.012496948 -0.26293945 0 0 0 0
0.07800293 0.012496948 -0.26293945 0 0 0 0
0.079223633 0.012496948 -0.26293945 0 0 0 0
0.080444336 0.012496948 -0.26293945 0 0 0 0
0.081665039 0.012496948 -0.26293945 0 0 0 0
0.082946777 0.012496948 -0.26293945 0 0 0 0
0.08416748 0.012496948 -0.26293945 0 0 0 0
0.085388184 0.012496948 -0.26293945 0 0 0 0
0.086608887 0.012496948 -0.26293945 0 0 0 0
0.08782959 0.012496948 -0.26293945 0 0 0 0
0.089111328 0.012496948 -0.26293945 0 0 0 0
0.090332031 0.012496948 -0.26293945 0 0 0 0
0.091552734 0.012496948 -0.26293945 0 0 0 0
0.092773438 0.012496948 -0.26293945 0 0 0 0
0.093994141 0.012496948 -0.26293945 0 0 0 0
0.09564209 0.012542725 -0.26391602 0 0 0 0
0.096862793 0.012542725 -0.26391602 0 0 0 0
0.098083496 0.012542725 -0.26391602 0 0 0 0
0.099304199 0.012542725 -0.26391602 0 0 0 0
0.10058594 0.012542725 -0.26391602 0 0 0 0
0.10180664 0.012542725 -0.26391602 0 0 0 0
0.10302734 0.012542725 -0.26391602 0 0 0 0
0.10430908 0.012542725 -0.26391602 0 0 0 0
-0.07232666 0.016204834 -0.37841797 0 0 0 0
-0.070495605 0.016204834 -0.37841797 0 0 0 0
-0.068725586 0.016204834 -0.37841797 0 0 0 0
-0.066955566 0.016204834 -0.37841797 0 0 0 0
-0.065185547 0.016204834 -0.37841797 0 0 0 0
-0.063598633 0.01625061 -0.37939453 0 0 0 0
-0.061981201 0.016296387 -0.38037109 0 0 0 0
-0.06036377 0.016326904 -0.38134766 0 0 0 0
-0.05871582 0.016372681 -0.38232422 0 0 0 0
-0.056793213 0.016326904 -0.38134766 0 0 0 0
-0.055297852 0.016418457 -0.38330078 0 0 0 0
-0.053497314 0.016418457 -0.38330078 0 0 0 0
-0.051971436 0.01651001 -0.38549805 0 0 0 0
-0.050415039 0.016586304 -0.38745117 0 0 0 0
-0.048736572 0.01663208 -0.38842773 0 0 0 0
-0.04788208 0.016983032 -0.39648438 0 0 0 0
-0.032897949 0.016937256 -0.39550781 0 0 0 0
-0.030990601 0.016891479 -0.39453125 0 0 0 0
-0.029129028 0.016891479 -0.39453125 0 0 0 0
-0.027282715 0.016891479 -0.39453125 0 0 0 0
-0.025497437 0.016937256 -0.39550781 0 0 0 0
-0.023757935 0.017028809 -0.39746094 0 0 0 0
-0.021957397 0.017059326 -0.3984375 0 0 0 0
0.003824234 0.015518188 -0.36230469 0 0 0 0
0.0054931641 0.015434265 -0.36035156 0 0 0 0
0.0071411133 0.015350342 -0.35839844 0 0 0 0
0.0087966919 0.015304565 -0.35717773 0 0 0 0
0.010475159 0.015304565 -0.35717773 0 0 0 0
0.012115479 0.015258789 -0.35620117 0 0 0 0
0.013786316 0.015258789 -0.35620117 0 0 0 0
0.015457153 0.015258789 -0.35620117 0 0 0 0
0.017120361 0.015258789 -0.35620117 0 0 0 0
0.018737793 0.015220642 -0.35522461 0 0 0 0
0.020401001 0.015220642 -0.35522461 0 0 0 0
0.022079468 0.015220642 -0.35522461 0 0 0 0
0.023742676 0.015220642 -0.35522461 0 0 0 0
0.025405884 0.015220642 -0.35522461 0 0 0 0
0.027069092 0.015220642 -0.35522461 0 0 0 0
0.028747559 0.015220642 -0.35522461 0 0 0 0
0.030410767 0.015220642 -0.35522461 0 0 0 0
0.032165527 0.015258789 -0.35620117 0 0 0 0
0.033935547 0.015304565 -0.35717773 0 0 0 0
0.035705566 0.015350342 -0.35839844 0 0 0 0
0.037475586 0.015388489 -0.359375 0 0 0 0
0.039276123 0.015434265 -0.36035156 0 0 0 0
0.040985107 0.015434265 -0.36035156 0 0 0 0
0.042785645 0.015480042 -0.36132812 0 0 0 0
0.044586182 0.015518188 -0.36230469 0 0 0 0
0.046295166 0.015518188 -0.36230469 0 0 0 0
0.04800415 0.015518188 -0.36230469 0 0 0 0
0.049682617 0.015518188 -0.36230469 0 0 0 0
0.051391602 0.015518188 -0.36230469 0 0 0 0
0.050872803 0.011260986 -0.26293945 0 0 0 0
0.052093506 0.011260986 -0.26293945 0 0 0 0
0.053344727 0.011260986 -0.26293945 0 0 0 0
0.05456543 0.011260986 -0.26293945 0 0 0 0
0.055786133 0.011260986 -0.26293945 0 0 0 0
0.057037354 0.011260986 -0.26293945 0 0 0 0
0.058258057 0.011260986 -0.26293945 0 0 0 0
0.059509277 0.011260986 -0.26293945 0 0 0 0
0.06072998 0.011260986 -0.26293945 0 0 0 0
0.061981201 0.011260986 -0.26293945 0 0 0 0
0.063171387 0.011260986 -0.26293945 0 0 0 0
0.06439209 0.011260986 -0.26293945 0 0 0 0
0.065673828 0.011260986 -0.26293945 0 0 0 0
0.066894531 0.011260986 -0.26293945 0 0 0 0
0.068115234 0.011260986 -0.26293945 0 0 0 0
0.069335938 0.011260986 -0.26293945 0 0 0 0
0.070556641 0.011260986 -0.26293945 0 0 0 0
0.071838379 0.011260986 -0.26293945 0 0 0 0
0.073059082 0.011260986 -0.26293945 0 0 0 0
0.074279785 0.011260986 -0.26293945 0 0 0 0
0.075500488 0.011260986 -0.26293945 0 0 0 0
0.076782227 0.011260986 -0.26293945 0 0 0 0
0.07800293 0.011260986 -0.26293945 0 0 0 0
0.079223633 0.011260986 -0.26293945 0 0 0 0
0.080444336 0.011260986 -0.26293945 0 0 0 0
0.081665039 0.011260986 -0.26293945 0 0 0 0
0.082946777 0.011260986 -0.26293945 0 0 0 0
0.08416748 0.011260986 -0.26293945 0 0 0 0
0.085388184 0.011260986 -0.26293945 0 0 0 0
0.086608887 0.011260986 -0.26293945 0 0 0 0
0.08782959 0.011260986 -0.26293945 0 0 0 0
0.089111328 0.011260986 -0.26293945 0 0 0 0
0.090332031 0.011260986 -0.26293945 0 0 0 0
0.091552734 0.011260986 -0.26293945 0 0 0 0
0.092773438 0.011260986 -0.26293945 0 0 0 0
0.093994141 0.011260986 -0.26293945 0 0 0 0
0.095275879 0.011260986 -0.26293945 0 0 0 0
0.096862793 0.011306763 -0.26391602 0 0 0 0
0.098083496 0.011306763 -0.26391602 0 0 0 0
0.099304199 0.011306763 -0.26391602 0 0 0 0
0.10058594 0.011306763 -0.26391602 0 0 0 0
0.10180664 0.011306763 -0.26391602 0 0 0 0
0.10302734 0.011306763 -0.26391602 0 0 0 0
-0.077453613 0.013473511 -0.35327148 0 0 0 0
-0.075805664 0.013473511 -0.35327148 0 0 0 0
-0.074157715 0.013473511 -0.35327148 0 0 0 0
-0.07244873 0.013473511 -0.35327148 0 0 0 0
-0.071044922 0.013511658 -0.35424805 0 0 0 0
-0.069335938 0.013511658 -0.35424805 0 0 0 0
-0.067871094 0.013549805 -0.35522461 0 0 0 0
-0.068725586 0.014434814 -0.37841797 0 0 0 0
-0.066589355 0.014358521 -0.37646484 0 0 0 0
-0.065002441 0.014396667 -0.37744141 0 0 0 0
-0.063232422 0.014396667 -0.37744141 0 0 0 0
-0.061676025 0.014434814 -0.37841797 0 0 0 0
-0.060058594 0.014472961 -0.37939453 0 0 0 0
-0.058258057 0.014472961 -0.37939453 0 0 0 0
-0.056488037 0.014472961 -0.37939453 0 0 0 0
-0.054840088 0.014511108 -0.38037109 0 0 0 0
-0.053222656 0.014549255 -0.38134766 0 0 0 0
-0.051544189 0.014587402 -0.38232422 0 0 0 0
-0.049621582 0.014549255 -0.38134766 0 0 0 0
-0.048217773 0.014663696 -0.38427734 0 0 0 0
-0.048126221 0.015197754 -0.3984375 0 0 0 0
-0.034851074 0.01512146 -0.39648438 0 0 0 0
-0.032836914 0.015045166 -0.39453125 0 0 0 0
-0.030990601 0.015045166 -0.39453125 0 0 0 0
-0.029052734 0.015007019 -0.39331055 0 0 0 0
-0.027282715 0.015045166 -0.39453125 0 0 0 0
-0.025436401 0.015045166 -0.39453125 0 0 0 0
-0.023696899 0.01512146 -0.39648438 0 0 0 0
-0.021896362 0.015159607 -0.39746094 0 0 0 0
-0.020141602 0.015235901 -0.39941406 0 0 0 0
0.0088424683 0.013702393 -0.359375 0 0 0 0
0.010498047 0.013664246 -0.35839844 0 0 0 0
0.012145996 0.013626099 -0.35717773 0 0 0 0
0.013786316 0.013587952 -0.35620117 0 0 0 0
0.015457153 0.013587952 -0.35620117 0 0 0 0
0.017120361 0.013587952 -0.35620117 0 0 0 0
0.018798828 0.013587952 -0.35620117 0 0 0 0
0.020401001 0.013549805 -0.35522461 0 0 0 0
0.022079468 0.013549805 -0.35522461 0 0 0 0
0.023742676 0.013549805 -0.35522461 0 0 0 0
0.025405884 0.013549805 -0.35522461 0 0 0 0
0.027069092 0.013549805 -0.35522461 0 0 0 0
0.028747559 0.013549805 -0.35522461 0 0 0 0
0.030487061 0.013587952 -0.35620117 0 0 0 0
0.032165527 0.013587952 -0.35620117 0 0 0 0
0.033935547 0.013626099 -0.35717773 0 0 0 0
0.035705566 0.013664246 -0.35839844 0 0 0 0
0.037475586 0.013702393 -0.359375 0 0 0 0
0.039276123 0.01374054 -0.36035156 0 0 0 0
0.040985107 0.01374054 -0.36035156 0 0 0 0
0.042785645 0.013786316 -0.36132812 0 0 0 0
0.044464111 0.013786316 -0.36132812 0 0 0 0
0.046295166 0.013824463 -0.36230469 0 0 0 0
0.04800415 0.013824463 -0.36230469 0 0 0 0
0.049682617 0.013824463 -0.36230469 0 0 0 0
0.052093506 0.010032654 -0.26293945 0 0 0 0
0.053344727 0.010032654 -0.26293945 0 0 0 0
0.05456543 0.010032654 -0.26293945 0 0 0 0
0.055786133 0.010032654 -0.26293945 0 0 0 0
0.057037354 0.010032654 -0.26293945 0 0 0 0
0.058258057 0.010032654 -0.26293945 0 0 0 0
0.059509277 0.010032654 -0.26293945 0 0 0 0
0.06072998 0.010032654 -0.26293945 0 0 0 0
0.061981201 0.010032654 -0.26293945 0 0 0 0
0.063171387 0.010032654 -0.26293945 0 0 0 0
0.06439209 0.010032654 -0.26293945 0 0 0 0
0.065673828 0.010032654 -0.26293945 0 0 0 0
0.066894531 0.010032654 -0.26293945 0 0 0 0
0.068115234 0.010032654 -0.26293945 0 0 0 0
0.069335938 0.010032654 -0.26293945 0 0 0 0
0.070556641 0.010032654 -0.26293945 0 0 0 0
0.071838379 0.010032654 -0.26293945 0 0 0 0
0.073059082 0.010032654 -0.26293945 0 0 0 0
0.074279785 0.010032654 -0.26293945 0 0 0 0
0.075500488 0.010032654 -0.26293945 0 0 0 0
0.076782227 0.010032654 -0.26293945 0 0 0 0
0.07800293 0.010032654 -0.26293945 0 0 0 0
0.079223633 0.010032654 -0.26293945 0 0 0 0
0.080444336 0.010032654 -0.26293945 0 0 0 0
0.081665039 0.010032654 -0.26293945 0 0 0 0
0.082946777 0.010032654 -0.26293945 0 0 0 0
0.08416748 0.010032654 -0.26293945 0 0 0 0
0.085388184 0.010032654 -0.26293945 0 0 0 0
0.086608887 0.010032654 -0.26293945 0 0 0 0
0.08782959 0.010032654 -0.26293945 0 0 0 0
0.089111328 0.010032654 -0.26293945 0 0 0 0
0.090332031 0.010032654 -0.26293945 0 0 0 0
0.091552734 0.010032654 -0.26293945 0 0 0 0
0.092773438 0.010032654 -0.26293945 0 0 0 0
0.093994141 0.010032654 -0.26293945 0 0 0 0
0.095275879 0.010032654 -0.26293945 0 0 0 0
0.096862793 0.010070801 -0.26391602 0 0 0 0
0.098083496 0.010070801 -0.26391602 0 0 0 0
0.099304199 0.010070801 -0.26391602 0 0 0 0
0.10058594 0.010070801 -0.26391602 0 0 0 0
0.10180664 0.010070801 -0.26391602 0 0 0 0
0.10302734 0.010070801 -0.26391602 0 0 0 0
0.10430908 0.010070801 -0.26391602 0 0 0 0
-0.082397461 0.011817932 -0.35327148 0 0 0 0
-0.080749512 0.011817932 -0.35327148 0 0 0 0
-0.079101562 0.011817932 -0.35327148 0 0 0 0
-0.077453613 0.011817932 -0.35327148 0 0 0 0
-0.075805664 0.011817932 -0.35327148 0 0 0 0
-0.074157715 0.011817932 -0.35327148 0 0 0 0
-0.072692871 0.011856079 -0.35424805 0 0 0 0
-0.071044922 0.011856079 -0.35424805 0 0 0 0
-0.069580078 0.011886597 -0.35522461 0 0 0 0
-0.068054199 0.011917114 -0.35620117 0 0 0 0
-0.066589355 0.011955261 -0.35717773 0 0 0 0
-0.06854248 0.012626648 -0.37744141 0 0 0 0
-0.066467285 0.012557983 -0.37524414 0 0 0 0
-0.064697266 0.012557983 -0.37524414 0 0 0 0
-0.063110352 0.012588501 -0.37646484 0 0 0 0
-0.061340332 0.012588501 -0.37646484 0 0 0 0
-0.0597229 0.012626648 -0.37744141 0 0 0 0
-0.057952881 0.012626648 -0.37744141 0 0 0 0
-0.056335449 0.012657166 -0.37841797 0 0 0 0
-0.05456543 0.012657166 -0.37841797 0 0 0 0
-0.05291748 0.012695312 -0.37939453 0 0 0 0
-0.051269531 0.01272583 -0.38037109 0 0 0 0
-0.049499512 0.01272583 -0.38037109 0 0 0 0
-0.047729492 0.01272583 -0.38037109 0 0 0 0
-0.045928955 0.01272583 -0.38037109 0 0 0 0
-0.036987305 0.013366699 -0.39941406 0 0 0 0
-0.034851074 0.013259888 -0.39648438 0 0 0 0
-0.032836914 0.013198853 -0.39453125 0 0 0 0
-0.030990601 0.013198853 -0.39453125 0 0 0 0
-0.029052734 0.013160706 -0.39331055 0 0 0 0
-0.027282715 0.013198853 -0.39453125 0 0 0 0
-0.025436401 0.013198853 -0.39453125 0 0 0 0
-0.023635864 0.01322937 -0.39550781 0 0 0 0
-0.021896362 0.013298035 -0.39746094 0 0 0 0
-0.020141602 0.013366699 -0.39941406 0 0 0 0
0.012145996 0.011955261 -0.35717773 0 0 0 0
0.013786316 0.011917114 -0.35620117 0 0 0 0
0.015457153 0.011917114 -0.35620117 0 0 0 0
0.017120361 0.011917114 -0.35620117 0 0 0 0
0.018798828 0.011917114 -0.35620117 0 0 0 0
0.020401001 0.011886597 -0.35522461 0 0 0 0
0.022079468 0.011886597 -0.35522461 0 0 0 0
0.023742676 0.011886597 -0.35522461 0 0 0 0
0.025405884 0.011886597 -0.35522461 0 0 0 0
0.027069092 0.011886597 -0.35522461 0 0 0 0
0.028747559 0.011886597 -0.35522461 0 0 0 0
0.030487061 0.011917114 -0.35620117 0 0 0 0
0.032165527 0.011917114 -0.35620117 0 0 0 0
0.033935547 0.011955261 -0.35717773 0 0 0 0
0.035705566 0.011985779 -0.35839844 0 0 0 0
0.037475586 0.012023926 -0.359375 0 0 0 0
0.039276123 0.012054443 -0.36035156 0 0 0 0
0.040985107 0.012054443 -0.36035156 0 0 0 0
0.042785645 0.012084961 -0.36132812 0 0 0 0
0.044464111 0.012084961 -0.36132812 0 0 0 0
0.046173096 0.012084961 -0.36132812 0 0 0 0
0.04800415 0.012123108 -0.36230469 0 0 0 0
0.049682617 0.012123108 -0.36230469 0 0 0 0
0.051269531 0.012084961 -0.36132812 0 0 0 0
0.053344727 0.0087966919 -0.26293945 0 0 0 0
0.05456543 0.0087966919 -0.26293945 0 0 0 0
0.055786133 0.0087966919 -0.26293945 0 0 0 0
0.057037354 0.0087966919 -0.26293945 0 0 0 0
0.058258057 0.0087966919 -0.26293945 0 0 0 0
0.059509277 0.0087966919 -0.26293945 0 0 0 0
0.06072998 0.0087966919 -0.26293945 0 0 0 0
0.061981201 0.0087966919 -0.26293945 0 0 0 0
0.063171387 0.0087966919 -0.26293945 0 0 0 0
0.06439209 0.0087966919 -0.26293945 0 0 0 0
0.065673828 0.0087966919 -0.26293945 0 0 0 0
0.066894531 0.0087966919 -0.26293945 0 0 0 0
0.068115234 0.0087966919 -0.26293945 0 0 0 0
0.069335938 0.0087966919 -0.26293945 0 0 0 0
0.070556641 0.0087966919 -0.26293945 0 0 0 0
0.071838379 0.0087966919 -0.26293945 0 0 0 0
0.073059082 0.0087966919 -0.26293945 0 0 0 0
0.074279785 0.0087966919 -0.26293945 0 0 0 0
0.075500488 0.0087966919 -0.26293945 0 0 0 0
0.076782227 0.0087966919 -0.26293945 0 0 0 0
0.07800293 0.0087966919 -0.26293945 0 0 0 0
0.079223633 0.0087966919 -0.26293945 0 0 0 0
0.080444336 0.0087966919 -0.26293945 0 0 0 0
0.081665039 0.0087966919 -0.26293945 0 0 0 0
0.082946777 0.0087966919 -0.26293945 0 0 0 0
0.08416748 0.0087966919 -0.26293945 0 0 0 0
0.085388184 0.0087966919 -0.26293945 0 0 0 0
0.086608887 0.0087966919 -0.26293945 0 0 0 0
0.08782959 0.0087966919 -0.26293945 0 0 0 0
0.089111328 0.0087966919 -0.26293945 0 0 0 0
0.090332031 0.0087966919 -0.26293945 0 0 0 0
0.091552734 0.0087966919 -0.26293945 0 0 0 0
0.092773438 0.0087966919 -0.26293945 0 0 0 0
0.093994141 0.0087966919 -0.26293945 0 0 0 0
0.095275879 0.0087966919 -0.26293945 0 0 0 0
0.096496582 0.0087966919 -0.26293945 0 0 0 0
0.098083496 0.0088272095 -0.26391602 0 0 0 0
0.099304199 0.0088272095 -0.26391602 0 0 0 0
0.10058594 0.0088272095 -0.26391602 0 0 0 0
0.10180664 0.0088272095 -0.26391602 0 0 0 0
0.10302734 0.0088272095 -0.26391602 0 0 0 0
0.10430908 0.0088272095 -0.26391602 0 0 0 0
-0.084289551 0.010192871 -0.35424805 0 0 0 0
-0.082397461 0.010162354 -0.35327148 0 0 0 0
-0.080749512 0.010162354 -0.35327148 0 0 0 0
-0.079101562 0.010162354 -0.35327148 0 0 0 0
-0.077453613 0.010162354 -0.35327148 0 0 0 0
-0.075805664 0.010162354 -0.35327148 0 0 0 0
-0.074157715 0.010162354 -0.35327148 0 0 0 0
-0.072692871 0.010192871 -0.35424805 0 0 0 0
-0.071228027 0.010223389 -0.35522461 0 0 0 0
-0.069763184 0.010246277 -0.35620117 0 0 0 0
-0.068237305 0.010276794 -0.35717773 0 0 0 0
-0.066772461 0.010307312 -0.35839844 0 0 0 0
-0.065490723 0.010360718 -0.36035156 0 0 0 0
-0.065917969 0.01071167 -0.37231445 0 0 0 0
-0.064331055 0.010742188 -0.37329102 0 0 0 0
-0.062744141 0.010765076 -0.37426758 0 0 0 0
-0.061157227 0.010795593 -0.37524414 0 0 0 0
-0.059417725 0.010795593 -0.37524414 0 0 0 0
-0.057800293 0.010826111 -0.37646484 0 0 0 0
-0.056030273 0.010826111 -0.37646484 0 0 0 0
-0.054412842 0.010856628 -0.37744141 0 0 0 0
-0.052642822 0.010856628 -0.37744141 0 0 0 0
-0.051025391 0.010887146 -0.37841797 0 0 0 0
-0.049377441 0.010910034 -0.37939453 0 0 0 0
-0.047576904 0.010910034 -0.37939453 0 0 0 0
-0.045806885 0.010910034 -0.37939453 0 0 0 0
-0.044250488 0.010971069 -0.38134766 0 0 0 0
-0.042510986 0.011459351 -0.3984375 0 0 0 0
-0.040649414 0.011459351 -0.3984375 0 0 0 0
-0.038757324 0.011459351 -0.3984375 0 0 0 0
-0.036804199 0.011428833 -0.39746094 0 0 0 0
-0.034759521 0.011375427 -0.39550781 0 0 0 0
-0.032836914 0.01134491 -0.39453125 0 0 0 0
-0.030990601 0.01134491 -0.39453125 0 0 0 0
-0.029129028 0.01134491 -0.39453125 0 0 0 0
-0.027282715 0.01134491 -0.39453125 0 0 0 0
-0.025497437 0.011375427 -0.39550781 0 0 0 0
-0.023696899 0.011405945 -0.39648438 0 0 0 0
-0.021896362 0.011428833 -0.39746094 0 0 0 0
-0.020141602 0.011489868 -0.39941406 0 0 0 0
0.015457153 0.010246277 -0.35620117 0 0 0 0
0.017120361 0.010246277 -0.35620117 0 0 0 0
0.018798828 0.010246277 -0.35620117 0 0 0 0
0.020401001 0.010223389 -0.35522461 0 0 0 0
0.022079468 0.010223389 -0.35522461 0 0 0 0
0.023742676 0.010223389 -0.35522461 0 0 0 0
0.025405884 0.010223389 -0.35522461 0 0 0 0
0.027069092 0.010223389 -0.35522461 0 0 0 0
0.028747559 0.010223389 -0.35522461 0 0 0 0
0.030487061 0.010246277 -0.35620117 0 0 0 0
0.03225708 0.010276794 -0.35717773 0 0 0 0
0.0340271 0.010307312 -0.35839844 0 0 0 0
0.035705566 0.010307312 -0.35839844 0 0 0 0
0.037475586 0.01033783 -0.359375 0 0 0 0
0.039276123 0.010360718 -0.36035156 0 0 0 0
0.040985107 0.010360718 -0.36035156 0 0 0 0
0.042785645 0.010391235 -0.36132812 0 0 0 0
0.044464111 0.010391235 -0.36132812 0 0 0 0
0.046173096 0.010391235 -0.36132812 0 0 0 0
0.047851562 0.010391235 -0.36132812 0 0 0 0
0.049560547 0.010391235 -0.36132812 0 0 0 0
0.05456543 0.0075645447 -0.26293945 0 0 0 0
0.055786133 0.0075645447 -0.26293945 0 0 0 0
0.057037354 0.0075645447 -0.26293945 0 0 0 0
0.058258057 0.0075645447 -0.26293945 0 0 0 0
0.059509277 0.0075645447 -0.26293945 0 0 0 0
0.06072998 0.0075645447 -0.26293945 0 0 0 0
0.061981201 0.0075645447 -0.26293945 0 0 0 0
0.063171387 0.0075645447 -0.26293945 0 0 0 0
0.06439209 0.0075645447 -0.26293945 0 0 0 0
0.065673828 0.0075645447 -0.26293945 0 0 0 0
0.066894531 0.0075645447 -0.26293945 0 0 0 0
0.068115234 0.0075645447 -0.26293945 0 0 0 0
0.069335938 0.0075645447 -0.26293945 0 0 0 0
0.070861816 0.0075950623 -0.26391602 0 0 0 0
0.07208252 0.0075950623 -0.26391602 0 0 0 0
0.073303223 0.0075950623 -0.26391602 0 0 0 0
0.074279785 0.0075645447 -0.26293945 0 0 0 0
0.075500488 0.0075645447 -0.26293945 0 0 0 0
0.076782227 0.0075645447 -0.26293945 0 0 0 0
0.07800293 0.0075645447 -0.26293945 0 0 0 0
0.079223633 0.0075645447 -0.26293945 0 0 0 0
0.080444336 0.0075645447 -0.26293945 0 0 0 0
0.081665039 0.0075645447 -0.26293945 0 0 0 0
0.082946777 0.0075645447 -0.26293945 0 0 0 0
0.08416748 0.0075645447 -0.26293945 0 0 0 0
0.085388184 0.0075645447 -0.26293945 0 0 0 0
0.086608887 0.0075645447 -0.26293945 0 0 0 0
0.08782959 0.0075645447 -0.26293945 0 0 0 0
0.089111328 0.0075645447 -0.26293945 0 0 0 0
0.090332031 0.0075645447 -0.26293945 0 0 0 0
0.091552734 0.0075645447 -0.26293945 0 0 0 0
0.092773438 0.0075645447 -0.26293945 0 0 0 0
0.093994141 0.0075645447 -0.26293945 0 0 0 0
0.095275879 0.0075645447 -0.26293945 0 0 0 0
0.096496582 0.0075645447 -0.26293945 0 0 0 0
0.098083496 0.0075950623 -0.26391602 0 0 0 0
0.099304199 0.0075950623 -0.26391602 0 0 0 0
0.10058594 0.0075950623 -0.26391602 0 0 0 0
0.10180664 0.0075950623 -0.26391602 0 0 0 0
0.10302734 0.0075950623 -0.26391602 0 0 0 0
0.10430908 0.0075950623 -0.26391602 0 0 0 0
-0.085998535 0.0085296631 -0.35424805 0 0 0 0
-0.084289551 0.0085296631 -0.35424805 0 0 0 0
-0.082397461 0.0085067749 -0.35327148 0 0 0 0
-0.080749512 0.0085067749 -0.35327148 0 0 0 0
-0.079101562 0.0085067749 -0.35327148 0 0 0 0
-0.077453613 0.0085067749 -0.35327148 0 0 0 0
-0.075805664 0.0085067749 -0.35327148 0 0 0 0
-0.07434082 0.0085296631 -0.35424805 0 0 0 0
-0.072692871 0.0085296631 -0.35424805 0 0 0 0
-0.071228027 0.0085525513 -0.35522461 0 0 0 0
-0.069763184 0.0085754395 -0.35620117 0 0 0 0
-0.068481445 0.0086288452 -0.35839844 0 0 0 0
-0.066955566 0.0086517334 -0.359375 0 0 0 0
-0.065673828 0.0086975098 -0.36132812 0 0 0 0
-0.065551758 0.0089187622 -0.37036133 0 0 0 0
-0.063964844 0.0089416504 -0.37133789 0 0 0 0
-0.062438965 0.0089645386 -0.37231445 0 0 0 0
-0.060852051 0.0089874268 -0.37329102 0 0 0 0
-0.059265137 0.0090103149 -0.37426758 0 0 0 0
-0.057495117 0.0090103149 -0.37426758 0 0 0 0
-0.055877686 0.0090332031 -0.37524414 0 0 0 0
-0.054138184 0.0090332031 -0.37524414 0 0 0 0
-0.052520752 0.0090637207 -0.37646484 0 0 0 0
-0.050872803 0.0090866089 -0.37744141 0 0 0 0
-0.049224854 0.0091094971 -0.37841797 0 0 0 0
-0.047576904 0.0091323853 -0.37939453 0 0 0 0
-0.045928955 0.0091552734 -0.38037109 0 0 0 0
-0.044250488 0.0091781616 -0.38134766 0 0 0 0
-0.042816162 0.0092544556 -0.38427734 0 0 0 0
-0.04208374 0.0094985962 -0.39453125 0 0 0 0
-0.040344238 0.0095214844 -0.39550781 0 0 0 0
-0.038574219 0.0095443726 -0.39648438 0 0 0 0
-0.036712646 0.0095443726 -0.39648438 0 0 0 0
-0.034759521 0.0095214844 -0.39550781 0 0 0 0
-0.032836914 0.0094985962 -0.39453125 0 0 0 0
-0.030990601 0.0094985962 -0.39453125 0 0 0 0
-0.029129028 0.0094985962 -0.39453125 0 0 0 0
-0.027359009 0.0095214844 -0.39550781 0 0 0 0
-0.025558472 0.0095443726 -0.39648438 0 0 0 0
-0.023757935 0.0095672607 -0.39746094 0 0 0 0
-0.021957397 0.0095901489 -0.3984375 0 0 0 0
0.018798828 0.0085754395 -0.35620117 0 0 0 0
0.020401001 0.0085525513 -0.35522461 0 0 0 0
0.022079468 0.0085525513 -0.35522461 0 0 0 0
0.023742676 0.0085525513 -0.35522461 0 0 0 0
0.025405884 0.0085525513 -0.35522461 0 0 0 0
0.027069092 0.0085525513 -0.35522461 0 0 0 0
0.028823853 0.0085754395 -0.35620117 0 0 0 0
0.030487061 0.0085754395 -0.35620117 0 0 0 0
0.03225708 0.0085983276 -0.35717773 0 0 0 0
0.0340271 0.0086288452 -0.35839844 0 0 0 0
0.035797119 0.0086517334 -0.359375 0 0 0 0
0.037475586 0.0086517334 -0.359375 0 0 0 0
0.039276123 0.0086746216 -0.36035156 0 0 0 0
0.04107666 0.0086975098 -0.36132812 0 0 0 0
0.042785645 0.0086975098 -0.36132812 0 0 0 0
0.044464111 0.0086975098 -0.36132812 0 0 0 0
0.046173096 0.0086975098 -0.36132812 0 0 0 0
0.047851562 0.0086975098 -0.36132812 0 0 0 0
0.049560547 0.0086975098 -0.36132812 0 0 0 0
0.060974121 0.0063552856 -0.26391602 0 0 0 0
0.061981201 0.0063323975 -0.26293945 0 0 0 0
0.063171387 0.0063323975 -0.26293945 0 0 0 0
0.06439209 0.0063323975 -0.26293945 0 0 0 0
0.065673828 0.0063323975 -0.26293945 0 0 0 0
0.066894531 0.0063323975 -0.26293945 0 0 0 0
0.068115234 0.0063323975 -0.26293945 0 0 0 0
0.069641113 0.0063552856 -0.26391602 0 0 0 0
0.070861816 0.0063552856 -0.26391602 0 0 0 0
0.07208252 0.0063552856 -0.26391602 0 0 0 0
0.073303223 0.0063552856 -0.26391602 0 0 0 0
0.074584961 0.0063552856 -0.26391602 0 0 0 0
0.075500488 0.0063323975 -0.26293945 0 0 0 0
0.076782227 0.0063323975 -0.26293945 0 0 0 0
0.07800293 0.0063323975 -0.26293945 0 0 0 0
0.079223633 0.0063323975 -0.26293945 0 0 0 0
0.080444336 0.0063323975 -0.26293945 0 0 0 0
0.081665039 0.0063323975 -0.26293945 0 0 0 0
0.082946777 0.0063323975 -0.26293945 0 0 0 0
0.08416748 0.0063323975 -0.26293945 0 0 0 0
0.085388184 0.0063323975 -0.26293945 0 0 0 0
0.086608887 0.0063323975 -0.26293945 0 0 0 0
0.08782959 0.0063323975 -0.26293945 0 0 0 0
0.089111328 0.0063323975 -0.26293945 0 0 0 0
0.090332031 0.0063323975 -0.26293945 0 0 0 0
0.091552734 0.0063323975 -0.26293945 0 0 0 0
0.092773438 0.0063323975 -0.26293945 0 0 0 0
0.093994141 0.0063323975 -0.26293945 0 0 0 0
0.095275879 0.0063323975 -0.26293945 0 0 0 0
0.096496582 0.0063323975 -0.26293945 0 0 0 0
0.098083496 0.0063552856 -0.26391602 0 0 0 0
0.099304199 0.0063552856 -0.26391602 0 0 0 0
0.10058594 0.0063552856 -0.26391602 0 0 0 0
0.10180664 0.0063552856 -0.26391602 0 0 0 0
0.10302734 0.0063552856 -0.26391602 0 0 0 0
0.10430908 0.0063552856 -0.26391602 0 0 0 0
-0.085998535 0.0068702698 -0.35424805 0 0 0 0
-0.084289551 0.0068702698 -0.35424805 0 0 0 0
-0.082641602 0.0068702698 -0.35424805 0 0 0 0
-0.080749512 0.0068511963 -0.35327148 0 0 0 0
-0.079345703 0.0068702698 -0.35424805 0 0 0 0
-0.077636719 0.0068702698 -0.35424805 0 0 0 0
-0.07598877 0.0068702698 -0.35424805 0 0 0 0
-0.07434082 0.0068702698 -0.35424805 0 0 0 0
-0.072875977 0.0068893433 -0.35522461 0 0 0 0
-0.071411133 0.0069084167 -0.35620117 0 0 0 0
-0.069946289 0.0069274902 -0.35717773 0 0 0 0
-0.068664551 0.0069656372 -0.359375 0 0 0 0
-0.067138672 0.0069847107 -0.36035156 0 0 0 0
-0.065856934 0.0070228577 -0.36230469 0 0 0 0
-0.065185547 0.0071411133 -0.3684082 0 0 0 0
-0.063842773 0.0071792603 -0.37036133 0 0 0 0
-0.062255859 0.0071983337 -0.37133789 0 0 0 0
-0.060668945 0.0072174072 -0.37231445 0 0 0 0
-0.059082031 0.0072402954 -0.37329102 0 0 0 0
-0.057342529 0.0072402954 -0.37329102 0 0 0 0
-0.055725098 0.0072593689 -0.37426758 0 0 0 0
-0.054138184 0.0072784424 -0.37524414 0 0 0 0
-0.052368164 0.0072784424 -0.37524414 0 0 0 0
-0.050750732 0.0072975159 -0.37646484 0 0 0 0
-0.049102783 0.0073165894 -0.37744141 0 0 0 0
-0.047454834 0.0073356628 -0.37841797 0 0 0 0
-0.045928955 0.0073738098 -0.38037109 0 0 0 0
-0.044372559 0.0074119568 -0.38232422 0 0 0 0
-0.042907715 0.0074729919 -0.38549805 0 0 0 0
-0.041748047 0.0075874329 -0.39135742 0 0 0 0
-0.040130615 0.0076293945 -0.39331055 0 0 0 0
-0.038391113 0.007648468 -0.39453125 0 0 0 0
-0.036621094 0.0076675415 -0.39550781 0 0 0 0
-0.034759521 0.0076675415 -0.39550781 0 0 0 0
-0.032897949 0.0076675415 -0.39550781 0 0 0 0
-0.031066895 0.0076675415 -0.39550781 0 0 0 0
-0.029205322 0.0076675415 -0.39550781 0 0 0 0
-0.027420044 0.007686615 -0.39648438 0 0 0 0
-0.025619507 0.0077056885 -0.39746094 0 0 0 0
-0.02381897 0.007724762 -0.3984375 0 0 0 0
0.025405884 0.0068893433 -0.35522461 0 0 0 0
0.027069092 0.0068893433 -0.35522461 0 0 0 0
0.028823853 0.0069084167 -0.35620117 0 0 0 0
0.030487061 0.0069084167 -0.35620117 0 0 0 0
0.03225708 0.0069274902 -0.35717773 0 0 0 0
0.0340271 0.0069465637 -0.35839844 0 0 0 0
0.035797119 0.0069656372 -0.359375 0 0 0 0
0.037597656 0.0069847107 -0.36035156 0 0 0 0
0.039276123 0.0069847107 -0.36035156 0 0 0 0
0.04107666 0.0070037842 -0.36132812 0 0 0 0
0.042785645 0.0070037842 -0.36132812 0 0 0 0
0.044464111 0.0070037842 -0.36132812 0 0 0 0
0.046173096 0.0070037842 -0.36132812 0 0 0 0
0.047851562 0.0070037842 -0.36132812 0 0 0 0
0.06463623 0.005115509 -0.26391602 0 0 0 0
0.065673828 0.0050964355 -0.26293945 0 0 0 0
0.066894531 0.0050964355 -0.26293945 0 0 0 0
0.068359375 0.005115509 -0.26391602 0 0 0 0
0.069641113 0.005115509 -0.26391602 0 0 0 0
0.070861816 0.005115509 -0.26391602 0 0 0 0
0.07208252 0.005115509 -0.26391602 0 0 0 0
0.073303223 0.005115509 -0.26391602 0 0 0 0
0.074584961 0.005115509 -0.26391602 0 0 0 0
0.075805664 0.005115509 -0.26391602 0 0 0 0
0.076782227 0.0050964355 -0.26293945 0 0 0 0
0.07800293 0.0050964355 -0.26293945 0 0 0 0
0.079223633 0.0050964355 -0.26293945 0 0 0 0
0.080444336 0.0050964355 -0.26293945 0 0 0 0
0.081665039 0.0050964355 -0.26293945 0 0 0 0
0.082946777 0.0050964355 -0.26293945 0 0 0 0
0.08416748 0.0050964355 -0.26293945 0 0 0 0
0.085388184 0.0050964355 -0.26293945 0 0 0 0
0.086608887 0.0050964355 -0.26293945 0 0 0 0
0.08782959 0.0050964355 -0.26293945 0 0 0 0
0.089111328 0.0050964355 -0.26293945 0 0 0 0
0.090332031 0.0050964355 -0.26293945 0 0 0 0
0.091552734 0.0050964355 -0.26293945 0 0 0 0
0.092773438 0.0050964355 -0.26293945 0 0 0 0
0.093994141 0.0050964355 -0.26293945 0 0 0 0
0.095275879 0.0050964355 -0.26293945 0 0 0 0
0.096496582 0.0050964355 -0.26293945 0 0 0 0
0.098083496 0.005115509 -0.26391602 0 0 0 0
0.099304199 0.005115509 -0.26391602 0 0 0 0
0.10058594 0.005115509 -0.26391602 0 0 0 0
0.10180664 0.005115509 -0.26391602 0 0 0 0
0.10302734 0.005115509 -0.26391602 0 0 0 0
0.10430908 0.005115509 -0.26391602 0 0 0 0
-0.085998535 0.0052070618 -0.35424805 0 0 0 0
-0.084289551 0.0052070618 -0.35424805 0 0 0 0
-0.082641602 0.0052070618 -0.35424805 0 0 0 0
-0.080993652 0.0052070618 -0.35424805 0 0 0 0
-0.079345703 0.0052070618 -0.35424805 0 0 0 0
-0.077636719 0.0052070618 -0.35424805 0 0 0 0
-0.07598877 0.0052070618 -0.35424805 0 0 0 0
-0.074523926 0.0052223206 -0.35522461 0 0 0 0
-0.073059082 0.0052375793 -0.35620117 0 0 0 0
-0.071594238 0.0052528381 -0.35717773 0 0 0 0
-0.070129395 0.0052642822 -0.35839844 0 0 0 0
-0.068847656 0.0052947998 -0.36035156 0 0 0 0
-0.067321777 0.0053100586 -0.36132812 0 0 0 0
-0.066162109 0.005355835 -0.36425781 0 0 0 0
-0.065185547 0.0054130554 -0.3684082 0 0 0 0
-0.063659668 0.0054283142 -0.36938477 0 0 0 0
-0.062103271 0.005443573 -0.37036133 0 0 0 0
-0.060516357 0.0054588318 -0.37133789 0 0 0 0
-0.058929443 0.0054740906 -0.37231445 0 0 0 0
-0.057189941 0.0054740906 -0.37231445 0 0 0 0
-0.055603027 0.0054855347 -0.37329102 0 0 0 0
-0.053985596 0.0055007935 -0.37426758 0 0 0 0
-0.052368164 0.0055160522 -0.37524414 0 0 0 0
-0.050750732 0.005531311 -0.37646484 0 0 0 0
-0.049102783 0.0055465698 -0.37744141 0 0 0 0
-0.047454834 0.0055618286 -0.37841797 0 0 0 0
-0.045928955 0.0055923462 -0.38037109 0 0 0 0
-0.044250488 0.0056037903 -0.38134766 0 0 0 0
-0.042816162 0.0056495667 -0.38427734 0 0 0 0
-0.041534424 0.0057220459 -0.3894043 0 0 0 0
-0.039916992 0.0057525635 -0.39135742 0 0 0 0
-0.038269043 0.0057830811 -0.39331055 0 0 0 0
-0.036529541 0.0057983398 -0.39453125 0 0 0 0
-0.034759521 0.0058135986 -0.39550781 0 0 0 0
-0.032897949 0.0058135986 -0.39550781 0 0 0 0
-0.031143188 0.0058250427 -0.39648438 0 0 0 0
-0.02935791 0.0058403015 -0.39746094 0 0 0 0
-0.027557373 0.0058555603 -0.3984375 0 0 0 0
-0.025756836 0.0058708191 -0.39941406 0 0 0 0
0.034118652 0.005279541 -0.359375 0 0 0 0
0.035797119 0.005279541 -0.359375 0 0 0 0
0.037597656 0.0052947998 -0.36035156 0 0 0 0
0.039276123 0.0052947998 -0.36035156 0 0 0 0
0.04107666 0.0053100586 -0.36132812 0 0 0 0
0.042785645 0.0053100586 -0.36132812 0 0 0 0
0.044464111 0.0053100586 -0.36132812 0 0 0 0
0.068359375 0.0038795471 -0.26391602 0 0 0 0
0.069641113 0.0038795471 -0.26391602 0 0 0 0
0.070861816 0.0038795471 -0.26391602 0 0 0 0
0.07208252 0.0038795471 -0.26391602 0 0 0 0
0.073303223 0.0038795471 -0.26391602 0 0 0 0
0.074584961 0.0038795471 -0.26391602 0 0 0 0
0.075805664 0.0038795471 -0.26391602 0 0 0 0
0.077026367 0.0038795471 -0.26391602 0 0 0 0
0.07800293 0.0038642883 -0.26293945 0 0 0 0
0.079223633 0.0038642883 -0.26293945 0 0 0 0
0.080444336 0.0038642883 -0.26293945 0 0 0 0
0.081665039 0.0038642883 -0.26293945 0 0 0 0
0.082946777 0.0038642883 -0.26293945 0 0 0 0
0.08416748 0.0038642883 -0.26293945 0 0 0 0
0.085388184 0.0038642883 -0.26293945 0 0 0 0
0.086608887 0.0038642883 -0.26293945 0 0 0 0
0.08782959 0.0038642883 -0.26293945 0 0 0 0
0.089111328 0.0038642883 -0.26293945 0 0 0 0
0.090332031 0.0038642883 -0.26293945 0 0 0 0
0.091552734 0.0038642883 -0.26293945 0 0 0 0
0.092773438 0.0038642883 -0.26293945 0 0 0 0
0.093994141 0.0038642883 -0.26293945 0 0 0 0
0.095275879 0.0038642883 -0.26293945 0 0 0 0
0.096496582 0.0038642883 -0.26293945 0 0 0 0
0.098083496 0.0038795471 -0.26391602 0 0 0 0
0.099304199 0.0038795471 -0.26391602 0 0 0 0
0.10058594 0.0038795471 -0.26391602 0 0 0 0
0.10180664 0.0038795471 -0.26391602 0 0 0 0
0.10302734 0.0038795471 -0.26391602 0 0 0 0
0.10467529 0.0038948059 -0.26489258 0 0 0 0
-0.084289551 0.0035457611 -0.35424805 0 0 0 0
-0.082641602 0.0035457611 -0.35424805 0 0 0 0
-0.080993652 0.0035457611 -0.35424805 0 0 0 0
-0.079528809 0.0035552979 -0.35522461 0 0 0 0
-0.077880859 0.0035552979 -0.35522461 0 0 0 0
-0.07623291 0.0035552979 -0.35522461 0 0 0 0
-0.074768066 0.0035667419 -0.35620117 0 0 0 0
-0.073303223 0.0035762787 -0.35717773 0 0 0 0
-0.071838379 0.0035858154 -0.35839844 0 0 0 0
-0.0703125 0.0035953522 -0.359375 0 0 0 0
-0.069030762 0.003616333 -0.36132812 0 0 0 0
-0.067687988 0.0036373138 -0.36328125 0 0 0 0
-0.066345215 0.0036563873 -0.36523438 0 0 0 0
-0.065002441 0.0036773682 -0.36743164 0 0 0 0
-0.063659668 0.0036964417 -0.36938477 0 0 0 0
-0.062103271 0.0037059784 -0.37036133 0 0 0 0
-0.060516357 0.0037174225 -0.37133789 0 0 0 0
-0.058776855 0.0037174225 -0.37133789 0 0 0 0
-0.057189941 0.0037269592 -0.37231445 0 0 0 0
-0.055603027 0.003736496 -0.37329102 0 0 0 0
-0.053833008 0.003736496 -0.37329102 0 0 0 0
-0.052215576 0.0037460327 -0.37426758 0 0 0 0
-0.050598145 0.0037574768 -0.37524414 0 0 0 0
-0.048980713 0.0037670135 -0.37646484 0 0 0 0
-0.047454834 0.0037879944 -0.37841797 0 0 0 0
-0.045806885 0.0037975311 -0.37939453 0 0 0 0
-0.044250488 0.0038166046 -0.38134766 0 0 0 0
-0.042816162 0.0038471222 -0.38427734 0 0 0 0
-0.041320801 0.0038776398 -0.38745117 0 0 0 0
-0.039825439 0.00390625 -0.39038086 0 0 0 0
-0.03817749 0.0039253235 -0.39233398 0 0 0 0
-0.036529541 0.0039482117 -0.39453125 0 0 0 0
-0.034759521 0.0039558411 -0.39550781 0 0 0 0
-0.032989502 0.0039672852 -0.39648438 0 0 0 0
-0.031219482 0.0039787292 -0.39746094 0 0 0 0
-0.029434204 0.0039863586 -0.3984375 0 0 0 0
-0.027633667 0.0039978027 -0.39941406 0 0 0 0
0.07208252 0.0026416779 -0.26391602 0 0 0 0
0.073303223 0.0026416779 -0.26391602 0 0 0 0
0.074584961 0.0026416779 -0.26391602 0 0 0 0
0.075805664 0.0026416779 -0.26391602 0 0 0 0
0.077026367 0.0026416779 -0.26391602 0 0 0 0
0.078308105 0.0026416779 -0.26391602 0 0 0 0
0.079528809 0.0026416779 -0.26391602 0 0 0 0
0.080749512 0.0026416779 -0.26391602 0 0 0 0
0.081970215 0.0026416779 -0.26391602 0 0 0 0
0.083251953 0.0026416779 -0.26391602 0 0 0 0
0.08416748 0.0026321411 -0.26293945 0 0 0 0
0.085388184 0.0026321411 -0.26293945 0 0 0 0
0.086608887 0.0026321411 -0.26293945 0 0 0 0
0.08782959 0.0026321411 -0.26293945 0 0 0 0
0.089111328 0.0026321411 -0.26293945 0 0 0 0
0.090332031 0.0026321411 -0.26293945 0 0 0 0
0.091552734 0.0026321411 -0.26293945 0 0 0 0
0.092773438 0.0026321411 -0.26293945 0 0 0 0
0.093994141 0.0026321411 -0.26293945 0 0 0 0
0.095275879 0.0026321411 -0.26293945 0 0 0 0
0.096496582 0.0026321411 -0.26293945 0 0 0 0
0.098083496 0.0026416779 -0.26391602 0 0 0 0
0.099304199 0.0026416779 -0.26391602 0 0 0 0
0.10058594 0.0026416779 -0.26391602 0 0 0 0
0.10180664 0.0026416779 -0.26391602 0 0 0 0
0.10302734 0.0026416779 -0.26391602 0 0 0 0
-0.082641602 0.0018844604 -0.35424805 0 0 0 0
-0.081237793 0.0018901825 -0.35522461 0 0 0 0
-0.079772949 0.0018949509 -0.35620117 0 0 0 0
-0.078125 0.0018949509 -0.35620117 0 0 0 0
-0.076416016 0.0018949509 -0.35620117 0 0 0 0
-0.074951172 0.0019006729 -0.35717773 0 0 0 0
-0.073486328 0.001906395 -0.35839844 0 0 0 0
-0.072021484 0.0019111633 -0.359375 0 0 0 0
-0.070556641 0.0019168854 -0.36035156 0 0 0 0
-0.069213867 0.0019273758 -0.36230469 0 0 0 0
-0.067871094 0.0019378662 -0.36425781 0 0 0 0
-0.066345215 0.0019435883 -0.36523438 0 0 0 0
-0.065185547 0.001958847 -0.3684082 0 0 0 0
-0.063659668 0.0019645691 -0.36938477 0 0 0 0
-0.062103271 0.0019702911 -0.37036133 0 0 0 0
-0.060516357 0.0019741058 -0.37133789 0 0 0 0
-0.058776855 0.0019741058 -0.37133789 0 0 0 0
-0.057189941 0.0019798279 -0.37231445 0 0 0 0
-0.055450439 0.0019798279 -0.37231445 0 0 0 0
-0.053833008 0.0019855499 -0.37329102 0 0 0 0
-0.052215576 0.001991272 -0.37426758 0 0 0 0
-0.050598145 0.001996994 -0.37524414 0 0 0 0
-0.048980713 0.0020008087 -0.37646484 0 0 0 0
-0.047332764 0.0020065308 -0.37744141 0 0 0 0
-0.045806885 0.0020179749 -0.37939453 0 0 0 0
-0.044250488 0.0020275116 -0.38134766 0 0 0 0
-0.042694092 0.0020389557 -0.38330078 0 0 0 0
-0.041229248 0.0020542145 -0.38647461 0 0 0 0
-0.039703369 0.0020713806 -0.3894043 0 0 0 0
-0.03817749 0.0020866394 -0.39233398 0 0 0 0
-0.036529541 0.0020980835 -0.39453125 0 0 0 0
-0.034759521 0.0021038055 -0.39550781 0 0 0 0
-0.033081055 0.0021133423 -0.39746094 0 0 0 0
-0.031280518 0.0021190643 -0.3984375 0 0 0 0
