ply
format ascii 1.0
comment PCL generated
element vertex 1082
property float x
property float y
property float z
property float nx
property float ny
property float nz
property float curvature
element face 0
element camera 0
property float view_px
property float view_py
property float view_pz
property float x_axisx
property float x_axisy
property float x_axisz
property float y_axisx
property float y_axisy
property float y_axisz
property float z_axisx
property float z_axisy
property float z_axisz
property float focal
property float scalex
property float scaley
property float centerx
property float centery
property int viewportx
property int viewporty
property float k1
property float k2
end_header
0.11358643 0.047363281 -0.33520508 0 0 0 0
0.11480713 0.047241211 -0.33422852 0 0 0 0
0.11639404 0.047241211 -0.33422852 0 0 0 0
0.11761475 0.047088623 -0.33325195 0 0 0 0
0.11877441 0.046936035 -0.33227539 0 0 0 0
0.12036133 0.046936035 -0.33227539 0 0 0 0
0.121521 0.046813965 -0.33105469 0 0 0 0
0.12310791 0.046813965 -0.33105469 0 0 0 0
0.12463379 0.046813965 -0.33105469 0 0 0 0
0.1262207 0.046813965 -0.33105469 0 0 0 0
0.12768555 0.046813965 -0.33105469 0 0 0 0
0.12927246 0.046813965 -0.33105469 0 0 0 0
0.13122559 0.046936035 -0.33227539 0 0 0 0
0.13317871 0.047088623 -0.33325195 0 0 0 0
0.13513184 0.047241211 -0.33422852 0 0 0 0
0.13708496 0.047363281 -0.33520508 0 0 0 0
0.13916016 0.047515869 -0.33618164 0 0 0 0
0.14111328 0.047637939 -0.3371582 0 0 0 0
0.14318848 0.047790527 -0.33813477 0 0 0 0
0.1451416 0.047943115 -0.33911133 0 0 0 0
0.14672852 0.047943115 -0.33911133 0 0 0 0
0.14880371 0.048065186 -0.34008789 0 0 0 0
0.15075684 0.048217773 -0.34130859 0 0 0 0
0.15515137 0.049072266 -0.34716797 0 0 0 0
0.15856934 0.0496521 -0.35131836 0 0 0 0
0.16064453 0.04977417 -0.35229492 0 0 0 0
0.16271973 0.049926758 -0.35327148 0 0 0 0
0.16442871 0.049926758 -0.35327148 0 0 0 0
-0.048980713 0.0496521 -0.36328125 0 0 0 0
-0.047149658 0.049499512 -0.36230469 0 0 0 0
-0.045440674 0.049499512 -0.36230469 0 0 0 0
-0.043640137 0.049377441 -0.36132812 0 0 0 0
-0.041931152 0.049377441 -0.36132812 0 0 0 0
-0.040130615 0.049224854 -0.36035156 0 0 0 0
-0.038421631 0.049224854 -0.36035156 0 0 0 0
-0.036651611 0.049102783 -0.359375 0 0 0 0
-0.034942627 0.049102783 -0.359375 0 0 0 0
-0.03326416 0.049102783 -0.359375 0 0 0 0
-0.031494141 0.048950195 -0.35839844 0 0 0 0
-0.02973938 0.048828125 -0.35717773 0 0 0 0
-0.027984619 0.048675537 -0.35620117 0 0 0 0
-0.026245117 0.048553467 -0.35522461 0 0 0 0
-0.024505615 0.048400879 -0.35424805 0 0 0 0
-0.022781372 0.048278809 -0.35327148 0 0 0 0
-0.021118164 0.048278809 -0.35327148 0 0 0 0
-0.019470215 0.048278809 -0.35327148 0 0 0 0
-0.017807007 0.048278809 -0.35327148 0 0 0 0
-0.016143799 0.048278809 -0.35327148 0 0 0 0
-0.01449585 0.048278809 -0.35327148 0 0 0 0
-0.012840271 0.048278809 -0.35327148 0 0 0 0
-0.011184692 0.048278809 -0.35327148 0 0 0 0
-0.0095214844 0.048278809 -0.35327148 0 0 0 0
0.001871109 0.043609619 -0.3190918 0 0 0 0
0.0033779144 0.043731689 -0.32006836 0 0 0 0
0.004863739 0.043609619 -0.3190918 0 0 0 0
0.006362915 0.043609619 -0.3190918 0 0 0 0
0.0078353882 0.043457031 -0.31811523 0 0 0 0
0.0093231201 0.043457031 -0.31811523 0 0 0 0
0.010818481 0.043457031 -0.31811523 0 0 0 0
0.012306213 0.043457031 -0.31811523 0 0 0 0
0.013847351 0.043609619 -0.3190918 0 0 0 0
0.015388489 0.043731689 -0.32006836 0 0 0 0
0.017105103 0.044281006 -0.32421875 0 0 0 0
0.018737793 0.044555664 -0.32617188 0 0 0 0
0.020324707 0.044708252 -0.32714844 0 0 0 0
0.02192688 0.044830322 -0.328125 0 0 0 0
0.023544312 0.04498291 -0.32910156 0 0 0 0
0.025161743 0.04510498 -0.33007812 0 0 0 0
0.026794434 0.045257568 -0.33105469 0 0 0 0
0.028427124 0.045379639 -0.33227539 0 0 0 0
0.029983521 0.045379639 -0.33227539 0 0 0 0
0.031646729 0.045532227 -0.33325195 0 0 0 0
0.033203125 0.045532227 -0.33325195 0 0 0 0
0.034759521 0.045532227 -0.33325195 0 0 0 0
0.036315918 0.045532227 -0.33325195 0 0 0 0
0.037902832 0.045532227 -0.33325195 0 0 0 0
0.039337158 0.045379639 -0.33227539 0 0 0 0
0.040893555 0.045379639 -0.33227539 0 0 0 0
0.042327881 0.045257568 -0.33105469 0 0 0 0
0.043731689 0.04510498 -0.33007812 0 0 0 0
0.045166016 0.04498291 -0.32910156 0 0 0 0
0.046569824 0.044830322 -0.328125 0 0 0 0
0.047943115 0.044708252 -0.32714844 0 0 0 0
0.049316406 0.044555664 -0.32617188 0 0 0 0
0.050537109 0.044281006 -0.32421875 0 0 0 0
0.052062988 0.044281006 -0.32421875 0 0 0 0
0.053436279 0.044158936 -0.32324219 0 0 0 0
0.064086914 0.048828125 -0.35717773 0 0 0 0
0.065734863 0.048828125 -0.35717773 0 0 0 0
0.067443848 0.048828125 -0.35717773 0 0 0 0
0.069091797 0.048828125 -0.35717773 0 0 0 0
0.070800781 0.048828125 -0.35717773 0 0 0 0
0.07244873 0.048828125 -0.35717773 0 0 0 0
0.074157715 0.048828125 -0.35717773 0 0 0 0
0.075805664 0.048828125 -0.35717773 0 0 0 0
0.077514648 0.048828125 -0.35717773 0 0 0 0
0.079162598 0.048828125 -0.35717773 0 0 0 0
0.080810547 0.048828125 -0.35717773 0 0 0 0
0.082519531 0.048828125 -0.35717773 0 0 0 0
0.08416748 0.048828125 -0.35717773 0 0 0 0
0.085876465 0.048828125 -0.35717773 0 0 0 0
0.087524414 0.048828125 -0.35717773 0 0 0 0
0.089233398 0.048828125 -0.35717773 0 0 0 0
0.090881348 0.048828125 -0.35717773 0 0 0 0
0.092285156 0.048675537 -0.35620117 0 0 0 0
0.093994141 0.048675537 -0.35620117 0 0 0 0
0.09564209 0.048675537 -0.35620117 0 0 0 0
0.097351074 0.048675537 -0.35620117 0 0 0 0
0.098999023 0.048675537 -0.35620117 0 0 0 0
0.10040283 0.048553467 -0.35522461 0 0 0 0
0.10205078 0.048553467 -0.35522461 0 0 0 0
0.10369873 0.048553467 -0.35522461 0 0 0 0
0.10510254 0.048400879 -0.35424805 0 0 0 0
0.10192871 0.046203613 -0.33813477 0 0 0 0
0.1038208 0.046356201 -0.33911133 0 0 0 0
0.10540771 0.046356201 -0.33911133 0 0 0 0
0.10668945 0.046203613 -0.33813477 0 0 0 0
0.10827637 0.046203613 -0.33813477 0 0 0 0
0.10986328 0.046203613 -0.33813477 0 0 0 0
0.11108398 0.046081543 -0.3371582 0 0 0 0
0.11236572 0.045928955 -0.33618164 0 0 0 0
0.1138916 0.045928955 -0.33618164 0 0 0 0
0.11517334 0.045806885 -0.33520508 0 0 0 0
0.11639404 0.045654297 -0.33422852 0 0 0 0
0.11761475 0.045532227 -0.33325195 0 0 0 0
0.11914062 0.045532227 -0.33325195 0 0 0 0
0.12036133 0.045379639 -0.33227539 0 0 0 0
0.12188721 0.045379639 -0.33227539 0 0 0 0
0.12347412 0.045379639 -0.33227539 0 0 0 0
0.12463379 0.045257568 -0.33105469 0 0 0 0
0.1262207 0.045257568 -0.33105469 0 0 0 0
0.12805176 0.045379639 -0.33227539 0 0 0 0
0.12963867 0.045379639 -0.33227539 0 0 0 0
0.1315918 0.045532227 -0.33325195 0 0 0 0
0.13317871 0.045532227 -0.33325195 0 0 0 0
0.13513184 0.045654297 -0.33422852 0 0 0 0
0.13757324 0.045928955 -0.33618164 0 0 0 0
0.13952637 0.046081543 -0.3371582 0 0 0 0
0.14160156 0.046203613 -0.33813477 0 0 0 0
0.14355469 0.046356201 -0.33911133 0 0 0 0
0.14562988 0.046478271 -0.34008789 0 0 0 0
0.1472168 0.046478271 -0.34008789 0 0 0 0
0.14916992 0.046630859 -0.34130859 0 0 0 0
0.15429688 0.047729492 -0.34912109 0 0 0 0
0.15649414 0.047851562 -0.3503418 0 0 0 0
0.15856934 0.04800415 -0.35131836 0 0 0 0
0.16064453 0.048126221 -0.35229492 0 0 0 0
0.16271973 0.048278809 -0.35327148 0 0 0 0
0.16442871 0.048278809 -0.35327148 0 0 0 0
-0.048980713 0.047943115 -0.36328125 0 0 0 0
-0.047149658 0.047790527 -0.36230469 0 0 0 0
-0.045318604 0.047668457 -0.36132812 0 0 0 0
-0.043640137 0.047668457 -0.36132812 0 0 0 0
-0.041809082 0.047546387 -0.36035156 0 0 0 0
-0.040130615 0.047546387 -0.36035156 0 0 0 0
-0.038330078 0.047393799 -0.359375 0 0 0 0
-0.036651611 0.047393799 -0.359375 0 0 0 0
-0.034942627 0.047393799 -0.359375 0 0 0 0
-0.033172607 0.047271729 -0.35839844 0 0 0 0
-0.031402588 0.047149658 -0.35717773 0 0 0 0
-0.029663086 0.04699707 -0.35620117 0 0 0 0
-0.027908325 0.046875 -0.35522461 0 0 0 0
-0.026245117 0.046875 -0.35522461 0 0 0 0
-0.024505615 0.04675293 -0.35424805 0 0 0 0
-0.022781372 0.046600342 -0.35327148 0 0 0 0
-0.021118164 0.046600342 -0.35327148 0 0 0 0
-0.019470215 0.046600342 -0.35327148 0 0 0 0
-0.017807007 0.046600342 -0.35327148 0 0 0 0
-0.016143799 0.046600342 -0.35327148 0 0 0 0
-0.01449585 0.046600342 -0.35327148 0 0 0 0
-0.012840271 0.046600342 -0.35327148 0 0 0 0
-0.011184692 0.046600342 -0.35327148 0 0 0 0
-0.0026931763 0.043304443 -0.328125 0 0 0 0
-0.0011501312 0.043151855 -0.32714844 0 0 0 0
0.00038266182 0.043029785 -0.32617188 0 0 0 0
0.0019006729 0.042755127 -0.32421875 0 0 0 0
0.0033988953 0.042510986 -0.32202148 0 0 0 0
0.0048942566 0.042358398 -0.32104492 0 0 0 0
0.0063819885 0.042236328 -0.32006836 0 0 0 0
0.0078582764 0.042114258 -0.3190918 0 0 0 0
0.0093536377 0.042114258 -0.3190918 0 0 0 0
0.010848999 0.042114258 -0.3190918 0 0 0 0
0.01234436 0.042114258 -0.3190918 0 0 0 0
0.013885498 0.042236328 -0.32006836 0 0 0 0
0.015441895 0.042358398 -0.32104492 0 0 0 0
0.017105103 0.042755127 -0.32421875 0 0 0 0
0.018676758 0.042907715 -0.32519531 0 0 0 0
0.020324707 0.043151855 -0.32714844 0 0 0 0
0.02192688 0.043304443 -0.328125 0 0 0 0
0.023544312 0.043426514 -0.32910156 0 0 0 0
0.025161743 0.043548584 -0.33007812 0 0 0 0
0.026794434 0.043701172 -0.33105469 0 0 0 0
0.028427124 0.043823242 -0.33227539 0 0 0 0
0.030075073 0.043945312 -0.33325195 0 0 0 0
0.031646729 0.043945312 -0.33325195 0 0 0 0
0.033203125 0.043945312 -0.33325195 0 0 0 0
0.034881592 0.0440979 -0.33422852 0 0 0 0
0.036437988 0.0440979 -0.33422852 0 0 0 0
0.037902832 0.043945312 -0.33325195 0 0 0 0
0.039459229 0.043945312 -0.33325195 0 0 0 0
0.040893555 0.043823242 -0.33227539 0 0 0 0
0.042449951 0.043823242 -0.33227539 0 0 0 0
0.043884277 0.043701172 -0.33105469 0 0 0 0
0.045288086 0.043548584 -0.33007812 0 0 0 0
0.046691895 0.043426514 -0.32910156 0 0 0 0
0.048095703 0.043304443 -0.328125 0 0 0 0
0.049468994 0.043151855 -0.32714844 0 0 0 0
0.050689697 0.042907715 -0.32519531 0 0 0 0
0.052062988 0.042755127 -0.32421875 0 0 0 0
0.053588867 0.042755127 -0.32421875 0 0 0 0
0.06072998 0.047149658 -0.35717773 0 0 0 0
0.062408447 0.047149658 -0.35717773 0 0 0 0
0.064086914 0.047149658 -0.35717773 0 0 0 0
0.065734863 0.047149658 -0.35717773 0 0 0 0
0.067443848 0.047149658 -0.35717773 0 0 0 0
0.069091797 0.047149658 -0.35717773 0 0 0 0
0.070800781 0.047149658 -0.35717773 0 0 0 0
0.07244873 0.047149658 -0.35717773 0 0 0 0
0.074157715 0.047149658 -0.35717773 0 0 0 0
0.075805664 0.047149658 -0.35717773 0 0 0 0
0.077514648 0.047149658 -0.35717773 0 0 0 0
0.079162598 0.047149658 -0.35717773 0 0 0 0
0.080810547 0.047149658 -0.35717773 0 0 0 0
0.082519531 0.047149658 -0.35717773 0 0 0 0
0.08416748 0.047149658 -0.35717773 0 0 0 0
0.085876465 0.047149658 -0.35717773 0 0 0 0
0.087524414 0.047149658 -0.35717773 0 0 0 0
0.089233398 0.047149658 -0.35717773 0 0 0 0
0.090881348 0.047149658 -0.35717773 0 0 0 0
0.092285156 0.04699707 -0.35620117 0 0 0 0
0.093994141 0.04699707 -0.35620117 0 0 0 0
0.09564209 0.04699707 -0.35620117 0 0 0 0
0.097351074 0.04699707 -0.35620117 0 0 0 0
0.098999023 0.04699707 -0.35620117 0 0 0 0
0.10064697 0.04699707 -0.35620117 0 0 0 0
0.10205078 0.046875 -0.35522461 0 0 0 0
0.10369873 0.046875 -0.35522461 0 0 0 0
0.10510254 0.04675293 -0.35424805 0 0 0 0
0.10675049 0.04675293 -0.35424805 0 0 0 0
0.1038208 0.044769287 -0.33911133 0 0 0 0
0.10540771 0.044769287 -0.33911133 0 0 0 0
0.10699463 0.044769287 -0.33911133 0 0 0 0
0.10858154 0.044769287 -0.33911133 0 0 0 0
0.10986328 0.044616699 -0.33813477 0 0 0 0
0.1114502 0.044616699 -0.33813477 0 0 0 0
0.1126709 0.044494629 -0.3371582 0 0 0 0
0.1138916 0.044342041 -0.33618164 0 0 0 0
0.11517334 0.044219971 -0.33520508 0 0 0 0
0.11669922 0.044219971 -0.33520508 0 0 0 0
0.11791992 0.0440979 -0.33422852 0 0 0 0
0.11914062 0.043945312 -0.33325195 0 0 0 0
0.12072754 0.043945312 -0.33325195 0 0 0 0
0.12188721 0.043823242 -0.33227539 0 0 0 0
0.12347412 0.043823242 -0.33227539 0 0 0 0
0.125 0.043823242 -0.33227539 0 0 0 0
0.12658691 0.043823242 -0.33227539 0 0 0 0
0.12805176 0.043823242 -0.33227539 0 0 0 0
0.13000488 0.043945312 -0.33325195 0 0 0 0
0.1315918 0.043945312 -0.33325195 0 0 0 0
0.13354492 0.0440979 -0.33422852 0 0 0 0
0.13562012 0.044219971 -0.33520508 0 0 0 0
0.13757324 0.044342041 -0.33618164 0 0 0 0
0.14001465 0.044616699 -0.33813477 0 0 0 0
0.14196777 0.044769287 -0.33911133 0 0 0 0
0.1439209 0.044891357 -0.34008789 0 0 0 0
0.14599609 0.045013428 -0.34130859 0 0 0 0
0.14807129 0.045166016 -0.34228516 0 0 0 0
0.15478516 0.046203613 -0.3503418 0 0 0 0
0.15686035 0.046356201 -0.35131836 0 0 0 0
0.15893555 0.046478271 -0.35229492 0 0 0 0
0.16064453 0.046478271 -0.35229492 0 0 0 0
0.16235352 0.046478271 -0.35229492 0 0 0 0
-0.048980713 0.046234131 -0.36328125 0 0 0 0
-0.047149658 0.046112061 -0.36230469 0 0 0 0
-0.045318604 0.045959473 -0.36132812 0 0 0 0
-0.043640137 0.045959473 -0.36132812 0 0 0 0
-0.041809082 0.045837402 -0.36035156 0 0 0 0
-0.040008545 0.045715332 -0.359375 0 0 0 0
-0.038330078 0.045715332 -0.359375 0 0 0 0
-0.036651611 0.045715332 -0.359375 0 0 0 0
-0.034851074 0.045593262 -0.35839844 0 0 0 0
-0.033172607 0.045593262 -0.35839844 0 0 0 0
-0.031402588 0.045471191 -0.35717773 0 0 0 0
-0.029663086 0.045349121 -0.35620117 0 0 0 0
-0.027908325 0.045196533 -0.35522461 0 0 0 0
-0.026168823 0.045074463 -0.35424805 0 0 0 0
-0.024505615 0.045074463 -0.35424805 0 0 0 0
-0.022781372 0.044952393 -0.35327148 0 0 0 0
-0.021118164 0.044952393 -0.35327148 0 0 0 0
-0.019470215 0.044952393 -0.35327148 0 0 0 0
-0.017807007 0.044952393 -0.35327148 0 0 0 0
-0.016143799 0.044952393 -0.35327148 0 0 0 0
-0.01449585 0.044952393 -0.35327148 0 0 0 0
-0.012840271 0.044952393 -0.35327148 0 0 0 0
-0.0026855469 0.041625977 -0.32714844 0 0 0 0
-0.0011472702 0.041503906 -0.32617188 0 0 0 0
0.00038266182 0.041503906 -0.32617188 0 0 0 0
0.0019006729 0.041259766 -0.32421875 0 0 0 0
0.0034103394 0.041107178 -0.32324219 0 0 0 0
0.0049095154 0.040985107 -0.32202148 0 0 0 0
0.006401062 0.040863037 -0.32104492 0 0 0 0
0.0078811646 0.040740967 -0.32006836 0 0 0 0
0.0093841553 0.040740967 -0.32006836 0 0 0 0
0.010887146 0.040740967 -0.32006836 0 0 0 0
0.012428284 0.040863037 -0.32104492 0 0 0 0
0.013931274 0.040863037 -0.32104492 0 0 0 0
0.015487671 0.040985107 -0.32202148 0 0 0 0
0.017105103 0.041259766 -0.32421875 0 0 0 0
0.018737793 0.041503906 -0.32617188 0 0 0 0
0.020324707 0.041625977 -0.32714844 0 0 0 0
0.02192688 0.041748047 -0.328125 0 0 0 0
0.023544312 0.041900635 -0.32910156 0 0 0 0
0.025161743 0.042022705 -0.33007812 0 0 0 0
0.026794434 0.042144775 -0.33105469 0 0 0 0
0.028427124 0.042266846 -0.33227539 0 0 0 0
0.030075073 0.042388916 -0.33325195 0 0 0 0
0.031646729 0.042388916 -0.33325195 0 0 0 0
0.033294678 0.042510986 -0.33422852 0 0 0 0
0.034881592 0.042510986 -0.33422852 0 0 0 0
0.036437988 0.042510986 -0.33422852 0 0 0 0
0.037994385 0.042510986 -0.33422852 0 0 0 0
0.039459229 0.042388916 -0.33325195 0 0 0 0
0.041015625 0.042388916 -0.33325195 0 0 0 0
0.042449951 0.042266846 -0.33227539 0 0 0 0
0.043884277 0.042144775 -0.33105469 0 0 0 0
0.045288086 0.042022705 -0.33007812 0 0 0 0
0.046691895 0.041900635 -0.32910156 0 0 0 0
0.048095703 0.041748047 -0.328125 0 0 0 0
0.049468994 0.041625977 -0.32714844 0 0 0 0
0.055725098 0.045471191 -0.35717773 0 0 0 0
0.057403564 0.045471191 -0.35717773 0 0 0 0
0.059051514 0.045471191 -0.35717773 0 0 0 0
0.06072998 0.045471191 -0.35717773 0 0 0 0
0.062408447 0.045471191 -0.35717773 0 0 0 0
0.064086914 0.045471191 -0.35717773 0 0 0 0
0.065734863 0.045471191 -0.35717773 0 0 0 0
0.067443848 0.045471191 -0.35717773 0 0 0 0
0.069091797 0.045471191 -0.35717773 0 0 0 0
0.070800781 0.045471191 -0.35717773 0 0 0 0
0.07244873 0.045471191 -0.35717773 0 0 0 0
0.074157715 0.045471191 -0.35717773 0 0 0 0
0.075805664 0.045471191 -0.35717773 0 0 0 0
0.077514648 0.045471191 -0.35717773 0 0 0 0
0.079162598 0.045471191 -0.35717773 0 0 0 0
0.080810547 0.045471191 -0.35717773 0 0 0 0
0.082519531 0.045471191 -0.35717773 0 0 0 0
0.08416748 0.045471191 -0.35717773 0 0 0 0
0.085876465 0.045471191 -0.35717773 0 0 0 0
0.087524414 0.045471191 -0.35717773 0 0 0 0
0.089233398 0.045471191 -0.35717773 0 0 0 0
0.090637207 0.045349121 -0.35620117 0 0 0 0
0.092285156 0.045349121 -0.35620117 0 0 0 0
0.093994141 0.045349121 -0.35620117 0 0 0 0
0.09564209 0.045349121 -0.35620117 0 0 0 0
0.097351074 0.045349121 -0.35620117 0 0 0 0
0.098999023 0.045349121 -0.35620117 0 0 0 0
0.10064697 0.045349121 -0.35620117 0 0 0 0
0.10205078 0.045196533 -0.35522461 0 0 0 0
0.10369873 0.045196533 -0.35522461 0 0 0 0
0.10540771 0.045196533 -0.35522461 0 0 0 0
0.10675049 0.045074463 -0.35424805 0 0 0 0
0.10839844 0.045074463 -0.35424805 0 0 0 0
0.10540771 0.043151855 -0.33911133 0 0 0 0
0.10699463 0.043151855 -0.33911133 0 0 0 0
0.10858154 0.043151855 -0.33911133 0 0 0 0
0.11016846 0.043151855 -0.33911133 0 0 0 0
0.1114502 0.043029785 -0.33813477 0 0 0 0
0.11303711 0.043029785 -0.33813477 0 0 0 0
0.11425781 0.042907715 -0.3371582 0 0 0 0
0.11547852 0.042785645 -0.33618164 0 0 0 0
0.11669922 0.042663574 -0.33520508 0 0 0 0
0.11828613 0.042663574 -0.33520508 0 0 0 0
0.11950684 0.042510986 -0.33422852 0 0 0 0
0.12109375 0.042510986 -0.33422852 0 0 0 0
0.12225342 0.042388916 -0.33325195 0 0 0 0
0.12384033 0.042388916 -0.33325195 0 0 0 0
0.12536621 0.042388916 -0.33325195 0 0 0 0
0.12695312 0.042388916 -0.33325195 0 0 0 0
0.12854004 0.042388916 -0.33325195 0 0 0 0
0.13000488 0.042388916 -0.33325195 0 0 0 0
0.13208008 0.042510986 -0.33422852 0 0 0 0
0.1340332 0.042663574 -0.33520508 0 0 0 0
0.13598633 0.042785645 -0.33618164 0 0 0 0
0.13793945 0.042907715 -0.3371582 0 0 0 0
0.14038086 0.043151855 -0.33911133 0 0 0 0
0.14233398 0.043304443 -0.34008789 0 0 0 0
0.14440918 0.043426514 -0.34130859 0 0 0 0
0.14648438 0.043548584 -0.34228516 0 0 0 0
0.14892578 0.043792725 -0.34423828 0 0 0 0
0.15478516 0.044555664 -0.3503418 0 0 0 0
0.15686035 0.044708252 -0.35131836 0 0 0 0
0.15893555 0.044830322 -0.35229492 0 0 0 0
0.16064453 0.044830322 -0.35229492 0 0 0 0
-0.047027588 0.044281006 -0.36132812 0 0 0 0
-0.045318604 0.044281006 -0.36132812 0 0 0 0
-0.043518066 0.044158936 -0.36035156 0 0 0 0
-0.041809082 0.044158936 -0.36035156 0 0 0 0
-0.040008545 0.044036865 -0.359375 0 0 0 0
-0.038330078 0.044036865 -0.359375 0 0 0 0
-0.036529541 0.043914795 -0.35839844 0 0 0 0
-0.034851074 0.043914795 -0.35839844 0 0 0 0
-0.033081055 0.043792725 -0.35717773 0 0 0 0
-0.031311035 0.043670654 -0.35620117 0 0 0 0
-0.029663086 0.043670654 -0.35620117 0 0 0 0
-0.027908325 0.043548584 -0.35522461 0 0 0 0
-0.026168823 0.043426514 -0.35424805 0 0 0 0
-0.024429321 0.043304443 -0.35327148 0 0 0 0
-0.022781372 0.043304443 -0.35327148 0 0 0 0
-0.021118164 0.043304443 -0.35327148 0 0 0 0
-0.019470215 0.043304443 -0.35327148 0 0 0 0
-0.017807007 0.043304443 -0.35327148 0 0 0 0
-0.016143799 0.043304443 -0.35327148 0 0 0 0
-0.01449585 0.043304443 -0.35327148 0 0 0 0
-0.0026760101 0.039978027 -0.32617188 0 0 0 0
-0.0011472702 0.039978027 -0.32617188 0 0 0 0
0.00038146973 0.039855957 -0.32519531 0 0 0 0
0.0019006729 0.039733887 -0.32421875 0 0 0 0
0.0034103394 0.039611816 -0.32324219 0 0 0 0
0.0049095154 0.039489746 -0.32202148 0 0 0 0
0.0064201355 0.039489746 -0.32202148 0 0 0 0
0.0079269409 0.039489746 -0.32202148 0 0 0 0
0.0094146729 0.039367676 -0.32104492 0 0 0 0
0.010955811 0.039489746 -0.32202148 0 0 0 0
0.012466431 0.039489746 -0.32202148 0 0 0 0
0.014015198 0.039611816 -0.32324219 0 0 0 0
0.015533447 0.039611816 -0.32324219 0 0 0 0
0.017150879 0.039855957 -0.32519531 0 0 0 0
0.018737793 0.039978027 -0.32617188 0 0 0 0
0.020324707 0.040100098 -0.32714844 0 0 0 0
0.02192688 0.040222168 -0.328125 0 0 0 0
0.023544312 0.040344238 -0.32910156 0 0 0 0
0.025161743 0.040466309 -0.33007812 0 0 0 0
0.026794434 0.040588379 -0.33105469 0 0 0 0
0.028427124 0.040710449 -0.33227539 0 0 0 0
0.030075073 0.04083252 -0.33325195 0 0 0 0
0.031646729 0.04083252 -0.33325195 0 0 0 0
0.033294678 0.04095459 -0.33422852 0 0 0 0
0.034881592 0.04095459 -0.33422852 0 0 0 0
0.036437988 0.04095459 -0.33422852 0 0 0 0
0.037994385 0.04095459 -0.33422852 0 0 0 0
0.039459229 0.04083252 -0.33325195 0 0 0 0
0.041015625 0.04083252 -0.33325195 0 0 0 0
0.042449951 0.040710449 -0.33227539 0 0 0 0
0.043884277 0.040588379 -0.33105469 0 0 0 0
0.045440674 0.040588379 -0.33105469 0 0 0 0
0.046844482 0.040466309 -0.33007812 0 0 0 0
0.052215576 0.043670654 -0.35620117 0 0 0 0
0.053894043 0.043670654 -0.35620117 0 0 0 0
0.055725098 0.043792725 -0.35717773 0 0 0 0
0.057403564 0.043792725 -0.35717773 0 0 0 0
0.059051514 0.043792725 -0.35717773 0 0 0 0
0.06072998 0.043792725 -0.35717773 0 0 0 0
0.062408447 0.043792725 -0.35717773 0 0 0 0
0.064086914 0.043792725 -0.35717773 0 0 0 0
0.065734863 0.043792725 -0.35717773 0 0 0 0
0.067443848 0.043792725 -0.35717773 0 0 0 0
0.069091797 0.043792725 -0.35717773 0 0 0 0
0.070800781 0.043792725 -0.35717773 0 0 0 0
0.07244873 0.043792725 -0.35717773 0 0 0 0
0.074157715 0.043792725 -0.35717773 0 0 0 0
0.075805664 0.043792725 -0.35717773 0 0 0 0
0.077514648 0.043792725 -0.35717773 0 0 0 0
0.079162598 0.043792725 -0.35717773 0 0 0 0
0.080810547 0.043792725 -0.35717773 0 0 0 0
0.082519531 0.043792725 -0.35717773 0 0 0 0
0.08416748 0.043792725 -0.35717773 0 0 0 0
0.085876465 0.043792725 -0.35717773 0 0 0 0
0.087524414 0.043792725 -0.35717773 0 0 0 0
0.089233398 0.043792725 -0.35717773 0 0 0 0
0.090637207 0.043670654 -0.35620117 0 0 0 0
0.092285156 0.043670654 -0.35620117 0 0 0 0
0.093994141 0.043670654 -0.35620117 0 0 0 0
0.09564209 0.043670654 -0.35620117 0 0 0 0
0.097351074 0.043670654 -0.35620117 0 0 0 0
0.098999023 0.043670654 -0.35620117 0 0 0 0
0.10064697 0.043670654 -0.35620117 0 0 0 0
0.10235596 0.043670654 -0.35620117 0 0 0 0
0.10369873 0.043548584 -0.35522461 0 0 0 0
0.10540771 0.043548584 -0.35522461 0 0 0 0
0.10705566 0.043548584 -0.35522461 0 0 0 0
0.10870361 0.043548584 -0.35522461 0 0 0 0
0.11004639 0.043426514 -0.35424805 0 0 0 0
0.1072998 0.041687012 -0.34008789 0 0 0 0
0.10858154 0.041564941 -0.33911133 0 0 0 0
0.11016846 0.041564941 -0.33911133 0 0 0 0
0.11175537 0.041564941 -0.33911133 0 0 0 0
0.11303711 0.041442871 -0.33813477 0 0 0 0
0.11425781 0.041320801 -0.3371582 0 0 0 0
0.11584473 0.041320801 -0.3371582 0 0 0 0
0.11706543 0.04119873 -0.33618164 0 0 0 0
0.11865234 0.04119873 -0.33618164 0 0 0 0
0.11987305 0.04107666 -0.33520508 0 0 0 0
0.12109375 0.04095459 -0.33422852 0 0 0 0
0.12261963 0.04095459 -0.33422852 0 0 0 0
0.12420654 0.04095459 -0.33422852 0 0 0 0
0.12536621 0.04083252 -0.33325195 0 0 0 0
0.12695312 0.04083252 -0.33325195 0 0 0 0
0.12890625 0.04095459 -0.33422852 0 0 0 0
0.13049316 0.04095459 -0.33422852 0 0 0 0
0.13244629 0.04107666 -0.33520508 0 0 0 0
0.13439941 0.04119873 -0.33618164 0 0 0 0
0.13635254 0.041320801 -0.3371582 0 0 0 0
0.13842773 0.041442871 -0.33813477 0 0 0 0
0.14074707 0.041687012 -0.34008789 0 0 0 0
0.14282227 0.041809082 -0.34130859 0 0 0 0
0.14477539 0.041931152 -0.34228516 0 0 0 0
0.14685059 0.042053223 -0.34326172 0 0 0 0
0.14892578 0.042175293 -0.34423828 0 0 0 0
0.15478516 0.042938232 -0.3503418 0 0 0 0
0.15649414 0.042938232 -0.3503418 0 0 0 0
-0.047149658 0.042694092 -0.36230469 0 0 0 0
-0.045196533 0.042480469 -0.36035156 0 0 0 0
-0.043518066 0.042480469 -0.36035156 0 0 0 0
-0.041687012 0.042358398 -0.359375 0 0 0 0
-0.040008545 0.042358398 -0.359375 0 0 0 0
-0.038208008 0.042236328 -0.35839844 0 0 0 0
-0.036529541 0.042236328 -0.35839844 0 0 0 0
-0.034759521 0.042114258 -0.35717773 0 0 0 0
-0.033081055 0.042114258 -0.35717773 0 0 0 0
-0.031311035 0.041992188 -0.35620117 0 0 0 0
-0.029663086 0.041992188 -0.35620117 0 0 0 0
-0.027908325 0.041870117 -0.35522461 0 0 0 0
-0.026168823 0.041748047 -0.35424805 0 0 0 0
-0.024429321 0.041625977 -0.35327148 0 0 0 0
-0.022781372 0.041625977 -0.35327148 0 0 0 0
-0.021118164 0.041625977 -0.35327148 0 0 0 0
-0.01940918 0.041503906 -0.35229492 0 0 0 0
-0.01776123 0.041503906 -0.35229492 0 0 0 0
-0.0026683807 0.038330078 -0.32519531 0 0 0 0
-0.0011396408 0.038208008 -0.32421875 0 0 0 0
0.00038027763 0.038208008 -0.32421875 0 0 0 0
0.0019006729 0.038208008 -0.32421875 0 0 0 0
0.0034103394 0.038085938 -0.32324219 0 0 0 0
0.0049247742 0.038085938 -0.32324219 0 0 0 0
0.0064430237 0.038085938 -0.32324219 0 0 0 0
0.0079269409 0.037963867 -0.32202148 0 0 0 0
0.0094451904 0.037963867 -0.32202148 0 0 0 0
0.010986328 0.038085938 -0.32324219 0 0 0 0
0.012504578 0.038085938 -0.32324219 0 0 0 0
0.014060974 0.038208008 -0.32421875 0 0 0 0
0.015586853 0.038208008 -0.32421875 0 0 0 0
0.017150879 0.038330078 -0.32519531 0 0 0 0
0.018737793 0.038452148 -0.32617188 0 0 0 0
0.020324707 0.038574219 -0.32714844 0 0 0 0
0.02192688 0.038665771 -0.328125 0 0 0 0
0.023544312 0.038787842 -0.32910156 0 0 0 0
0.025161743 0.038909912 -0.33007812 0 0 0 0
0.026794434 0.039031982 -0.33105469 0 0 0 0
0.028427124 0.039154053 -0.33227539 0 0 0 0
0.030075073 0.039276123 -0.33325195 0 0 0 0
0.031646729 0.039276123 -0.33325195 0 0 0 0
0.033294678 0.039398193 -0.33422852 0 0 0 0
0.034881592 0.039398193 -0.33422852 0 0 0 0
0.036437988 0.039398193 -0.33422852 0 0 0 0
0.037994385 0.039398193 -0.33422852 0 0 0 0
0.039581299 0.039398193 -0.33422852 0 0 0 0
0.041015625 0.039276123 -0.33325195 0 0 0 0
0.042572021 0.039276123 -0.33325195 0 0 0 0
0.047210693 0.041992188 -0.35620117 0 0 0 0
0.048858643 0.041992188 -0.35620117 0 0 0 0
0.050537109 0.041992188 -0.35620117 0 0 0 0
0.052215576 0.041992188 -0.35620117 0 0 0 0
0.053894043 0.041992188 -0.35620117 0 0 0 0
0.055725098 0.042114258 -0.35717773 0 0 0 0
0.057403564 0.042114258 -0.35717773 0 0 0 0
0.059051514 0.042114258 -0.35717773 0 0 0 0
0.06072998 0.042114258 -0.35717773 0 0 0 0
0.062408447 0.042114258 -0.35717773 0 0 0 0
0.064086914 0.042114258 -0.35717773 0 0 0 0
0.065734863 0.042114258 -0.35717773 0 0 0 0
0.067443848 0.042114258 -0.35717773 0 0 0 0
0.069091797 0.042114258 -0.35717773 0 0 0 0
0.070800781 0.042114258 -0.35717773 0 0 0 0
0.07244873 0.042114258 -0.35717773 0 0 0 0
0.074157715 0.042114258 -0.35717773 0 0 0 0
0.075805664 0.042114258 -0.35717773 0 0 0 0
0.077514648 0.042114258 -0.35717773 0 0 0 0
0.079162598 0.042114258 -0.35717773 0 0 0 0
0.080810547 0.042114258 -0.35717773 0 0 0 0
0.082519531 0.042114258 -0.35717773 0 0 0 0
0.08416748 0.042114258 -0.35717773 0 0 0 0
0.085876465 0.042114258 -0.35717773 0 0 0 0
0.087524414 0.042114258 -0.35717773 0 0 0 0
0.088989258 0.041992188 -0.35620117 0 0 0 0
0.090637207 0.041992188 -0.35620117 0 0 0 0
0.092285156 0.041992188 -0.35620117 0 0 0 0
0.093994141 0.041992188 -0.35620117 0 0 0 0
0.09564209 0.041992188 -0.35620117 0 0 0 0
0.097351074 0.041992188 -0.35620117 0 0 0 0
0.098999023 0.041992188 -0.35620117 0 0 0 0
0.10064697 0.041992188 -0.35620117 0 0 0 0
0.10235596 0.041992188 -0.35620117 0 0 0 0
0.10369873 0.041870117 -0.35522461 0 0 0 0
0.10540771 0.041870117 -0.35522461 0 0 0 0
0.10705566 0.041870117 -0.35522461 0 0 0 0
0.10870361 0.041870117 -0.35522461 0 0 0 0
0.1104126 0.041870117 -0.35522461 0 0 0 0
0.11206055 0.041870117 -0.35522461 0 0 0 0
0.10888672 0.040100098 -0.34008789 0 0 0 0
0.11016846 0.039978027 -0.33911133 0 0 0 0
0.11175537 0.039978027 -0.33911133 0 0 0 0
0.11334229 0.039978027 -0.33911133 0 0 0 0
0.11462402 0.039855957 -0.33813477 0 0 0 0
0.11584473 0.039733887 -0.3371582 0 0 0 0
0.11743164 0.039733887 -0.3371582 0 0 0 0
0.11865234 0.039611816 -0.33618164 0 0 0 0
0.12023926 0.039611816 -0.33618164 0 0 0 0
0.12145996 0.039520264 -0.33520508 0 0 0 0
0.12298584 0.039520264 -0.33520508 0 0 0 0
0.12420654 0.039398193 -0.33422852 0 0 0 0
0.12573242 0.039398193 -0.33422852 0 0 0 0
0.12731934 0.039398193 -0.33422852 0 0 0 0
0.12890625 0.039398193 -0.33422852 0 0 0 0
0.13085938 0.039520264 -0.33520508 0 0 0 0
0.13244629 0.039520264 -0.33520508 0 0 0 0
0.13439941 0.039611816 -0.33618164 0 0 0 0
0.13635254 0.039733887 -0.3371582 0 0 0 0
0.13879395 0.039978027 -0.33911133 0 0 0 0
0.14123535 0.040222168 -0.34130859 0 0 0 0
0.14318848 0.040344238 -0.34228516 0 0 0 0
0.14526367 0.040466309 -0.34326172 0 0 0 0
0.14733887 0.040557861 -0.34423828 0 0 0 0
0.14929199 0.040679932 -0.34521484 0 0 0 0
-0.045196533 0.040771484 -0.36035156 0 0 0 0
-0.043395996 0.040649414 -0.359375 0 0 0 0
-0.041687012 0.040649414 -0.359375 0 0 0 0
-0.040008545 0.040649414 -0.359375 0 0 0 0
-0.038208008 0.040557861 -0.35839844 0 0 0 0
-0.036529541 0.040557861 -0.35839844 0 0 0 0
-0.034759521 0.040435791 -0.35717773 0 0 0 0
-0.033081055 0.040435791 -0.35717773 0 0 0 0
-0.031311035 0.040313721 -0.35620117 0 0 0 0
-0.029571533 0.040222168 -0.35522461 0 0 0 0
-0.027908325 0.040222168 -0.35522461 0 0 0 0
-0.026168823 0.040100098 -0.35424805 0 0 0 0
-0.024505615 0.040100098 -0.35424805 0 0 0 0
-0.0041160583 0.036102295 -0.3190918 0 0 0 0
-0.0026512146 0.036560059 -0.32324219 0 0 0 0
-0.0011358261 0.036560059 -0.32324219 0 0 0 0
0.00037908554 0.036560059 -0.32324219 0 0 0 0
0.0018949509 0.036560059 -0.32324219 0 0 0 0
0.0034103394 0.036560059 -0.32324219 0 0 0 0
0.0049247742 0.036560059 -0.32324219 0 0 0 0
0.0064430237 0.036560059 -0.32324219 0 0 0 0
0.0079574585 0.036560059 -0.32324219 0 0 0 0
0.0094680786 0.036560059 -0.32324219 0 0 0 0
0.010986328 0.036560059 -0.32324219 0 0 0 0
0.012542725 0.036682129 -0.32421875 0 0 0 0
0.014060974 0.036682129 -0.32421875 0 0 0 0
0.015625 0.036804199 -0.32519531 0 0 0 0
0.017211914 0.03692627 -0.32617188 0 0 0 0
0.018798828 0.037017822 -0.32714844 0 0 0 0
0.020324707 0.037017822 -0.32714844 0 0 0 0
0.02192688 0.037139893 -0.328125 0 0 0 0
0.023544312 0.037261963 -0.32910156 0 0 0 0
0.025161743 0.037353516 -0.33007812 0 0 0 0
0.026794434 0.037475586 -0.33105469 0 0 0 0
0.02835083 0.037475586 -0.33105469 0 0 0 0
0.029983521 0.037597656 -0.33227539 0 0 0 0
0.035491943 0.040313721 -0.35620117 0 0 0 0
0.03717041 0.040313721 -0.35620117 0 0 0 0
0.038848877 0.040313721 -0.35620117 0 0 0 0
0.040527344 0.040313721 -0.35620117 0 0 0 0
0.042175293 0.040313721 -0.35620117 0 0 0 0
0.04385376 0.040313721 -0.35620117 0 0 0 0
0.045532227 0.040313721 -0.35620117 0 0 0 0
0.047210693 0.040313721 -0.35620117 0 0 0 0
0.048858643 0.040313721 -0.35620117 0 0 0 0
0.050537109 0.040313721 -0.35620117 0 0 0 0
0.052215576 0.040313721 -0.35620117 0 0 0 0
0.053894043 0.040313721 -0.35620117 0 0 0 0
0.055725098 0.040435791 -0.35717773 0 0 0 0
0.057403564 0.040435791 -0.35717773 0 0 0 0
0.059051514 0.040435791 -0.35717773 0 0 0 0
0.06072998 0.040435791 -0.35717773 0 0 0 0
0.062408447 0.040435791 -0.35717773 0 0 0 0
0.064086914 0.040435791 -0.35717773 0 0 0 0
0.065734863 0.040435791 -0.35717773 0 0 0 0
0.067443848 0.040435791 -0.35717773 0 0 0 0
0.069091797 0.040435791 -0.35717773 0 0 0 0
0.070800781 0.040435791 -0.35717773 0 0 0 0
0.07244873 0.040435791 -0.35717773 0 0 0 0
0.074157715 0.040435791 -0.35717773 0 0 0 0
0.075805664 0.040435791 -0.35717773 0 0 0 0
0.077514648 0.040435791 -0.35717773 0 0 0 0
0.079162598 0.040435791 -0.35717773 0 0 0 0
0.080810547 0.040435791 -0.35717773 0 0 0 0
0.082519531 0.040435791 -0.35717773 0 0 0 0
0.08416748 0.040435791 -0.35717773 0 0 0 0
0.085876465 0.040435791 -0.35717773 0 0 0 0
0.087280273 0.040313721 -0.35620117 0 0 0 0
0.088989258 0.040313721 -0.35620117 0 0 0 0
0.090637207 0.040313721 -0.35620117 0 0 0 0
0.092285156 0.040313721 -0.35620117 0 0 0 0
0.093994141 0.040313721 -0.35620117 0 0 0 0
0.09564209 0.040313721 -0.35620117 0 0 0 0
0.097351074 0.040313721 -0.35620117 0 0 0 0
0.098999023 0.040313721 -0.35620117 0 0 0 0
0.10064697 0.040313721 -0.35620117 0 0 0 0
0.10235596 0.040313721 -0.35620117 0 0 0 0
0.10400391 0.040313721 -0.35620117 0 0 0 0
0.10540771 0.040222168 -0.35522461 0 0 0 0
0.10705566 0.040222168 -0.35522461 0 0 0 0
0.10870361 0.040222168 -0.35522461 0 0 0 0
0.1104126 0.040222168 -0.35522461 0 0 0 0
0.11175537 0.040100098 -0.35424805 0 0 0 0
0.11340332 0.040100098 -0.35424805 0 0 0 0
0.11047363 0.038513184 -0.34008789 0 0 0 0
0.11175537 0.038391113 -0.33911133 0 0 0 0
0.11334229 0.038391113 -0.33911133 0 0 0 0
0.1149292 0.038391113 -0.33911133 0 0 0 0
0.11621094 0.038269043 -0.33813477 0 0 0 0
0.11779785 0.038269043 -0.33813477 0 0 0 0
0.11901855 0.038146973 -0.3371582 0 0 0 0
0.12023926 0.03805542 -0.33618164 0 0 0 0
0.12182617 0.03805542 -0.33618164 0 0 0 0
0.12298584 0.03793335 -0.33520508 0 0 0 0
0.12457275 0.03793335 -0.33520508 0 0 0 0
0.12609863 0.03793335 -0.33520508 0 0 0 0
0.12768555 0.03793335 -0.33520508 0 0 0 0
0.12927246 0.03793335 -0.33520508 0 0 0 0
0.13085938 0.03793335 -0.33520508 0 0 0 0
0.1328125 0.03805542 -0.33618164 0 0 0 0
0.13476562 0.038146973 -0.3371582 0 0 0 0
0.13684082 0.038269043 -0.33813477 0 0 0 0
0.13879395 0.038391113 -0.33911133 0 0 0 0
0.14160156 0.038726807 -0.34228516 0 0 0 0
0.14367676 0.038848877 -0.34326172 0 0 0 0
0.14562988 0.038970947 -0.34423828 0 0 0 0
0.14733887 0.038970947 -0.34423828 0 0 0 0
0.14929199 0.0390625 -0.34521484 0 0 0 0
-0.045196533 0.039093018 -0.36035156 0 0 0 0
-0.043395996 0.038970947 -0.359375 0 0 0 0
-0.041687012 0.038970947 -0.359375 0 0 0 0
-0.040008545 0.038970947 -0.359375 0 0 0 0
-0.038208008 0.038879395 -0.35839844 0 0 0 0
-0.036529541 0.038879395 -0.35839844 0 0 0 0
-0.034759521 0.038757324 -0.35717773 0 0 0 0
-0.033081055 0.038757324 -0.35717773 0 0 0 0
-0.031311035 0.038635254 -0.35620117 0 0 0 0
-0.029663086 0.038635254 -0.35620117 0 0 0 0
-0.027908325 0.038543701 -0.35522461 0 0 0 0
-0.026168823 0.038421631 -0.35424805 0 0 0 0
-0.024505615 0.038421631 -0.35424805 0 0 0 0
-0.0071105957 0.034606934 -0.3190918 0 0 0 0
-0.0056114197 0.034606934 -0.3190918 0 0 0 0
-0.0041160583 0.034606934 -0.3190918 0 0 0 0
-0.0026359558 0.034851074 -0.32104492 0 0 0 0
-0.0011291504 0.034851074 -0.32104492 0 0 0 0
0.00037789345 0.034942627 -0.32202148 0 0 0 0
0.0018892288 0.034942627 -0.32202148 0 0 0 0
0.0033988953 0.034942627 -0.32202148 0 0 0 0
0.0049247742 0.035064697 -0.32324219 0 0 0 0
0.0064430237 0.035064697 -0.32324219 0 0 0 0
0.0079574585 0.035064697 -0.32324219 0 0 0 0
0.0094985962 0.03515625 -0.32421875 0 0 0 0
0.011024475 0.03515625 -0.32421875 0 0 0 0
0.012542725 0.03515625 -0.32421875 0 0 0 0
0.01410675 0.03527832 -0.32519531 0 0 0 0
0.015670776 0.035369873 -0.32617188 0 0 0 0
0.017211914 0.035369873 -0.32617188 0 0 0 0
0.018798828 0.035491943 -0.32714844 0 0 0 0
0.020385742 0.035614014 -0.328125 0 0 0 0
0.022003174 0.035705566 -0.32910156 0 0 0 0
0.023544312 0.035705566 -0.32910156 0 0 0 0
0.025161743 0.035827637 -0.33007812 0 0 0 0
0.026794434 0.035919189 -0.33105469 0 0 0 0
0.033843994 0.038635254 -0.35620117 0 0 0 0
0.035491943 0.038635254 -0.35620117 0 0 0 0
0.03717041 0.038635254 -0.35620117 0 0 0 0
0.038848877 0.038635254 -0.35620117 0 0 0 0
0.040527344 0.038635254 -0.35620117 0 0 0 0
0.042175293 0.038635254 -0.35620117 0 0 0 0
0.04385376 0.038635254 -0.35620117 0 0 0 0
0.045532227 0.038635254 -0.35620117 0 0 0 0
0.047210693 0.038635254 -0.35620117 0 0 0 0
0.048858643 0.038635254 -0.35620117 0 0 0 0
0.050537109 0.038635254 -0.35620117 0 0 0 0
0.052215576 0.038635254 -0.35620117 0 0 0 0
0.053894043 0.038635254 -0.35620117 0 0 0 0
0.055725098 0.038757324 -0.35717773 0 0 0 0
0.057403564 0.038757324 -0.35717773 0 0 0 0
0.059051514 0.038757324 -0.35717773 0 0 0 0
0.06072998 0.038757324 -0.35717773 0 0 0 0
0.062408447 0.038757324 -0.35717773 0 0 0 0
0.064086914 0.038757324 -0.35717773 0 0 0 0
0.065551758 0.038635254 -0.35620117 0 0 0 0
0.067260742 0.038635254 -0.35620117 0 0 0 0
0.068908691 0.038635254 -0.35620117 0 0 0 0
0.070800781 0.038757324 -0.35717773 0 0 0 0
0.07244873 0.038757324 -0.35717773 0 0 0 0
0.074157715 0.038757324 -0.35717773 0 0 0 0
0.075805664 0.038757324 -0.35717773 0 0 0 0
0.077514648 0.038757324 -0.35717773 0 0 0 0
0.079162598 0.038757324 -0.35717773 0 0 0 0
0.080810547 0.038757324 -0.35717773 0 0 0 0
0.082519531 0.038757324 -0.35717773 0 0 0 0
0.08416748 0.038757324 -0.35717773 0 0 0 0
0.085876465 0.038757324 -0.35717773 0 0 0 0
0.087280273 0.038635254 -0.35620117 0 0 0 0
0.088989258 0.038635254 -0.35620117 0 0 0 0
0.090637207 0.038635254 -0.35620117 0 0 0 0
0.092285156 0.038635254 -0.35620117 0 0 0 0
0.093994141 0.038635254 -0.35620117 0 0 0 0
0.09564209 0.038635254 -0.35620117 0 0 0 0
0.097351074 0.038635254 -0.35620117 0 0 0 0
0.098999023 0.038635254 -0.35620117 0 0 0 0
0.10064697 0.038635254 -0.35620117 0 0 0 0
0.10235596 0.038635254 -0.35620117 0 0 0 0
0.10400391 0.038635254 -0.35620117 0 0 0 0
0.10540771 0.038543701 -0.35522461 0 0 0 0
0.10705566 0.038543701 -0.35522461 0 0 0 0
0.10870361 0.038543701 -0.35522461 0 0 0 0
0.1104126 0.038543701 -0.35522461 0 0 0 0
0.11206055 0.038543701 -0.35522461 0 0 0 0
0.11340332 0.038421631 -0.35424805 0 0 0 0
0.11505127 0.038421631 -0.35424805 0 0 0 0
0.11669922 0.038421631 -0.35424805 0 0 0 0
0.11334229 0.036804199 -0.33911133 0 0 0 0
0.1149292 0.036804199 -0.33911133 0 0 0 0
0.11651611 0.036804199 -0.33911133 0 0 0 0
0.11779785 0.036682129 -0.33813477 0 0 0 0
0.11938477 0.036682129 -0.33813477 0 0 0 0
0.12060547 0.036590576 -0.3371582 0 0 0 0
0.12182617 0.036468506 -0.33618164 0 0 0 0
0.12335205 0.036468506 -0.33618164 0 0 0 0
0.12457275 0.036376953 -0.33520508 0 0 0 0
0.12609863 0.036376953 -0.33520508 0 0 0 0
0.12768555 0.036376953 -0.33520508 0 0 0 0
0.12927246 0.036376953 -0.33520508 0 0 0 0
0.13085938 0.036376953 -0.33520508 0 0 0 0
0.1328125 0.036468506 -0.33618164 0 0 0 0
0.13476562 0.036590576 -0.3371582 0 0 0 0
0.13684082 0.036682129 -0.33813477 0 0 0 0
0.13916016 0.036895752 -0.34008789 0 0 0 0
0.14160156 0.037139893 -0.34228516 0 0 0 0
0.14367676 0.037231445 -0.34326172 0 0 0 0
0.14562988 0.037353516 -0.34423828 0 0 0 0
0.14770508 0.037445068 -0.34521484 0 0 0 0
-0.043395996 0.03729248 -0.359375 0 0 0 0
-0.041687012 0.03729248 -0.359375 0 0 0 0
-0.039916992 0.037200928 -0.35839844 0 0 0 0
-0.038208008 0.037200928 -0.35839844 0 0 0 0
-0.036529541 0.037200928 -0.35839844 0 0 0 0
-0.034759521 0.037078857 -0.35717773 0 0 0 0
-0.033081055 0.037078857 -0.35717773 0 0 0 0
-0.031311035 0.036987305 -0.35620117 0 0 0 0
-0.029663086 0.036987305 -0.35620117 0 0 0 0
-0.027908325 0.036865234 -0.35522461 0 0 0 0
-0.026168823 0.036773682 -0.35424805 0 0 0 0
-0.010131836 0.033233643 -0.32006836 0 0 0 0
-0.008605957 0.033111572 -0.3190918 0 0 0 0
-0.0071105957 0.033111572 -0.3190918 0 0 0 0
-0.0056114197 0.033111572 -0.3190918 0 0 0 0
-0.0041160583 0.033111572 -0.3190918 0 0 0 0
-0.0026264191 0.033233643 -0.32006836 0 0 0 0
-0.0011253357 0.033233643 -0.32006836 0 0 0 0
0.00037550926 0.033233643 -0.32006836 0 0 0 0
0.0018825531 0.033325195 -0.32104492 0 0 0 0
0.0033988953 0.033447266 -0.32202148 0 0 0 0
0.0049095154 0.033447266 -0.32202148 0 0 0 0
0.0064430237 0.033538818 -0.32324219 0 0 0 0
0.0079574585 0.033538818 -0.32324219 0 0 0 0
0.0094985962 0.033630371 -0.32421875 0 0 0 0
0.011024475 0.033630371 -0.32421875 0 0 0 0
0.012580872 0.033752441 -0.32519531 0 0 0 0
0.01410675 0.033752441 -0.32519531 0 0 0 0
0.015670776 0.033843994 -0.32617188 0 0 0 0
0.01725769 0.033966064 -0.32714844 0 0 0 0
0.018844604 0.034057617 -0.328125 0 0 0 0
0.020446777 0.034179688 -0.32910156 0 0 0 0
0.022003174 0.034179688 -0.32910156 0 0 0 0
0.023620605 0.03427124 -0.33007812 0 0 0 0
0.025238037 0.034362793 -0.33105469 0 0 0 0
0.026794434 0.034362793 -0.33105469 0 0 0 0
0.032165527 0.036987305 -0.35620117 0 0 0 0
0.033843994 0.036987305 -0.35620117 0 0 0 0
0.035491943 0.036987305 -0.35620117 0 0 0 0
0.03717041 0.036987305 -0.35620117 0 0 0 0
0.038848877 0.036987305 -0.35620117 0 0 0 0
0.040527344 0.036987305 -0.35620117 0 0 0 0
0.042175293 0.036987305 -0.35620117 0 0 0 0
0.04385376 0.036987305 -0.35620117 0 0 0 0
0.045532227 0.036987305 -0.35620117 0 0 0 0
0.047210693 0.036987305 -0.35620117 0 0 0 0
0.048858643 0.036987305 -0.35620117 0 0 0 0
0.050537109 0.036987305 -0.35620117 0 0 0 0
0.052215576 0.036987305 -0.35620117 0 0 0 0
0.053894043 0.036987305 -0.35620117 0 0 0 0
0.055541992 0.036987305 -0.35620117 0 0 0 0
0.057403564 0.037078857 -0.35717773 0 0 0 0
0.059051514 0.037078857 -0.35717773 0 0 0 0
0.06072998 0.037078857 -0.35717773 0 0 0 0
0.062408447 0.037078857 -0.35717773 0 0 0 0
0.063903809 0.036987305 -0.35620117 0 0 0 0
0.065551758 0.036987305 -0.35620117 0 0 0 0
0.067260742 0.036987305 -0.35620117 0 0 0 0
0.068908691 0.036987305 -0.35620117 0 0 0 0
0.070556641 0.036987305 -0.35620117 0 0 0 0
0.072265625 0.036987305 -0.35620117 0 0 0 0
0.073913574 0.036987305 -0.35620117 0 0 0 0
0.075805664 0.037078857 -0.35717773 0 0 0 0
0.077514648 0.037078857 -0.35717773 0 0 0 0
0.079162598 0.037078857 -0.35717773 0 0 0 0
0.080810547 0.037078857 -0.35717773 0 0 0 0
0.082519531 0.037078857 -0.35717773 0 0 0 0
0.08416748 0.037078857 -0.35717773 0 0 0 0
0.085632324 0.036987305 -0.35620117 0 0 0 0
0.087280273 0.036987305 -0.35620117 0 0 0 0
0.088989258 0.036987305 -0.35620117 0 0 0 0
0.090637207 0.036987305 -0.35620117 0 0 0 0
0.092285156 0.036987305 -0.35620117 0 0 0 0
0.093994141 0.036987305 -0.35620117 0 0 0 0
0.09564209 0.036987305 -0.35620117 0 0 0 0
0.097351074 0.036987305 -0.35620117 0 0 0 0
0.098999023 0.036987305 -0.35620117 0 0 0 0
0.10064697 0.036987305 -0.35620117 0 0 0 0
0.10235596 0.036987305 -0.35620117 0 0 0 0
0.10400391 0.036987305 -0.35620117 0 0 0 0
0.10540771 0.036865234 -0.35522461 0 0 0 0
0.10705566 0.036865234 -0.35522461 0 0 0 0
0.10870361 0.036865234 -0.35522461 0 0 0 0
0.1104126 0.036865234 -0.35522461 0 0 0 0
0.11206055 0.036865234 -0.35522461 0 0 0 0
0.11340332 0.036773682 -0.35424805 0 0 0 0
0.11505127 0.036773682 -0.35424805 0 0 0 0
0.11669922 0.036773682 -0.35424805 0 0 0 0
0.11804199 0.036651611 -0.35327148 0 0 0 0
0.1149292 0.035217285 -0.33911133 0 0 0 0
0.11651611 0.035217285 -0.33911133 0 0 0 0
0.11810303 0.035217285 -0.33911133 0 0 0 0
0.11938477 0.035095215 -0.33813477 0 0 0 0
0.12060547 0.035003662 -0.3371582 0 0 0 0
0.12219238 0.035003662 -0.3371582 0 0 0 0
0.12335205 0.034881592 -0.33618164 0 0 0 0
0.12457275 0.034790039 -0.33520508 0 0 0 0
0.12609863 0.034790039 -0.33520508 0 0 0 0
0.12768555 0.034790039 -0.33520508 0 0 0 0
0.12927246 0.034790039 -0.33520508 0 0 0 0
0.13085938 0.034790039 -0.33520508 0 0 0 0
0.1328125 0.034881592 -0.33618164 0 0 0 0
0.13476562 0.035003662 -0.3371582 0 0 0 0
-0.041687012 0.035614014 -0.359375 0 0 0 0
-0.039916992 0.035491943 -0.35839844 0 0 0 0
-0.038208008 0.035491943 -0.35839844 0 0 0 0
-0.036529541 0.035491943 -0.35839844 0 0 0 0
-0.034759521 0.035400391 -0.35717773 0 0 0 0
-0.033081055 0.035400391 -0.35717773 0 0 0 0
-0.031402588 0.035400391 -0.35717773 0 0 0 0
-0.029663086 0.035308838 -0.35620117 0 0 0 0
-0.027984619 0.035308838 -0.35620117 0 0 0 0
-0.011634827 0.031738281 -0.32006836 0 0 0 0
-0.010131836 0.031738281 -0.32006836 0 0 0 0
-0.008605957 0.031616211 -0.3190918 0 0 0 0
-0.0071105957 0.031616211 -0.3190918 0 0 0 0
-0.0056114197 0.031616211 -0.3190918 0 0 0 0
-0.0041007996 0.031524658 -0.31811523 0 0 0 0
-0.0026187897 0.031616211 -0.3190918 0 0 0 0
-0.0011224747 0.031616211 -0.3190918 0 0 0 0
0.00037431717 0.031616211 -0.3190918 0 0 0 0
0.0018768311 0.031738281 -0.32006836 0 0 0 0
0.0033893585 0.031829834 -0.32104492 0 0 0 0
0.0048942566 0.031829834 -0.32104492 0 0 0 0
0.0064201355 0.031921387 -0.32202148 0 0 0 0
0.0079574585 0.032012939 -0.32324219 0 0 0 0
0.0094680786 0.032012939 -0.32324219 0 0 0 0
0.011024475 0.03213501 -0.32421875 0 0 0 0
0.012580872 0.032226562 -0.32519531 0 0 0 0
0.014152527 0.032318115 -0.32617188 0 0 0 0
0.015731812 0.032409668 -0.32714844 0 0 0 0
0.01725769 0.032409668 -0.32714844 0 0 0 0
0.018844604 0.032531738 -0.328125 0 0 0 0
0.020446777 0.032623291 -0.32910156 0 0 0 0
0.022064209 0.032714844 -0.33007812 0 0 0 0
0.023681641 0.032806396 -0.33105469 0 0 0 0
0.025314331 0.032928467 -0.33227539 0 0 0 0
0.026870728 0.032928467 -0.33227539 0 0 0 0
0.030410767 0.035217285 -0.35522461 0 0 0 0
0.032165527 0.035308838 -0.35620117 0 0 0 0
0.033843994 0.035308838 -0.35620117 0 0 0 0
0.035491943 0.035308838 -0.35620117 0 0 0 0
0.03717041 0.035308838 -0.35620117 0 0 0 0
0.038848877 0.035308838 -0.35620117 0 0 0 0
0.040527344 0.035308838 -0.35620117 0 0 0 0
0.042175293 0.035308838 -0.35620117 0 0 0 0
0.04385376 0.035308838 -0.35620117 0 0 0 0
0.045532227 0.035308838 -0.35620117 0 0 0 0
0.047210693 0.035308838 -0.35620117 0 0 0 0
0.048858643 0.035308838 -0.35620117 0 0 0 0
0.050537109 0.035308838 -0.35620117 0 0 0 0
0.052215576 0.035308838 -0.35620117 0 0 0 0
0.053894043 0.035308838 -0.35620117 0 0 0 0
0.055541992 0.035308838 -0.35620117 0 0 0 0
0.057220459 0.035308838 -0.35620117 0 0 0 0
0.058898926 0.035308838 -0.35620117 0 0 0 0
0.060577393 0.035308838 -0.35620117 0 0 0 0
0.062255859 0.035308838 -0.35620117 0 0 0 0
0.063903809 0.035308838 -0.35620117 0 0 0 0
0.065551758 0.035308838 -0.35620117 0 0 0 0
0.067260742 0.035308838 -0.35620117 0 0 0 0
0.068908691 0.035308838 -0.35620117 0 0 0 0
0.070556641 0.035308838 -0.35620117 0 0 0 0
0.072265625 0.035308838 -0.35620117 0 0 0 0
0.073913574 0.035308838 -0.35620117 0 0 0 0
0.075622559 0.035308838 -0.35620117 0 0 0 0
0.077270508 0.035308838 -0.35620117 0 0 0 0
0.078918457 0.035308838 -0.35620117 0 0 0 0
0.080627441 0.035308838 -0.35620117 0 0 0 0
0.082275391 0.035308838 -0.35620117 0 0 0 0
0.08392334 0.035308838 -0.35620117 0 0 0 0
0.085632324 0.035308838 -0.35620117 0 0 0 0
0.087280273 0.035308838 -0.35620117 0 0 0 0
0.088989258 0.035308838 -0.35620117 0 0 0 0
0.090637207 0.035308838 -0.35620117 0 0 0 0
0.092285156 0.035308838 -0.35620117 0 0 0 0
0.093994141 0.035308838 -0.35620117 0 0 0 0
0.09564209 0.035308838 -0.35620117 0 0 0 0
0.097351074 0.035308838 -0.35620117 0 0 0 0
0.098999023 0.035308838 -0.35620117 0 0 0 0
0.10064697 0.035308838 -0.35620117 0 0 0 0
0.10235596 0.035308838 -0.35620117 0 0 0 0
0.10369873 0.035217285 -0.35522461 0 0 0 0
0.10540771 0.035217285 -0.35522461 0 0 0 0
0.10705566 0.035217285 -0.35522461 0 0 0 0
0.10870361 0.035217285 -0.35522461 0 0 0 0
0.1104126 0.035217285 -0.35522461 0 0 0 0
0.11206055 0.035217285 -0.35522461 0 0 0 0
0.11340332 0.035095215 -0.35424805 0 0 0 0
0.11505127 0.035095215 -0.35424805 0 0 0 0
0.11669922 0.035095215 -0.35424805 0 0 0 0
0.1184082 0.035095215 -0.35424805 0 0 0 0
0.11968994 0.035003662 -0.35327148 0 0 0 0
0.12103271 0.034912109 -0.35229492 0 0 0 0
0.11846924 0.033721924 -0.34008789 0 0 0 0
0.11968994 0.033630371 -0.33911133 0 0 0 0
0.12097168 0.033508301 -0.33813477 0 0 0 0
0.12219238 0.033416748 -0.3371582 0 0 0 0
0.12335205 0.033325195 -0.33618164 0 0 0 0
0.12457275 0.033203125 -0.33520508 0 0 0 0
0.12609863 0.033203125 -0.33520508 0 0 0 0
0.12768555 0.033203125 -0.33520508 0 0 0 0
0.12890625 0.033111572 -0.33422852 0 0 0 0
0.13085938 0.033203125 -0.33520508 0 0 0 0
0.13244629 0.033203125 -0.33520508 0 0 0 0
0.13476562 0.033416748 -0.3371582 0 0 0 0
-0.039916992 0.033813477 -0.35839844 0 0 0 0
-0.038208008 0.033813477 -0.35839844 0 0 0 0
-0.036529541 0.033813477 -0.35839844 0 0 0 0
-0.034759521 0.033721924 -0.35717773 0 0 0 0
-0.033081055 0.033721924 -0.35717773 0 0 0 0
-0.031402588 0.033721924 -0.35717773 0 0 0 0
-0.029663086 0.033630371 -0.35620117 0 0 0 0
-0.027984619 0.033630371 -0.35620117 0 0 0 0
-0.011634827 0.030227661 -0.32006836 0 0 0 0
-0.010131836 0.030227661 -0.32006836 0 0 0 0
-0.008605957 0.030136108 -0.3190918 0 0 0 0
-0.0071105957 0.030136108 -0.3190918 0 0 0 0
-0.0056114197 0.030136108 -0.3190918 0 0 0 0
-0.0041007996 0.030044556 -0.31811523 0 0 0 0
-0.0026111603 0.030044556 -0.31811523 0 0 0 0
-0.0011224747 0.030136108 -0.3190918 0 0 0 0
0.00037431717 0.030136108 -0.3190918 0 0 0 0
0.001871109 0.030136108 -0.3190918 0 0 0 0
0.0033779144 0.030227661 -0.32006836 0 0 0 0
0.0048942566 0.030319214 -0.32104492 0 0 0 0
0.006401062 0.030319214 -0.32104492 0 0 0 0
0.0079269409 0.030426025 -0.32202148 0 0 0 0
0.0094680786 0.030517578 -0.32324219 0 0 0 0
0.011024475 0.030609131 -0.32421875 0 0 0 0
0.012580872 0.030700684 -0.32519531 0 0 0 0
0.014152527 0.030792236 -0.32617188 0 0 0 0
0.015731812 0.030899048 -0.32714844 0 0 0 0
0.017318726 0.030990601 -0.328125 0 0 0 0
0.01890564 0.031082153 -0.32910156 0 0 0 0
0.020523071 0.031173706 -0.33007812 0 0 0 0
0.022125244 0.031280518 -0.33105469 0 0 0 0
0.023757935 0.03137207 -0.33227539 0 0 0 0
0.025390625 0.031463623 -0.33325195 0 0 0 0
0.02696228 0.031463623 -0.33325195 0 0 0 0
0.030410767 0.033538818 -0.35522461 0 0 0 0
0.032073975 0.033538818 -0.35522461 0 0 0 0
0.033721924 0.033538818 -0.35522461 0 0 0 0
