ply
format ascii 1.0
comment PCL generated
element vertex 1032
property float x
property float y
property float z
property float nx
property float ny
property float nz
property float curvature
element face 0
element camera 0
property float view_px
property float view_py
property float view_pz
property float x_axisx
property float x_axisy
property float x_axisz
property float y_axisx
property float y_axisy
property float y_axisz
property float z_axisx
property float z_axisy
property float z_axisz
property float focal
property float scalex
property float scaley
property float centerx
property float centery
property int viewportx
property int viewporty
property float k1
property float k2
end_header
-0.08404541 0.0018796921 -0.35327148 0 0 0 0
-0.082397461 0.0018796921 -0.35327148 0 0 0 0
-0.079101562 0.0018796921 -0.35327148 0 0 0 0
-0.06628418 0.0017194748 -0.32324219 0 0 0 0
-0.064758301 0.0017194748 -0.32324219 0 0 0 0
-0.063232422 0.0017194748 -0.32324219 0 0 0 0
-0.061767578 0.0017194748 -0.32324219 0 0 0 0
-0.060424805 0.0017242432 -0.32421875 0 0 0 0
-0.059082031 0.0017299652 -0.32519531 0 0 0 0
-0.057556152 0.0017299652 -0.32519531 0 0 0 0
-0.055877686 0.0017242432 -0.32421875 0 0 0 0
-0.054351807 0.0017242432 -0.32421875 0 0 0 0
-0.052825928 0.0017242432 -0.32421875 0 0 0 0
-0.051300049 0.0017242432 -0.32421875 0 0 0 0
-0.04977417 0.0017242432 -0.32421875 0 0 0 0
-0.048278809 0.0017242432 -0.32421875 0 0 0 0
-0.04675293 0.0017242432 -0.32421875 0 0 0 0
-0.045227051 0.0017242432 -0.32421875 0 0 0 0
-0.04385376 0.0017299652 -0.32519531 0 0 0 0
-0.042327881 0.0017299652 -0.32519531 0 0 0 0
-0.040924072 0.0017347336 -0.32617188 0 0 0 0
-0.039520264 0.0017404556 -0.32714844 0 0 0 0
-0.038085938 0.0017461777 -0.328125 0 0 0 0
-0.036651611 0.001750946 -0.32910156 0 0 0 0
-0.035217285 0.0017566681 -0.33007812 0 0 0 0
-0.033782959 0.0017614365 -0.33105469 0 0 0 0
-0.032318115 0.0017671585 -0.33227539 0 0 0 0
-0.03086853 0.0017728806 -0.33325195 0 0 0 0
-0.029388428 0.0017776489 -0.33422852 0 0 0 0
-0.027816772 0.0017776489 -0.33422852 0 0 0 0
-0.024642944 0.0018949509 -0.35620117 0 0 0 0
-0.022979736 0.0018949509 -0.35620117 0 0 0 0
-0.02130127 0.0018949509 -0.35620117 0 0 0 0
-0.019622803 0.0018949509 -0.35620117 0 0 0 0
-0.017959595 0.0018949509 -0.35620117 0 0 0 0
-0.016235352 0.0018901825 -0.35522461 0 0 0 0
-0.014579773 0.0018901825 -0.35522461 0 0 0 0
-0.012908936 0.0018901825 -0.35522461 0 0 0 0
-0.011245728 0.0018901825 -0.35522461 0 0 0 0
-0.0095825195 0.0018901825 -0.35522461 0 0 0 0
-0.0079116821 0.0018901825 -0.35522461 0 0 0 0
-0.0062484741 0.0018901825 -0.35522461 0 0 0 0
-0.0045814514 0.0018901825 -0.35522461 0 0 0 0
-0.0029144287 0.0018901825 -0.35522461 0 0 0 0
-0.0012493134 0.0018901825 -0.35522461 0 0 0 0
0.00041675568 0.0018901825 -0.35522461 0 0 0 0
0.0020828247 0.0018901825 -0.35522461 0 0 0 0
0.0037498474 0.0018901825 -0.35522461 0 0 0 0
0.0054130554 0.0018901825 -0.35522461 0 0 0 0
0.0070800781 0.0018901825 -0.35522461 0 0 0 0
0.0087432861 0.0018901825 -0.35522461 0 0 0 0
0.010414124 0.0018901825 -0.35522461 0 0 0 0
0.012077332 0.0018901825 -0.35522461 0 0 0 0
0.013748169 0.0018901825 -0.35522461 0 0 0 0
0.015411377 0.0018901825 -0.35522461 0 0 0 0
0.017074585 0.0018901825 -0.35522461 0 0 0 0
0.018737793 0.0018901825 -0.35522461 0 0 0 0
0.020401001 0.0018901825 -0.35522461 0 0 0 0
0.022079468 0.0018901825 -0.35522461 0 0 0 0
0.023742676 0.0018901825 -0.35522461 0 0 0 0
0.025405884 0.0018901825 -0.35522461 0 0 0 0
0.027069092 0.0018901825 -0.35522461 0 0 0 0
0.028747559 0.0018901825 -0.35522461 0 0 0 0
0.030410767 0.0018901825 -0.35522461 0 0 0 0
0.032073975 0.0018901825 -0.35522461 0 0 0 0
0.033721924 0.0018901825 -0.35522461 0 0 0 0
0.035400391 0.0018901825 -0.35522461 0 0 0 0
0.037078857 0.0018901825 -0.35522461 0 0 0 0
0.038726807 0.0018901825 -0.35522461 0 0 0 0
0.040405273 0.0018901825 -0.35522461 0 0 0 0
0.042053223 0.0018901825 -0.35522461 0 0 0 0
0.043731689 0.0018901825 -0.35522461 0 0 0 0
0.045410156 0.0018901825 -0.35522461 0 0 0 0
0.047058105 0.0018901825 -0.35522461 0 0 0 0
0.048736572 0.0018901825 -0.35522461 0 0 0 0
0.050415039 0.0018901825 -0.35522461 0 0 0 0
0.052062988 0.0018901825 -0.35522461 0 0 0 0
0.053741455 0.0018901825 -0.35522461 0 0 0 0
0.055389404 0.0018901825 -0.35522461 0 0 0 0
0.057067871 0.0018901825 -0.35522461 0 0 0 0
0.058746338 0.0018901825 -0.35522461 0 0 0 0
0.060394287 0.0018901825 -0.35522461 0 0 0 0
0.062072754 0.0018901825 -0.35522461 0 0 0 0
0.063720703 0.0018901825 -0.35522461 0 0 0 0
0.085632324 0.0020542145 -0.38647461 0 0 0 0
0.087219238 0.0020503998 -0.38549805 0 0 0 0
0.088989258 0.0020503998 -0.38549805 0 0 0 0
0.090576172 0.0020446777 -0.38427734 0 0 0 0
0.092407227 0.0020446777 -0.38427734 0 0 0 0
0.093933105 0.0020389557 -0.38330078 0 0 0 0
0.09576416 0.0020389557 -0.38330078 0 0 0 0
0.09753418 0.0020389557 -0.38330078 0 0 0 0
0.099304199 0.0020389557 -0.38330078 0 0 0 0
0.10137939 0.0020446777 -0.38427734 0 0 0 0
0.10321045 0.0020446777 -0.38427734 0 0 0 0
0.10498047 0.0020446777 -0.38427734 0 0 0 0
0.10681152 0.0020446777 -0.38427734 0 0 0 0
0.10888672 0.0020503998 -0.38549805 0 0 0 0
0.1104126 0.0020446777 -0.38427734 0 0 0 0
0.11224365 0.0020446777 -0.38427734 0 0 0 0
0.11401367 0.0020446777 -0.38427734 0 0 0 0
0.1161499 0.0020503998 -0.38549805 0 0 0 0
0.1182251 0.0020542145 -0.38647461 0 0 0 0
0.12036133 0.0020599365 -0.38745117 0 0 0 0
0.12249756 0.0020656586 -0.38842773 0 0 0 0
0.12463379 0.0020713806 -0.3894043 0 0 0 0
0.12670898 0.0020771027 -0.39038086 0 0 0 0
0.12890625 0.0020809174 -0.39135742 0 0 0 0
0.13110352 0.0020866394 -0.39233398 0 0 0 0
0.13293457 0.0020866394 -0.39233398 0 0 0 0
0.13476562 0.0020866394 -0.39233398 0 0 0 0
0.13659668 0.0020866394 -0.39233398 0 0 0 0
0.13842773 0.0020866394 -0.39233398 0 0 0 0
0.13989258 0.0020809174 -0.39135742 0 0 0 0
0.14135742 0.0020771027 -0.39038086 0 0 0 0
0.14282227 0.0020713806 -0.3894043 0 0 0 0
0.14428711 0.0020656586 -0.38842773 0 0 0 0
0.14611816 0.0020656586 -0.38842773 0 0 0 0
0.14758301 0.0020599365 -0.38745117 0 0 0 0
0.14904785 0.0020542145 -0.38647461 0 0 0 0
0.15039062 0.0020503998 -0.38549805 0 0 0 0
0.15185547 0.0020446777 -0.38427734 0 0 0 0
0.15319824 0.0020389557 -0.38330078 0 0 0 0
0.1550293 0.0020389557 -0.38330078 0 0 0 0
0.15686035 0.0020389557 -0.38330078 0 0 0 0
0.15869141 0.0020389557 -0.38330078 0 0 0 0
-0.10882568 0.00022566319 -0.35839844 0 0 0 0
-0.10681152 0.00022494793 -0.35717773 0 0 0 0
-0.10516357 0.00022494793 -0.35717773 0 0 0 0
-0.10314941 0.00022435188 -0.35620117 0 0 0 0
-0.10150146 0.00022435188 -0.35620117 0 0 0 0
-0.099853516 0.00022435188 -0.35620117 0 0 0 0
-0.098144531 0.00022435188 -0.35620117 0 0 0 0
-0.096191406 0.00022375584 -0.35522461 0 0 0 0
-0.094543457 0.00022375584 -0.35522461 0 0 0 0
-0.092590332 0.00022304058 -0.35424805 0 0 0 0
-0.090942383 0.00022304058 -0.35424805 0 0 0 0
-0.089294434 0.00022304058 -0.35424805 0 0 0 0
-0.087402344 0.00022244453 -0.35327148 0 0 0 0
-0.085754395 0.00022244453 -0.35327148 0 0 0 0
-0.08404541 0.00022244453 -0.35327148 0 0 0 0
-0.082397461 0.00022244453 -0.35327148 0 0 0 0
-0.067810059 0.00020349026 -0.32324219 0 0 0 0
-0.06628418 0.00020349026 -0.32324219 0 0 0 0
-0.064758301 0.00020349026 -0.32324219 0 0 0 0
-0.063049316 0.00020289421 -0.32202148 0 0 0 0
-0.061767578 0.00020349026 -0.32324219 0 0 0 0
-0.060241699 0.00020349026 -0.32324219 0 0 0 0
-0.05871582 0.00020349026 -0.32324219 0 0 0 0
-0.057403564 0.0002040863 -0.32421875 0 0 0 0
-0.055877686 0.0002040863 -0.32421875 0 0 0 0
-0.054351807 0.0002040863 -0.32421875 0 0 0 0
-0.052825928 0.0002040863 -0.32421875 0 0 0 0
-0.051300049 0.0002040863 -0.32421875 0 0 0 0
-0.04977417 0.0002040863 -0.32421875 0 0 0 0
-0.048278809 0.0002040863 -0.32421875 0 0 0 0
-0.04675293 0.0002040863 -0.32421875 0 0 0 0
-0.045349121 0.00020480156 -0.32519531 0 0 0 0
-0.04385376 0.00020480156 -0.32519531 0 0 0 0
-0.042449951 0.00020539761 -0.32617188 0 0 0 0
-0.041046143 0.00020599365 -0.32714844 0 0 0 0
-0.039611816 0.00020670891 -0.328125 0 0 0 0
-0.038208008 0.00020730495 -0.32910156 0 0 0 0
-0.036773682 0.000207901 -0.33007812 0 0 0 0
-0.035339355 0.00020849705 -0.33105469 0 0 0 0
-0.033874512 0.0002092123 -0.33227539 0 0 0 0
-0.032409668 0.00020980835 -0.33325195 0 0 0 0
-0.030960083 0.0002104044 -0.33422852 0 0 0 0
-0.02947998 0.00021111965 -0.33520508 0 0 0 0
-0.027908325 0.00021111965 -0.33520508 0 0 0 0
-0.026321411 0.00022435188 -0.35620117 0 0 0 0
-0.024642944 0.00022435188 -0.35620117 0 0 0 0
-0.022979736 0.00022435188 -0.35620117 0 0 0 0
-0.02130127 0.00022435188 -0.35620117 0 0 0 0
-0.019622803 0.00022435188 -0.35620117 0 0 0 0
-0.017959595 0.00022435188 -0.35620117 0 0 0 0
-0.016281128 0.00022435188 -0.35620117 0 0 0 0
-0.014579773 0.00022375584 -0.35522461 0 0 0 0
-0.012908936 0.00022375584 -0.35522461 0 0 0 0
-0.011245728 0.00022375584 -0.35522461 0 0 0 0
-0.0095825195 0.00022375584 -0.35522461 0 0 0 0
-0.0079116821 0.00022375584 -0.35522461 0 0 0 0
-0.0062484741 0.00022375584 -0.35522461 0 0 0 0
-0.0045814514 0.00022375584 -0.35522461 0 0 0 0
-0.0029144287 0.00022375584 -0.35522461 0 0 0 0
-0.0012493134 0.00022375584 -0.35522461 0 0 0 0
0.00041675568 0.00022375584 -0.35522461 0 0 0 0
0.0020828247 0.00022375584 -0.35522461 0 0 0 0
0.0037498474 0.00022375584 -0.35522461 0 0 0 0
0.0054130554 0.00022375584 -0.35522461 0 0 0 0
0.0070800781 0.00022375584 -0.35522461 0 0 0 0
0.0087432861 0.00022375584 -0.35522461 0 0 0 0
0.010414124 0.00022375584 -0.35522461 0 0 0 0
0.012077332 0.00022375584 -0.35522461 0 0 0 0
0.013748169 0.00022375584 -0.35522461 0 0 0 0
0.015411377 0.00022375584 -0.35522461 0 0 0 0
0.017074585 0.00022375584 -0.35522461 0 0 0 0
0.018737793 0.00022375584 -0.35522461 0 0 0 0
0.020401001 0.00022375584 -0.35522461 0 0 0 0
0.022079468 0.00022375584 -0.35522461 0 0 0 0
0.023742676 0.00022375584 -0.35522461 0 0 0 0
0.025405884 0.00022375584 -0.35522461 0 0 0 0
0.027069092 0.00022375584 -0.35522461 0 0 0 0
0.028747559 0.00022375584 -0.35522461 0 0 0 0
0.030410767 0.00022375584 -0.35522461 0 0 0 0
0.032073975 0.00022375584 -0.35522461 0 0 0 0
0.033721924 0.00022375584 -0.35522461 0 0 0 0
0.035400391 0.00022375584 -0.35522461 0 0 0 0
0.037078857 0.00022375584 -0.35522461 0 0 0 0
0.038726807 0.00022375584 -0.35522461 0 0 0 0
0.040405273 0.00022375584 -0.35522461 0 0 0 0
0.042053223 0.00022375584 -0.35522461 0 0 0 0
0.043731689 0.00022375584 -0.35522461 0 0 0 0
0.045410156 0.00022375584 -0.35522461 0 0 0 0
0.047058105 0.00022375584 -0.35522461 0 0 0 0
0.048583984 0.00022304058 -0.35424805 0 0 0 0
0.050262451 0.00022304058 -0.35424805 0 0 0 0
0.0519104 0.00022304058 -0.35424805 0 0 0 0
0.053588867 0.00022304058 -0.35424805 0 0 0 0
0.055236816 0.00022304058 -0.35424805 0 0 0 0
0.057067871 0.00022375584 -0.35522461 0 0 0 0
0.058746338 0.00022375584 -0.35522461 0 0 0 0
0.060394287 0.00022375584 -0.35522461 0 0 0 0
0.062072754 0.00022375584 -0.35522461 0 0 0 0
0.085632324 0.00024330616 -0.38647461 0 0 0 0
0.087219238 0.00024271011 -0.38549805 0 0 0 0
0.088989258 0.00024271011 -0.38549805 0 0 0 0
0.090820312 0.00024271011 -0.38549805 0 0 0 0
0.092407227 0.00024199486 -0.38427734 0 0 0 0
0.094177246 0.00024199486 -0.38427734 0 0 0 0
0.09576416 0.00024139881 -0.38330078 0 0 0 0
0.09753418 0.00024139881 -0.38330078 0 0 0 0
0.099304199 0.00024139881 -0.38330078 0 0 0 0
0.10113525 0.00024139881 -0.38330078 0 0 0 0
0.10290527 0.00024139881 -0.38330078 0 0 0 0
0.10473633 0.00024139881 -0.38330078 0 0 0 0
0.10650635 0.00024139881 -0.38330078 0 0 0 0
0.1083374 0.00024139881 -0.38330078 0 0 0 0
0.11010742 0.00024139881 -0.38330078 0 0 0 0
0.11193848 0.00024139881 -0.38330078 0 0 0 0
0.1137085 0.00024139881 -0.38330078 0 0 0 0
0.11584473 0.00024199486 -0.38427734 0 0 0 0
0.11791992 0.00024271011 -0.38549805 0 0 0 0
0.12005615 0.00024330616 -0.38647461 0 0 0 0
0.12219238 0.00024390221 -0.38745117 0 0 0 0
0.12432861 0.00024461746 -0.38842773 0 0 0 0
0.12646484 0.0002450943 -0.3894043 0 0 0 0
0.12854004 0.00024580956 -0.39038086 0 0 0 0
0.1307373 0.00024628639 -0.39135742 0 0 0 0
0.13256836 0.00024628639 -0.39135742 0 0 0 0
0.13439941 0.00024628639 -0.39135742 0 0 0 0
0.13623047 0.00024628639 -0.39135742 0 0 0 0
0.13806152 0.00024628639 -0.39135742 0 0 0 0
0.13952637 0.00024580956 -0.39038086 0 0 0 0
0.14135742 0.00024580956 -0.39038086 0 0 0 0
0.14282227 0.0002450943 -0.3894043 0 0 0 0
0.14428711 0.00024461746 -0.38842773 0 0 0 0
0.14611816 0.00024461746 -0.38842773 0 0 0 0
0.14758301 0.00024390221 -0.38745117 0 0 0 0
0.14904785 0.00024330616 -0.38647461 0 0 0 0
0.15039062 0.00024271011 -0.38549805 0 0 0 0
0.15185547 0.00024199486 -0.38427734 0 0 0 0
0.15368652 0.00024199486 -0.38427734 0 0 0 0
0.1550293 0.00024139881 -0.38330078 0 0 0 0
0.15686035 0.00024139881 -0.38330078 0 0 0 0
-0.10681152 -0.0014505386 -0.35717773 0 0 0 0
-0.1048584 -0.0014467239 -0.35620117 0 0 0 0
-0.10314941 -0.0014467239 -0.35620117 0 0 0 0
-0.10150146 -0.0014467239 -0.35620117 0 0 0 0
-0.09954834 -0.0014419556 -0.35522461 0 0 0 0
-0.097900391 -0.0014419556 -0.35522461 0 0 0 0
-0.096191406 -0.0014419556 -0.35522461 0 0 0 0
-0.094299316 -0.0014381409 -0.35424805 0 0 0 0
-0.092590332 -0.0014381409 -0.35424805 0 0 0 0
-0.090942383 -0.0014381409 -0.35424805 0 0 0 0
-0.089050293 -0.0014343262 -0.35327148 0 0 0 0
-0.087402344 -0.0014343262 -0.35327148 0 0 0 0
-0.085754395 -0.0014343262 -0.35327148 0 0 0 0
-0.08404541 -0.0014343262 -0.35327148 0 0 0 0
-0.082397461 -0.0014343262 -0.35327148 0 0 0 0
-0.069519043 -0.0013160706 -0.32421875 0 0 0 0
-0.067810059 -0.0013122559 -0.32324219 0 0 0 0
-0.06628418 -0.0013122559 -0.32324219 0 0 0 0
-0.064575195 -0.0013074875 -0.32202148 0 0 0 0
-0.063049316 -0.0013074875 -0.32202148 0 0 0 0
-0.061553955 -0.0013074875 -0.32202148 0 0 0 0
-0.060241699 -0.0013122559 -0.32324219 0 0 0 0
-0.05871582 -0.0013122559 -0.32324219 0 0 0 0
-0.057220459 -0.0013122559 -0.32324219 0 0 0 0
-0.05569458 -0.0013122559 -0.32324219 0 0 0 0
-0.054168701 -0.0013122559 -0.32324219 0 0 0 0
-0.05267334 -0.0013122559 -0.32324219 0 0 0 0
-0.051300049 -0.0013160706 -0.32421875 0 0 0 0
-0.04977417 -0.0013160706 -0.32421875 0 0 0 0
-0.048278809 -0.0013160706 -0.32421875 0 0 0 0
-0.046875 -0.0013198853 -0.32519531 0 0 0 0
-0.045349121 -0.0013198853 -0.32519531 0 0 0 0
-0.04397583 -0.0013237 -0.32617188 0 0 0 0
-0.042572021 -0.0013284683 -0.32714844 0 0 0 0
-0.041168213 -0.001332283 -0.328125 0 0 0 0
-0.039733887 -0.0013360977 -0.32910156 0 0 0 0
-0.038330078 -0.0013408661 -0.33007812 0 0 0 0
-0.036895752 -0.0013446808 -0.33105469 0 0 0 0
-0.035430908 -0.0013484955 -0.33227539 0 0 0 0
-0.033966064 -0.0013523102 -0.33325195 0 0 0 0
-0.032623291 -0.0013608932 -0.33520508 0 0 0 0
-0.031143188 -0.0013647079 -0.33618164 0 0 0 0
-0.029647827 -0.0013685226 -0.3371582 0 0 0 0
-0.028076172 -0.0013685226 -0.3371582 0 0 0 0
-0.024642944 -0.0014467239 -0.35620117 0 0 0 0
-0.022979736 -0.0014467239 -0.35620117 0 0 0 0
-0.02130127 -0.0014467239 -0.35620117 0 0 0 0
-0.019622803 -0.0014467239 -0.35620117 0 0 0 0
-0.017959595 -0.0014467239 -0.35620117 0 0 0 0
-0.016281128 -0.0014467239 -0.35620117 0 0 0 0
-0.014579773 -0.0014419556 -0.35522461 0 0 0 0
-0.012908936 -0.0014419556 -0.35522461 0 0 0 0
-0.011245728 -0.0014419556 -0.35522461 0 0 0 0
-0.0095825195 -0.0014419556 -0.35522461 0 0 0 0
-0.0079116821 -0.0014419556 -0.35522461 0 0 0 0
-0.0062484741 -0.0014419556 -0.35522461 0 0 0 0
-0.0045814514 -0.0014419556 -0.35522461 0 0 0 0
-0.0029144287 -0.0014419556 -0.35522461 0 0 0 0
-0.0012493134 -0.0014419556 -0.35522461 0 0 0 0
0.00041675568 -0.0014419556 -0.35522461 0 0 0 0
0.0020828247 -0.0014419556 -0.35522461 0 0 0 0
0.0037498474 -0.0014419556 -0.35522461 0 0 0 0
0.0054130554 -0.0014419556 -0.35522461 0 0 0 0
0.0070800781 -0.0014419556 -0.35522461 0 0 0 0
0.0087432861 -0.0014419556 -0.35522461 0 0 0 0
0.010414124 -0.0014419556 -0.35522461 0 0 0 0
0.012077332 -0.0014419556 -0.35522461 0 0 0 0
0.013748169 -0.0014419556 -0.35522461 0 0 0 0
0.015411377 -0.0014419556 -0.35522461 0 0 0 0
0.017074585 -0.0014419556 -0.35522461 0 0 0 0
0.018737793 -0.0014419556 -0.35522461 0 0 0 0
0.020401001 -0.0014419556 -0.35522461 0 0 0 0
0.022079468 -0.0014419556 -0.35522461 0 0 0 0
0.023742676 -0.0014419556 -0.35522461 0 0 0 0
0.025405884 -0.0014419556 -0.35522461 0 0 0 0
0.027069092 -0.0014419556 -0.35522461 0 0 0 0
0.028747559 -0.0014419556 -0.35522461 0 0 0 0
0.030410767 -0.0014419556 -0.35522461 0 0 0 0
0.032073975 -0.0014419556 -0.35522461 0 0 0 0
0.033721924 -0.0014419556 -0.35522461 0 0 0 0
0.035400391 -0.0014419556 -0.35522461 0 0 0 0
0.037078857 -0.0014419556 -0.35522461 0 0 0 0
0.038726807 -0.0014419556 -0.35522461 0 0 0 0
0.040405273 -0.0014419556 -0.35522461 0 0 0 0
0.042053223 -0.0014419556 -0.35522461 0 0 0 0
0.043609619 -0.0014381409 -0.35424805 0 0 0 0
0.045257568 -0.0014381409 -0.35424805 0 0 0 0
0.046936035 -0.0014381409 -0.35424805 0 0 0 0
0.048583984 -0.0014381409 -0.35424805 0 0 0 0
0.050262451 -0.0014381409 -0.35424805 0 0 0 0
0.0519104 -0.0014381409 -0.35424805 0 0 0 0
0.053588867 -0.0014381409 -0.35424805 0 0 0 0
0.055236816 -0.0014381409 -0.35424805 0 0 0 0
0.056915283 -0.0014381409 -0.35424805 0 0 0 0
0.058746338 -0.0014419556 -0.35522461 0 0 0 0
0.082397461 -0.0015764236 -0.38842773 0 0 0 0
0.08404541 -0.0015726089 -0.38745117 0 0 0 0
0.085632324 -0.0015687943 -0.38647461 0 0 0 0
0.087402344 -0.0015687943 -0.38647461 0 0 0 0
0.088989258 -0.0015649796 -0.38549805 0 0 0 0
0.090820312 -0.0015649796 -0.38549805 0 0 0 0
0.092407227 -0.0015602112 -0.38427734 0 0 0 0
0.094177246 -0.0015602112 -0.38427734 0 0 0 0
0.09576416 -0.0015563965 -0.38330078 0 0 0 0
0.09753418 -0.0015563965 -0.38330078 0 0 0 0
0.099060059 -0.0015525818 -0.38232422 0 0 0 0
0.10089111 -0.0015525818 -0.38232422 0 0 0 0
0.10266113 -0.0015525818 -0.38232422 0 0 0 0
0.10418701 -0.0015487671 -0.38134766 0 0 0 0
0.10595703 -0.0015487671 -0.38134766 0 0 0 0
0.10778809 -0.0015487671 -0.38134766 0 0 0 0
0.10955811 -0.0015487671 -0.38134766 0 0 0 0
0.11132812 -0.0015487671 -0.38134766 0 0 0 0
0.11309814 -0.0015487671 -0.38134766 0 0 0 0
0.11523438 -0.0015525818 -0.38232422 0 0 0 0
0.11730957 -0.0015563965 -0.38330078 0 0 0 0
0.1194458 -0.0015602112 -0.38427734 0 0 0 0
0.12188721 -0.0015687943 -0.38647461 0 0 0 0
0.12402344 -0.0015726089 -0.38745117 0 0 0 0
0.12609863 -0.0015764236 -0.38842773 0 0 0 0
0.1282959 -0.001581192 -0.3894043 0 0 0 0
0.13012695 -0.001581192 -0.3894043 0 0 0 0
0.13220215 -0.0015850067 -0.39038086 0 0 0 0
0.1340332 -0.0015850067 -0.39038086 0 0 0 0
0.13586426 -0.0015850067 -0.39038086 0 0 0 0
0.13769531 -0.0015850067 -0.39038086 0 0 0 0
0.13952637 -0.0015850067 -0.39038086 0 0 0 0
0.14099121 -0.001581192 -0.3894043 0 0 0 0
0.14282227 -0.001581192 -0.3894043 0 0 0 0
0.14428711 -0.0015764236 -0.38842773 0 0 0 0
0.14611816 -0.0015764236 -0.38842773 0 0 0 0
0.14758301 -0.0015726089 -0.38745117 0 0 0 0
0.14904785 -0.0015687943 -0.38647461 0 0 0 0
0.15039062 -0.0015649796 -0.38549805 0 0 0 0
0.15185547 -0.0015602112 -0.38427734 0 0 0 0
0.15368652 -0.0015602112 -0.38427734 0 0 0 0
0.1550293 -0.0015563965 -0.38330078 0 0 0 0
-0.1048584 -0.0031166077 -0.35620117 0 0 0 0
-0.10314941 -0.0031166077 -0.35620117 0 0 0 0
-0.10119629 -0.0031089783 -0.35522461 0 0 0 0
-0.09954834 -0.0031089783 -0.35522461 0 0 0 0
-0.097900391 -0.0031089783 -0.35522461 0 0 0 0
-0.095947266 -0.0030994415 -0.35424805 0 0 0 0
-0.094299316 -0.0030994415 -0.35424805 0 0 0 0
-0.092590332 -0.0030994415 -0.35424805 0 0 0 0
-0.090698242 -0.0030918121 -0.35327148 0 0 0 0
-0.089050293 -0.0030918121 -0.35327148 0 0 0 0
-0.087402344 -0.0030918121 -0.35327148 0 0 0 0
-0.085754395 -0.0030918121 -0.35327148 0 0 0 0
-0.08404541 -0.0030918121 -0.35327148 0 0 0 0
-0.071044922 -0.0028362274 -0.32421875 0 0 0 0
-0.069519043 -0.0028362274 -0.32421875 0 0 0 0
-0.067810059 -0.0028266907 -0.32324219 0 0 0 0
-0.06628418 -0.0028266907 -0.32324219 0 0 0 0
-0.064575195 -0.0028190613 -0.32202148 0 0 0 0
-0.063049316 -0.0028190613 -0.32202148 0 0 0 0
-0.061553955 -0.0028190613 -0.32202148 0 0 0 0
-0.060058594 -0.0028190613 -0.32202148 0 0 0 0
-0.058532715 -0.0028190613 -0.32202148 0 0 0 0
-0.057037354 -0.0028190613 -0.32202148 0 0 0 0
-0.055511475 -0.0028190613 -0.32202148 0 0 0 0
-0.054168701 -0.0028266907 -0.32324219 0 0 0 0
-0.05267334 -0.0028266907 -0.32324219 0 0 0 0
-0.051147461 -0.0028266907 -0.32324219 0 0 0 0
-0.04977417 -0.0028362274 -0.32421875 0 0 0 0
-0.048278809 -0.0028362274 -0.32421875 0 0 0 0
-0.046875 -0.0028457642 -0.32519531 0 0 0 0
-0.045501709 -0.0028533936 -0.32617188 0 0 0 0
-0.04397583 -0.0028533936 -0.32617188 0 0 0 0
-0.042572021 -0.0028629303 -0.32714844 0 0 0 0
-0.041168213 -0.0028705597 -0.328125 0 0 0 0
-0.039733887 -0.0028800964 -0.32910156 0 0 0 0
-0.038421631 -0.0028972626 -0.33105469 0 0 0 0
-0.036987305 -0.0029067993 -0.33227539 0 0 0 0
-0.035552979 -0.0029144287 -0.33325195 0 0 0 0
-0.034179688 -0.0029335022 -0.33520508 0 0 0 0
-0.032714844 -0.0029411316 -0.33618164 0 0 0 0
-0.031234741 -0.0029506683 -0.3371582 0 0 0 0
-0.02973938 -0.0029582977 -0.33813477 0 0 0 0
-0.028320312 -0.0029773712 -0.34008789 0 0 0 0
-0.026885986 -0.0029945374 -0.34228516 0 0 0 0
-0.025497437 -0.0030212402 -0.34521484 0 0 0 0
-0.022979736 -0.0031166077 -0.35620117 0 0 0 0
-0.02130127 -0.0031166077 -0.35620117 0 0 0 0
-0.019622803 -0.0031166077 -0.35620117 0 0 0 0
-0.017959595 -0.0031166077 -0.35620117 0 0 0 0
-0.016281128 -0.0031166077 -0.35620117 0 0 0 0
-0.014579773 -0.0031089783 -0.35522461 0 0 0 0
-0.012908936 -0.0031089783 -0.35522461 0 0 0 0
-0.011245728 -0.0031089783 -0.35522461 0 0 0 0
-0.0095825195 -0.0031089783 -0.35522461 0 0 0 0
-0.0079116821 -0.0031089783 -0.35522461 0 0 0 0
-0.0062484741 -0.0031089783 -0.35522461 0 0 0 0
-0.0045814514 -0.0031089783 -0.35522461 0 0 0 0
-0.0029144287 -0.0031089783 -0.35522461 0 0 0 0
-0.0012493134 -0.0031089783 -0.35522461 0 0 0 0
0.00041675568 -0.0031089783 -0.35522461 0 0 0 0
0.0020828247 -0.0031089783 -0.35522461 0 0 0 0
0.0037498474 -0.0031089783 -0.35522461 0 0 0 0
0.0054130554 -0.0031089783 -0.35522461 0 0 0 0
0.0070800781 -0.0031089783 -0.35522461 0 0 0 0
0.0087432861 -0.0031089783 -0.35522461 0 0 0 0
0.010414124 -0.0031089783 -0.35522461 0 0 0 0
0.012077332 -0.0031089783 -0.35522461 0 0 0 0
0.013748169 -0.0031089783 -0.35522461 0 0 0 0
0.015411377 -0.0031089783 -0.35522461 0 0 0 0
0.017074585 -0.0031089783 -0.35522461 0 0 0 0
0.018737793 -0.0031089783 -0.35522461 0 0 0 0
0.020401001 -0.0031089783 -0.35522461 0 0 0 0
0.022079468 -0.0031089783 -0.35522461 0 0 0 0
0.023742676 -0.0031089783 -0.35522461 0 0 0 0
0.025405884 -0.0031089783 -0.35522461 0 0 0 0
0.027069092 -0.0031089783 -0.35522461 0 0 0 0
0.028747559 -0.0031089783 -0.35522461 0 0 0 0
0.030410767 -0.0031089783 -0.35522461 0 0 0 0
0.032073975 -0.0031089783 -0.35522461 0 0 0 0
0.033721924 -0.0031089783 -0.35522461 0 0 0 0
0.035400391 -0.0031089783 -0.35522461 0 0 0 0
0.036956787 -0.0030994415 -0.35424805 0 0 0 0
0.038635254 -0.0030994415 -0.35424805 0 0 0 0
0.040283203 -0.0030994415 -0.35424805 0 0 0 0
0.04196167 -0.0030994415 -0.35424805 0 0 0 0
0.043609619 -0.0030994415 -0.35424805 0 0 0 0
0.045257568 -0.0030994415 -0.35424805 0 0 0 0
0.046936035 -0.0030994415 -0.35424805 0 0 0 0
0.048583984 -0.0030994415 -0.35424805 0 0 0 0
0.050262451 -0.0030994415 -0.35424805 0 0 0 0
0.0519104 -0.0030994415 -0.35424805 0 0 0 0
0.053588867 -0.0030994415 -0.35424805 0 0 0 0
0.055236816 -0.0030994415 -0.35424805 0 0 0 0
0.056915283 -0.0030994415 -0.35424805 0 0 0 0
0.082214355 -0.0033893585 -0.38745117 0 0 0 0
0.08404541 -0.0033893585 -0.38745117 0 0 0 0
0.085632324 -0.0033817291 -0.38647461 0 0 0 0
0.087402344 -0.0033817291 -0.38647461 0 0 0 0
0.088989258 -0.0033721924 -0.38549805 0 0 0 0
0.090820312 -0.0033721924 -0.38549805 0 0 0 0
0.092407227 -0.0033626556 -0.38427734 0 0 0 0
0.094177246 -0.0033626556 -0.38427734 0 0 0 0
0.09576416 -0.0033550262 -0.38330078 0 0 0 0
0.097290039 -0.0033454895 -0.38232422 0 0 0 0
0.099060059 -0.0033454895 -0.38232422 0 0 0 0
0.10058594 -0.0033359528 -0.38134766 0 0 0 0
0.10241699 -0.0033359528 -0.38134766 0 0 0 0
0.10388184 -0.0033283234 -0.38037109 0 0 0 0
0.10571289 -0.0033283234 -0.38037109 0 0 0 0
0.10748291 -0.0033283234 -0.38037109 0 0 0 0
0.10925293 -0.0033283234 -0.38037109 0 0 0 0
0.11102295 -0.0033283234 -0.38037109 0 0 0 0
0.112854 -0.0033283234 -0.38037109 0 0 0 0
0.1149292 -0.0033359528 -0.38134766 0 0 0 0
0.11700439 -0.0033454895 -0.38232422 0 0 0 0
0.11914062 -0.0033550262 -0.38330078 0 0 0 0
0.12121582 -0.0033626556 -0.38427734 0 0 0 0
0.12335205 -0.0033721924 -0.38549805 0 0 0 0
0.12548828 -0.0033817291 -0.38647461 0 0 0 0
0.12756348 -0.0033893585 -0.38745117 0 0 0 0
0.12976074 -0.0033988953 -0.38842773 0 0 0 0
0.1315918 -0.0033988953 -0.38842773 0 0 0 0
0.13342285 -0.0033988953 -0.38842773 0 0 0 0
0.13562012 -0.0034065247 -0.3894043 0 0 0 0
0.13745117 -0.0034065247 -0.3894043 0 0 0 0
0.13928223 -0.0034065247 -0.3894043 0 0 0 0
0.14099121 -0.0034065247 -0.3894043 0 0 0 0
0.14282227 -0.0034065247 -0.3894043 0 0 0 0
0.14465332 -0.0034065247 -0.3894043 0 0 0 0
0.14611816 -0.0033988953 -0.38842773 0 0 0 0
0.14758301 -0.0033893585 -0.38745117 0 0 0 0
0.14941406 -0.0033893585 -0.38745117 0 0 0 0
-0.10290527 -0.004776001 -0.35522461 0 0 0 0
-0.10119629 -0.004776001 -0.35522461 0 0 0 0
-0.09954834 -0.004776001 -0.35522461 0 0 0 0
-0.097595215 -0.0047607422 -0.35424805 0 0 0 0
-0.095947266 -0.0047607422 -0.35424805 0 0 0 0
-0.094299316 -0.0047607422 -0.35424805 0 0 0 0
-0.092590332 -0.0047607422 -0.35424805 0 0 0 0
-0.090698242 -0.0047454834 -0.35327148 0 0 0 0
-0.089050293 -0.0047454834 -0.35327148 0 0 0 0
-0.087402344 -0.0047454834 -0.35327148 0 0 0 0
-0.085754395 -0.0047454834 -0.35327148 0 0 0 0
-0.08404541 -0.0047454834 -0.35327148 0 0 0 0
-0.071044922 -0.0043563843 -0.32421875 0 0 0 0
-0.069519043 -0.0043563843 -0.32421875 0 0 0 0
-0.067810059 -0.0043411255 -0.32324219 0 0 0 0
-0.06628418 -0.0043411255 -0.32324219 0 0 0 0
-0.064575195 -0.0043296814 -0.32202148 0 0 0 0
-0.063049316 -0.0043296814 -0.32202148 0 0 0 0
-0.06137085 -0.0043144226 -0.32104492 0 0 0 0
-0.059875488 -0.0043144226 -0.32104492 0 0 0 0
-0.058349609 -0.0043144226 -0.32104492 0 0 0 0
-0.057037354 -0.0043296814 -0.32202148 0 0 0 0
-0.055511475 -0.0043296814 -0.32202148 0 0 0 0
-0.054016113 -0.0043296814 -0.32202148 0 0 0 0
-0.05267334 -0.0043411255 -0.32324219 0 0 0 0
-0.051147461 -0.0043411255 -0.32324219 0 0 0 0
-0.04977417 -0.0043563843 -0.32421875 0 0 0 0
-0.048278809 -0.0043563843 -0.32421875 0 0 0 0
-0.046875 -0.0043678284 -0.32519531 0 0 0 0
-0.045501709 -0.0043830872 -0.32617188 0 0 0 0
-0.04397583 -0.0043830872 -0.32617188 0 0 0 0
-0.042572021 -0.0043945312 -0.32714844 0 0 0 0
-0.041168213 -0.00440979 -0.328125 0 0 0 0
-0.039855957 -0.0044364929 -0.33007812 0 0 0 0
-0.038543701 -0.0044631958 -0.33227539 0 0 0 0
-0.037109375 -0.0044784546 -0.33325195 0 0 0 0
-0.035766602 -0.0045051575 -0.33520508 0 0 0 0
-0.034301758 -0.0045166016 -0.33618164 0 0 0 0
-0.032806396 -0.0045318604 -0.3371582 0 0 0 0
-0.031402588 -0.0045585632 -0.33911133 0 0 0 0
-0.029922485 -0.0045700073 -0.34008789 0 0 0 0
-0.028411865 -0.0045852661 -0.34130859 0 0 0 0
-0.02696228 -0.004611969 -0.34326172 0 0 0 0
-0.025421143 -0.0046272278 -0.34423828 0 0 0 0
-0.024230957 -0.0047073364 -0.3503418 0 0 0 0
-0.022903442 -0.004776001 -0.35522461 0 0 0 0
-0.02130127 -0.0047874451 -0.35620117 0 0 0 0
-0.019622803 -0.0047874451 -0.35620117 0 0 0 0
-0.017959595 -0.0047874451 -0.35620117 0 0 0 0
-0.016281128 -0.0047874451 -0.35620117 0 0 0 0
-0.014579773 -0.004776001 -0.35522461 0 0 0 0
-0.012908936 -0.004776001 -0.35522461 0 0 0 0
-0.011245728 -0.004776001 -0.35522461 0 0 0 0
-0.0095825195 -0.004776001 -0.35522461 0 0 0 0
-0.0079116821 -0.004776001 -0.35522461 0 0 0 0
-0.0062484741 -0.004776001 -0.35522461 0 0 0 0
-0.0045814514 -0.004776001 -0.35522461 0 0 0 0
-0.0029144287 -0.004776001 -0.35522461 0 0 0 0
-0.0012493134 -0.004776001 -0.35522461 0 0 0 0
0.00041675568 -0.004776001 -0.35522461 0 0 0 0
0.0020828247 -0.004776001 -0.35522461 0 0 0 0
0.0037498474 -0.004776001 -0.35522461 0 0 0 0
0.0054130554 -0.004776001 -0.35522461 0 0 0 0
0.0070800781 -0.004776001 -0.35522461 0 0 0 0
0.0087432861 -0.004776001 -0.35522461 0 0 0 0
0.010414124 -0.004776001 -0.35522461 0 0 0 0
0.012077332 -0.004776001 -0.35522461 0 0 0 0
0.013748169 -0.004776001 -0.35522461 0 0 0 0
0.015411377 -0.004776001 -0.35522461 0 0 0 0
0.017074585 -0.004776001 -0.35522461 0 0 0 0
0.018737793 -0.004776001 -0.35522461 0 0 0 0
0.020401001 -0.004776001 -0.35522461 0 0 0 0
0.022079468 -0.004776001 -0.35522461 0 0 0 0
0.023742676 -0.004776001 -0.35522461 0 0 0 0
0.025405884 -0.004776001 -0.35522461 0 0 0 0
0.027069092 -0.004776001 -0.35522461 0 0 0 0
0.028747559 -0.004776001 -0.35522461 0 0 0 0
0.030410767 -0.004776001 -0.35522461 0 0 0 0
0.031982422 -0.0047607422 -0.35424805 0 0 0 0
0.033630371 -0.0047607422 -0.35424805 0 0 0 0
0.035308838 -0.0047607422 -0.35424805 0 0 0 0
0.036956787 -0.0047607422 -0.35424805 0 0 0 0
0.038635254 -0.0047607422 -0.35424805 0 0 0 0
0.040283203 -0.0047607422 -0.35424805 0 0 0 0
0.04196167 -0.0047607422 -0.35424805 0 0 0 0
0.043609619 -0.0047607422 -0.35424805 0 0 0 0
0.045257568 -0.0047607422 -0.35424805 0 0 0 0
0.046936035 -0.0047607422 -0.35424805 0 0 0 0
0.048583984 -0.0047607422 -0.35424805 0 0 0 0
0.050262451 -0.0047607422 -0.35424805 0 0 0 0
0.0519104 -0.0047607422 -0.35424805 0 0 0 0
0.053588867 -0.0047607422 -0.35424805 0 0 0 0
0.055236816 -0.0047607422 -0.35424805 0 0 0 0
0.082397461 -0.0052185059 -0.38842773 0 0 0 0
0.08404541 -0.0052070618 -0.38745117 0 0 0 0
0.085632324 -0.005191803 -0.38647461 0 0 0 0
0.087402344 -0.005191803 -0.38647461 0 0 0 0
0.088989258 -0.0051803589 -0.38549805 0 0 0 0
0.090820312 -0.0051803589 -0.38549805 0 0 0 0
0.092407227 -0.0051651001 -0.38427734 0 0 0 0
0.093933105 -0.005153656 -0.38330078 0 0 0 0
0.09576416 -0.005153656 -0.38330078 0 0 0 0
0.097290039 -0.0051383972 -0.38232422 0 0 0 0
0.098815918 -0.0051231384 -0.38134766 0 0 0 0
0.1003418 -0.0051116943 -0.38037109 0 0 0 0
0.10211182 -0.0051116943 -0.38037109 0 0 0 0
0.1036377 -0.0050964355 -0.37939453 0 0 0 0
0.10540771 -0.0050964355 -0.37939453 0 0 0 0
0.10717773 -0.0050964355 -0.37939453 0 0 0 0
0.10870361 -0.0050849915 -0.37841797 0 0 0 0
0.11047363 -0.0050849915 -0.37841797 0 0 0 0
0.11254883 -0.0050964355 -0.37939453 0 0 0 0
0.11431885 -0.0050964355 -0.37939453 0 0 0 0
0.11639404 -0.0051116943 -0.38037109 0 0 0 0
0.11846924 -0.0051231384 -0.38134766 0 0 0 0
0.12091064 -0.005153656 -0.38330078 0 0 0 0
0.12304688 -0.0051651001 -0.38427734 0 0 0 0
0.12512207 -0.0051803589 -0.38549805 0 0 0 0
0.12731934 -0.005191803 -0.38647461 0 0 0 0
0.12902832 -0.005191803 -0.38647461 0 0 0 0
0.13122559 -0.0052070618 -0.38745117 0 0 0 0
0.13342285 -0.0052185059 -0.38842773 0 0 0 0
0.13525391 -0.0052185059 -0.38842773 0 0 0 0
0.13745117 -0.0052337646 -0.3894043 0 0 0 0
0.13928223 -0.0052337646 -0.3894043 0 0 0 0
0.14099121 -0.0052337646 -0.3894043 0 0 0 0
0.14282227 -0.0052337646 -0.3894043 0 0 0 0
0.14465332 -0.0052337646 -0.3894043 0 0 0 0
-0.10119629 -0.006439209 -0.35522461 0 0 0 0
-0.09954834 -0.006439209 -0.35522461 0 0 0 0
-0.097595215 -0.0064239502 -0.35424805 0 0 0 0
-0.095947266 -0.0064239502 -0.35424805 0 0 0 0
-0.094299316 -0.0064239502 -0.35424805 0 0 0 0
-0.092590332 -0.0064239502 -0.35424805 0 0 0 0
-0.090698242 -0.0064048767 -0.35327148 0 0 0 0
-0.089050293 -0.0064048767 -0.35327148 0 0 0 0
-0.087402344 -0.0064048767 -0.35327148 0 0 0 0
-0.085754395 -0.0064048767 -0.35327148 0 0 0 0
-0.08404541 -0.0064048767 -0.35327148 0 0 0 0
-0.071044922 -0.0058784485 -0.32421875 0 0 0 0
-0.069335938 -0.005859375 -0.32324219 0 0 0 0
-0.067810059 -0.005859375 -0.32324219 0 0 0 0
-0.066101074 -0.0058403015 -0.32202148 0 0 0 0
-0.064575195 -0.0058403015 -0.32202148 0 0 0 0
-0.062866211 -0.005821228 -0.32104492 0 0 0 0
-0.06137085 -0.005821228 -0.32104492 0 0 0 0
-0.059875488 -0.005821228 -0.32104492 0 0 0 0
-0.058349609 -0.005821228 -0.32104492 0 0 0 0
-0.056854248 -0.005821228 -0.32104492 0 0 0 0
-0.055358887 -0.005821228 -0.32104492 0 0 0 0
-0.054016113 -0.0058403015 -0.32202148 0 0 0 0
-0.052490234 -0.0058403015 -0.32202148 0 0 0 0
-0.051147461 -0.005859375 -0.32324219 0 0 0 0
-0.049621582 -0.005859375 -0.32324219 0 0 0 0
-0.048278809 -0.0058784485 -0.32421875 0 0 0 0
-0.046875 -0.0058937073 -0.32519531 0 0 0 0
-0.045501709 -0.0059127808 -0.32617188 0 0 0 0
-0.04397583 -0.0059127808 -0.32617188 0 0 0 0
-0.042572021 -0.0059318542 -0.32714844 0 0 0 0
-0.041168213 -0.0059509277 -0.328125 0 0 0 0
-0.039855957 -0.00598526 -0.33007812 0 0 0 0
-0.038665771 -0.0060386658 -0.33325195 0 0 0 0
-0.037231445 -0.0060577393 -0.33422852 0 0 0 0
-0.035858154 -0.0060958862 -0.33618164 0 0 0 0
-0.034393311 -0.0061149597 -0.3371582 0 0 0 0
-0.032989502 -0.006149292 -0.33911133 0 0 0 0
-0.031494141 -0.0061683655 -0.34008789 0 0 0 0
-0.029998779 -0.006187439 -0.34130859 0 0 0 0
-0.028488159 -0.0062026978 -0.34228516 0 0 0 0
-0.02696228 -0.0062217712 -0.34326172 0 0 0 0
-0.025421143 -0.0062408447 -0.34423828 0 0 0 0
-0.019622803 -0.0064582825 -0.35620117 0 0 0 0
-0.017959595 -0.0064582825 -0.35620117 0 0 0 0
-0.016281128 -0.0064582825 -0.35620117 0 0 0 0
-0.014579773 -0.006439209 -0.35522461 0 0 0 0
-0.012908936 -0.006439209 -0.35522461 0 0 0 0
-0.011245728 -0.006439209 -0.35522461 0 0 0 0
-0.0095825195 -0.006439209 -0.35522461 0 0 0 0
-0.0079116821 -0.006439209 -0.35522461 0 0 0 0
-0.0062484741 -0.006439209 -0.35522461 0 0 0 0
-0.0045814514 -0.006439209 -0.35522461 0 0 0 0
-0.0029144287 -0.006439209 -0.35522461 0 0 0 0
-0.0012493134 -0.006439209 -0.35522461 0 0 0 0
0.00041675568 -0.006439209 -0.35522461 0 0 0 0
0.0020828247 -0.006439209 -0.35522461 0 0 0 0
0.0037498474 -0.006439209 -0.35522461 0 0 0 0
0.0054130554 -0.006439209 -0.35522461 0 0 0 0
0.0070800781 -0.006439209 -0.35522461 0 0 0 0
0.0087432861 -0.006439209 -0.35522461 0 0 0 0
0.010414124 -0.006439209 -0.35522461 0 0 0 0
0.012077332 -0.006439209 -0.35522461 0 0 0 0
0.013748169 -0.006439209 -0.35522461 0 0 0 0
0.015411377 -0.006439209 -0.35522461 0 0 0 0
0.017074585 -0.006439209 -0.35522461 0 0 0 0
0.018737793 -0.006439209 -0.35522461 0 0 0 0
0.020401001 -0.006439209 -0.35522461 0 0 0 0
0.022079468 -0.006439209 -0.35522461 0 0 0 0
0.023742676 -0.006439209 -0.35522461 0 0 0 0
0.025405884 -0.006439209 -0.35522461 0 0 0 0
0.027069092 -0.006439209 -0.35522461 0 0 0 0
0.028656006 -0.0064239502 -0.35424805 0 0 0 0
0.030319214 -0.0064239502 -0.35424805 0 0 0 0
0.031982422 -0.0064239502 -0.35424805 0 0 0 0
0.033630371 -0.0064239502 -0.35424805 0 0 0 0
0.035308838 -0.0064239502 -0.35424805 0 0 0 0
0.036956787 -0.0064239502 -0.35424805 0 0 0 0
0.038635254 -0.0064239502 -0.35424805 0 0 0 0
0.040283203 -0.0064239502 -0.35424805 0 0 0 0
0.04196167 -0.0064239502 -0.35424805 0 0 0 0
0.043609619 -0.0064239502 -0.35424805 0 0 0 0
0.045257568 -0.0064239502 -0.35424805 0 0 0 0
0.046936035 -0.0064239502 -0.35424805 0 0 0 0
0.048583984 -0.0064239502 -0.35424805 0 0 0 0
0.050262451 -0.0064239502 -0.35424805 0 0 0 0
0.0519104 -0.0064239502 -0.35424805 0 0 0 0
0.080566406 -0.0070419312 -0.38842773 0 0 0 0
0.082397461 -0.0070419312 -0.38842773 0 0 0 0
0.08404541 -0.0070228577 -0.38745117 0 0 0 0
0.085632324 -0.0070037842 -0.38647461 0 0 0 0
0.087402344 -0.0070037842 -0.38647461 0 0 0 0
0.088989258 -0.0069885254 -0.38549805 0 0 0 0
0.090576172 -0.0069694519 -0.38427734 0 0 0 0
0.092407227 -0.0069694519 -0.38427734 0 0 0 0
0.093933105 -0.0069503784 -0.38330078 0 0 0 0
0.095458984 -0.0069313049 -0.38232422 0 0 0 0
0.097045898 -0.0069122314 -0.38134766 0 0 0 0
0.098571777 -0.0068969727 -0.38037109 0 0 0 0
0.10009766 -0.0068778992 -0.37939453 0 0 0 0
0.10186768 -0.0068778992 -0.37939453 0 0 0 0
0.10333252 -0.0068588257 -0.37841797 0 0 0 0
0.10510254 -0.0068588257 -0.37841797 0 0 0 0
0.10693359 -0.0068588257 -0.37841797 0 0 0 0
0.10839844 -0.0068397522 -0.37744141 0 0 0 0
0.11016846 -0.0068397522 -0.37744141 0 0 0 0
0.11224365 -0.0068588257 -0.37841797 0 0 0 0
0.11401367 -0.0068588257 -0.37841797 0 0 0 0
0.11608887 -0.0068778992 -0.37939453 0 0 0 0
0.11816406 -0.0068969727 -0.38037109 0 0 0 0
0.12030029 -0.0069122314 -0.38134766 0 0 0 0
0.12237549 -0.0069313049 -0.38232422 0 0 0 0
0.12451172 -0.0069503784 -0.38330078 0 0 0 0
0.12658691 -0.0069694519 -0.38427734 0 0 0 0
0.12878418 -0.0069885254 -0.38549805 0 0 0 0
0.13085938 -0.0070037842 -0.38647461 0 0 0 0
0.13305664 -0.0070228577 -0.38745117 0 0 0 0
0.13525391 -0.0070419312 -0.38842773 0 0 0 0
0.13745117 -0.0070610046 -0.3894043 0 0 0 0
0.13952637 -0.0070762634 -0.39038086 0 0 0 0
0.14135742 -0.0070762634 -0.39038086 0 0 0 0
0.14318848 -0.0070762634 -0.39038086 0 0 0 0
0.14501953 -0.0070762634 -0.39038086 0 0 0 0
-0.09954834 -0.008102417 -0.35522461 0 0 0 0
-0.097595215 -0.0080795288 -0.35424805 0 0 0 0
-0.095947266 -0.0080795288 -0.35424805 0 0 0 0
-0.094299316 -0.0080795288 -0.35424805 0 0 0 0
-0.092590332 -0.0080795288 -0.35424805 0 0 0 0
-0.090942383 -0.0080795288 -0.35424805 0 0 0 0
-0.089294434 -0.0080795288 -0.35424805 0 0 0 0
-0.087402344 -0.0080566406 -0.35327148 0 0 0 0
-0.085754395 -0.0080566406 -0.35327148 0 0 0 0
-0.08404541 -0.0080566406 -0.35327148 0 0 0 0
-0.071044922 -0.007396698 -0.32421875 0 0 0 0
-0.069335938 -0.0073738098 -0.32324219 0 0 0 0
-0.067626953 -0.0073509216 -0.32202148 0 0 0 0
-0.066101074 -0.0073509216 -0.32202148 0 0 0 0
-0.06439209 -0.0073280334 -0.32104492 0 0 0 0
-0.062866211 -0.0073280334 -0.32104492 0 0 0 0
-0.06137085 -0.0073280334 -0.32104492 0 0 0 0
-0.059875488 -0.0073280334 -0.32104492 0 0 0 0
-0.058349609 -0.0073280334 -0.32104492 0 0 0 0
-0.056854248 -0.0073280334 -0.32104492 0 0 0 0
-0.055358887 -0.0073280334 -0.32104492 0 0 0 0
-0.053833008 -0.0073280334 -0.32104492 0 0 0 0
-0.052490234 -0.0073509216 -0.32202148 0 0 0 0
-0.051147461 -0.0073738098 -0.32324219 0 0 0 0
-0.049621582 -0.0073738098 -0.32324219 0 0 0 0
-0.048278809 -0.007396698 -0.32421875 0 0 0 0
-0.046875 -0.0074195862 -0.32519531 0 0 0 0
-0.045349121 -0.0074195862 -0.32519531 0 0 0 0
-0.04397583 -0.0074424744 -0.32617188 0 0 0 0
-0.042572021 -0.0074653625 -0.32714844 0 0 0 0
-0.041168213 -0.0074882507 -0.328125 0 0 0 0
-0.039733887 -0.0075111389 -0.32910156 0 0 0 0
-0.038787842 -0.0076255798 -0.33422852 0 0 0 0
-0.037322998 -0.007648468 -0.33520508 0 0 0 0
-0.035980225 -0.0076942444 -0.3371582 0 0 0 0
-0.034484863 -0.0077171326 -0.33813477 0 0 0 0
-0.032989502 -0.0077400208 -0.33911133 0 0 0 0
-0.031585693 -0.0077857971 -0.34130859 0 0 0 0
-0.030090332 -0.0078086853 -0.34228516 0 0 0 0
-0.028564453 -0.0078277588 -0.34326172 0 0 0 0
-0.02696228 -0.0078277588 -0.34326172 0 0 0 0
-0.025421143 -0.007850647 -0.34423828 0 0 0 0
-0.016281128 -0.0081253052 -0.35620117 0 0 0 0
-0.014579773 -0.008102417 -0.35522461 0 0 0 0
-0.012908936 -0.008102417 -0.35522461 0 0 0 0
-0.011245728 -0.008102417 -0.35522461 0 0 0 0
-0.0095825195 -0.008102417 -0.35522461 0 0 0 0
-0.0079116821 -0.008102417 -0.35522461 0 0 0 0
-0.0062484741 -0.008102417 -0.35522461 0 0 0 0
-0.0045814514 -0.008102417 -0.35522461 0 0 0 0
-0.0029144287 -0.008102417 -0.35522461 0 0 0 0
-0.0012493134 -0.008102417 -0.35522461 0 0 0 0
0.00041675568 -0.008102417 -0.35522461 0 0 0 0
0.0020828247 -0.008102417 -0.35522461 0 0 0 0
0.0037498474 -0.008102417 -0.35522461 0 0 0 0
0.0054130554 -0.008102417 -0.35522461 0 0 0 0
0.0070800781 -0.008102417 -0.35522461 0 0 0 0
0.0087432861 -0.008102417 -0.35522461 0 0 0 0
0.010414124 -0.008102417 -0.35522461 0 0 0 0
0.012077332 -0.008102417 -0.35522461 0 0 0 0
0.013748169 -0.008102417 -0.35522461 0 0 0 0
0.015411377 -0.008102417 -0.35522461 0 0 0 0
0.017074585 -0.008102417 -0.35522461 0 0 0 0
0.018737793 -0.008102417 -0.35522461 0 0 0 0
0.020401001 -0.008102417 -0.35522461 0 0 0 0
0.022079468 -0.008102417 -0.35522461 0 0 0 0
0.023742676 -0.008102417 -0.35522461 0 0 0 0
0.025405884 -0.008102417 -0.35522461 0 0 0 0
0.026992798 -0.0080795288 -0.35424805 0 0 0 0
0.028656006 -0.0080795288 -0.35424805 0 0 0 0
0.030319214 -0.0080795288 -0.35424805 0 0 0 0
0.031982422 -0.0080795288 -0.35424805 0 0 0 0
0.033630371 -0.0080795288 -0.35424805 0 0 0 0
0.035308838 -0.0080795288 -0.35424805 0 0 0 0
0.036956787 -0.0080795288 -0.35424805 0 0 0 0
0.038635254 -0.0080795288 -0.35424805 0 0 0 0
0.040283203 -0.0080795288 -0.35424805 0 0 0 0
0.04196167 -0.0080795288 -0.35424805 0 0 0 0
0.043609619 -0.0080795288 -0.35424805 0 0 0 0
0.045257568 -0.0080795288 -0.35424805 0 0 0 0
0.046936035 -0.0080795288 -0.35424805 0 0 0 0
0.048583984 -0.0080795288 -0.35424805 0 0 0 0
0.050262451 -0.0080795288 -0.35424805 0 0 0 0
0.080566406 -0.0088577271 -0.38842773 0 0 0 0
0.082397461 -0.0088577271 -0.38842773 0 0 0 0
0.08404541 -0.0088348389 -0.38745117 0 0 0 0
0.085632324 -0.0088119507 -0.38647461 0 0 0 0
0.087219238 -0.0087890625 -0.38549805 0 0 0 0
0.088989258 -0.0087890625 -0.38549805 0 0 0 0
0.090576172 -0.0087661743 -0.38427734 0 0 0 0
0.092163086 -0.0087432861 -0.38330078 0 0 0 0
0.093688965 -0.0087203979 -0.38232422 0 0 0 0
0.095214844 -0.0086975098 -0.38134766 0 0 0 0
0.096740723 -0.0086746216 -0.38037109 0 0 0 0
0.098266602 -0.0086517334 -0.37939453 0 0 0 0
0.10009766 -0.0086517334 -0.37939453 0 0 0 0
0.1015625 -0.0086288452 -0.37841797 0 0 0 0
0.10308838 -0.008605957 -0.37744141 0 0 0 0
0.1048584 -0.008605957 -0.37744141 0 0 0 0
0.10662842 -0.008605957 -0.37744141 0 0 0 0
0.10839844 -0.008605957 -0.37744141 0 0 0 0
0.11016846 -0.008605957 -0.37744141 0 0 0 0
0.11193848 -0.008605957 -0.37744141 0 0 0 0
0.1137085 -0.008605957 -0.37744141 0 0 0 0
0.11578369 -0.0086288452 -0.37841797 0 0 0 0
0.11785889 -0.0086517334 -0.37939453 0 0 0 0
0.11999512 -0.0086746216 -0.38037109 0 0 0 0
0.12207031 -0.0086975098 -0.38134766 0 0 0 0
0.12420654 -0.0087203979 -0.38232422 0 0 0 0
0.1262207 -0.0087432861 -0.38330078 0 0 0 0
0.12841797 -0.0087661743 -0.38427734 0 0 0 0
0.13061523 -0.0087890625 -0.38549805 0 0 0 0
0.13269043 -0.0088119507 -0.38647461 0 0 0 0
0.13525391 -0.0088577271 -0.38842773 0 0 0 0
0.13806152 -0.0089263916 -0.39135742 0 0 0 0
0.13989258 -0.0089263916 -0.39135742 0 0 0 0
0.14172363 -0.0089263916 -0.39135742 0 0 0 0
-0.094299316 -0.0097427368 -0.35424805 0 0 0 0
-0.092590332 -0.0097427368 -0.35424805 0 0 0 0
-0.090942383 -0.0097427368 -0.35424805 0 0 0 0
-0.089294434 -0.0097427368 -0.35424805 0 0 0 0
-0.087646484 -0.0097427368 -0.35424805 0 0 0 0
-0.085754395 -0.0097198486 -0.35327148 0 0 0 0
-0.08404541 -0.0097198486 -0.35327148 0 0 0 0
-0.070861816 -0.0088882446 -0.32324219 0 0 0 0
-0.069091797 -0.0088577271 -0.32202148 0 0 0 0
-0.067626953 -0.0088577271 -0.32202148 0 0 0 0
-0.066101074 -0.0088577271 -0.32202148 0 0 0 0
-0.06439209 -0.0088348389 -0.32104492 0 0 0 0
-0.062866211 -0.0088348389 -0.32104492 0 0 0 0
-0.06137085 -0.0088348389 -0.32104492 0 0 0 0
-0.059875488 -0.0088348389 -0.32104492 0 0 0 0
-0.058349609 -0.0088348389 -0.32104492 0 0 0 0
-0.056854248 -0.0088348389 -0.32104492 0 0 0 0
-0.055358887 -0.0088348389 -0.32104492 0 0 0 0
-0.053833008 -0.0088348389 -0.32104492 0 0 0 0
-0.052490234 -0.0088577271 -0.32202148 0 0 0 0
-0.050994873 -0.0088577271 -0.32202148 0 0 0 0
-0.049621582 -0.0088882446 -0.32324219 0 0 0 0
-0.048278809 -0.0089187622 -0.32421875 0 0 0 0
-0.04675293 -0.0089187622 -0.32421875 0 0 0 0
-0.045349121 -0.0089416504 -0.32519531 0 0 0 0
-0.04397583 -0.008972168 -0.32617188 0 0 0 0
-0.042572021 -0.0089950562 -0.32714844 0 0 0 0
-0.041046143 -0.0089950562 -0.32714844 0 0 0 0
-0.039611816 -0.0090255737 -0.328125 0 0 0 0
-0.039031982 -0.0092468262 -0.33618164 0 0 0 0
-0.037567139 -0.0092773438 -0.3371582 0 0 0 0
-0.036071777 -0.0093002319 -0.33813477 0 0 0 0
-0.034606934 -0.0093307495 -0.33911133 0 0 0 0
-0.033111572 -0.0093612671 -0.34008789 0 0 0 0
-0.031585693 -0.0093841553 -0.34130859 0 0 0 0
-0.030090332 -0.0094146729 -0.34228516 0 0 0 0
-0.028564453 -0.009437561 -0.34326172 0 0 0 0
-0.027038574 -0.0094680786 -0.34423828 0 0 0 0
-0.014579773 -0.0097732544 -0.35522461 0 0 0 0
-0.012908936 -0.0097732544 -0.35522461 0 0 0 0
-0.011245728 -0.0097732544 -0.35522461 0 0 0 0
-0.0095825195 -0.0097732544 -0.35522461 0 0 0 0
-0.0079116821 -0.0097732544 -0.35522461 0 0 0 0
-0.0062484741 -0.0097732544 -0.35522461 0 0 0 0
-0.0045814514 -0.0097732544 -0.35522461 0 0 0 0
-0.0029144287 -0.0097732544 -0.35522461 0 0 0 0
-0.0012493134 -0.0097732544 -0.35522461 0 0 0 0
0.00041675568 -0.0097732544 -0.35522461 0 0 0 0
0.0020828247 -0.0097732544 -0.35522461 0 0 0 0
0.0037498474 -0.0097732544 -0.35522461 0 0 0 0
0.0054130554 -0.0097732544 -0.35522461 0 0 0 0
0.0070800781 -0.0097732544 -0.35522461 0 0 0 0
0.0087432861 -0.0097732544 -0.35522461 0 0 0 0
0.010414124 -0.0097732544 -0.35522461 0 0 0 0
0.012077332 -0.0097732544 -0.35522461 0 0 0 0
0.013748169 -0.0097732544 -0.35522461 0 0 0 0
0.015411377 -0.0097732544 -0.35522461 0 0 0 0
0.017074585 -0.0097732544 -0.35522461 0 0 0 0
0.018737793 -0.0097732544 -0.35522461 0 0 0 0
0.020401001 -0.0097732544 -0.35522461 0 0 0 0
0.022079468 -0.0097732544 -0.35522461 0 0 0 0
0.023742676 -0.0097732544 -0.35522461 0 0 0 0
0.02532959 -0.0097427368 -0.35424805 0 0 0 0
0.026992798 -0.0097427368 -0.35424805 0 0 0 0
0.028656006 -0.0097427368 -0.35424805 0 0 0 0
0.030319214 -0.0097427368 -0.35424805 0 0 0 0
0.031982422 -0.0097427368 -0.35424805 0 0 0 0
0.033630371 -0.0097427368 -0.35424805 0 0 0 0
0.035308838 -0.0097427368 -0.35424805 0 0 0 0
0.036956787 -0.0097427368 -0.35424805 0 0 0 0
0.038635254 -0.0097427368 -0.35424805 0 0 0 0
0.040283203 -0.0097427368 -0.35424805 0 0 0 0
0.04196167 -0.0097427368 -0.35424805 0 0 0 0
0.043609619 -0.0097427368 -0.35424805 0 0 0 0
0.045257568 -0.0097427368 -0.35424805 0 0 0 0
0.046936035 -0.0097427368 -0.35424805 0 0 0 0
0.048583984 -0.0097427368 -0.35424805 0 0 0 0
0.050262451 -0.0097427368 -0.35424805 0 0 0 0
0.080810547 -0.01071167 -0.3894043 0 0 0 0
0.082397461 -0.010681152 -0.38842773 0 0 0 0
0.08404541 -0.010658264 -0.38745117 0 0 0 0
0.085632324 -0.010627747 -0.38647461 0 0 0 0
0.087219238 -0.010597229 -0.38549805 0 0 0 0
0.088745117 -0.010574341 -0.38427734 0 0 0 0
0.090332031 -0.010543823 -0.38330078 0 0 0 0
0.091918945 -0.010520935 -0.38232422 0 0 0 0
0.093444824 -0.010490417 -0.38134766 0 0 0 0
0.094970703 -0.0104599 -0.38037109 0 0 0 0
0.096496582 -0.010437012 -0.37939453 0 0 0 0
0.098022461 -0.010406494 -0.37841797 0 0 0 0
0.09979248 -0.010406494 -0.37841797 0 0 0 0
0.10131836 -0.010375977 -0.37744141 0 0 0 0
0.10308838 -0.010375977 -0.37744141 0 0 0 0
0.10455322 -0.010353088 -0.37646484 0 0 0 0
0.10632324 -0.010353088 -0.37646484 0 0 0 0
0.10809326 -0.010353088 -0.37646484 0 0 0 0
0.10986328 -0.010353088 -0.37646484 0 0 0 0
0.1116333 -0.010353088 -0.37646484 0 0 0 0
0.1137085 -0.010375977 -0.37744141 0 0 0 0
0.11547852 -0.010375977 -0.37744141 0 0 0 0
0.11755371 -0.010406494 -0.37841797 0 0 0 0
0.11962891 -0.010437012 -0.37939453 0 0 0 0
0.12176514 -0.0104599 -0.38037109 0 0 0 0
0.12384033 -0.010490417 -0.38134766 0 0 0 0
0.12597656 -0.010520935 -0.38232422 0 0 0 0
0.12805176 -0.010543823 -0.38330078 0 0 0 0
0.13061523 -0.010597229 -0.38549805 0 0 0 0
0.13269043 -0.010627747 -0.38647461 0 0 0 0
0.13525391 -0.010681152 -0.38842773 0 0 0 0
-0.090942383 -0.011405945 -0.35424805 0 0 0 0
-0.089294434 -0.011405945 -0.35424805 0 0 0 0
-0.087646484 -0.011405945 -0.35424805 0 0 0 0
-0.085998535 -0.011405945 -0.35424805 0 0 0 0
-0.070617676 -0.010368347 -0.32202148 0 0 0 0
-0.069091797 -0.010368347 -0.32202148 0 0 0 0
-0.067626953 -0.010368347 -0.32202148 0 0 0 0
-0.065856934 -0.01033783 -0.32104492 0 0 0 0
-0.06439209 -0.01033783 -0.32104492 0 0 0 0
-0.062866211 -0.01033783 -0.32104492 0 0 0 0
-0.06137085 -0.01033783 -0.32104492 0 0 0 0
-0.059875488 -0.01033783 -0.32104492 0 0 0 0
-0.058349609 -0.01033783 -0.32104492 0 0 0 0
-0.056854248 -0.01033783 -0.32104492 0 0 0 0
-0.055358887 -0.01033783 -0.32104492 0 0 0 0
-0.053833008 -0.01033783 -0.32104492 0 0 0 0
-0.052490234 -0.010368347 -0.32202148 0 0 0 0
-0.050994873 -0.010368347 -0.32202148 0 0 0 0
-0.049621582 -0.010406494 -0.32324219 0 0 0 0
-0.048278809 -0.010437012 -0.32421875 0 0 0 0
-0.04675293 -0.010437012 -0.32421875 0 0 0 0
