ply
format ascii 1.0
comment PCL generated
element vertex 1076
property float x
property float y
property float z
property float nx
property float ny
property float nz
property float curvature
element face 0
element camera 0
property float view_px
property float view_py
property float view_pz
property float x_axisx
property float x_axisy
property float x_axisz
property float y_axisx
property float y_axisy
property float y_axisz
property float z_axisx
property float z_axisy
property float z_axisz
property float focal
property float scalex
property float scaley
property float centerx
property float centery
property int viewportx
property int viewporty
property float k1
property float k2
end_header
0.11016846 0.10015869 -0.39331055 0 0 0 0
0.11138916 0.10015869 -0.39331055 0 0 0 0
0.11291504 0.10040283 -0.39453125 0 0 0 0
0.11413574 0.10040283 -0.39453125 0 0 0 0
0.11566162 0.10070801 -0.39550781 0 0 0 0
0.11688232 0.10070801 -0.39550781 0 0 0 0
0.1184082 0.10095215 -0.39648438 0 0 0 0
0.11962891 0.10095215 -0.39648438 0 0 0 0
0.12084961 0.10095215 -0.39648438 0 0 0 0
0.12237549 0.10119629 -0.39746094 0 0 0 0
-0.032775879 0.098693848 -0.39233398 0 0 0 0
-0.031555176 0.098693848 -0.39233398 0 0 0 0
-0.030258179 0.098449707 -0.39135742 0 0 0 0
-0.028961182 0.098205566 -0.39038086 0 0 0 0
-0.027679443 0.097961426 -0.3894043 0 0 0 0
-0.026397705 0.097717285 -0.38842773 0 0 0 0
-0.025054932 0.097167969 -0.38647461 0 0 0 0
-0.023803711 0.096923828 -0.38549805 0 0 0 0
-0.022537231 0.096679688 -0.38427734 0 0 0 0
-0.021240234 0.096191406 -0.38232422 0 0 0 0
-0.019989014 0.095947266 -0.38134766 0 0 0 0
-0.018707275 0.095397949 -0.37939453 0 0 0 0
-0.017486572 0.095153809 -0.37841797 0 0 0 0
-0.016265869 0.094909668 -0.37744141 0 0 0 0
-0.015098572 0.094909668 -0.37744141 0 0 0 0
-0.013885498 0.094665527 -0.37646484 0 0 0 0
-0.012687683 0.094421387 -0.37524414 0 0 0 0
-0.010101318 0.092163086 -0.36621094 0 0 0 0
-0.0089645386 0.092163086 -0.36621094 0 0 0 0
-0.0078048706 0.09185791 -0.36523438 0 0 0 0
-0.0066719055 0.09185791 -0.36523438 0 0 0 0
-0.0055351257 0.09185791 -0.36523438 0 0 0 0
-0.0043983459 0.09185791 -0.36523438 0 0 0 0
-0.0032653809 0.09185791 -0.36523438 0 0 0 0
-0.0021362305 0.092163086 -0.36621094 0 0 0 0
-0.00099849701 0.092163086 -0.36621094 0 0 0 0
0.00014019012 0.092407227 -0.36743164 0 0 0 0
0.0013027191 0.093933105 -0.37329102 0 0 0 0
0.0024681091 0.094177246 -0.37426758 0 0 0 0
0.0036411285 0.094421387 -0.37524414 0 0 0 0
0.0048217773 0.094665527 -0.37646484 0 0 0 0
0.0060043335 0.094909668 -0.37744141 0 0 0 0
0.0071792603 0.094909668 -0.37744141 0 0 0 0
0.0083694458 0.095153809 -0.37841797 0 0 0 0
0.011207581 0.099487305 -0.39550781 0 0 0 0
0.012435913 0.099487305 -0.39550781 0 0 0 0
0.013702393 0.099731445 -0.39648438 0 0 0 0
0.092590332 0.097167969 -0.38647461 0 0 0 0
0.093811035 0.097167969 -0.38647461 0 0 0 0
0.094726562 0.096923828 -0.38549805 0 0 0 0
0.095947266 0.096923828 -0.38549805 0 0 0 0
0.097106934 0.096923828 -0.38549805 0 0 0 0
0.098327637 0.096923828 -0.38549805 0 0 0 0
0.09954834 0.096923828 -0.38549805 0 0 0 0
0.10070801 0.096923828 -0.38549805 0 0 0 0
0.10217285 0.097167969 -0.38647461 0 0 0 0
0.10339355 0.097167969 -0.38647461 0 0 0 0
0.10510254 0.097717285 -0.38842773 0 0 0 0
0.10662842 0.097961426 -0.3894043 0 0 0 0
0.10839844 0.098449707 -0.39135742 0 0 0 0
0.10986328 0.098693848 -0.39233398 0 0 0 0
0.11108398 0.098693848 -0.39233398 0 0 0 0
0.11260986 0.098937988 -0.39331055 0 0 0 0
0.11413574 0.099182129 -0.39453125 0 0 0 0
0.11535645 0.099182129 -0.39453125 0 0 0 0
0.11688232 0.099487305 -0.39550781 0 0 0 0
0.11810303 0.099487305 -0.39550781 0 0 0 0
0.11962891 0.099731445 -0.39648438 0 0 0 0
0.12084961 0.099731445 -0.39648438 0 0 0 0
0.12207031 0.099731445 -0.39648438 0 0 0 0
-0.031555176 0.097473145 -0.39233398 0 0 0 0
-0.030258179 0.097229004 -0.39135742 0 0 0 0
-0.028961182 0.096984863 -0.39038086 0 0 0 0
-0.027679443 0.096740723 -0.3894043 0 0 0 0
-0.026397705 0.096496582 -0.38842773 0 0 0 0
-0.025131226 0.096252441 -0.38745117 0 0 0 0
-0.023803711 0.09576416 -0.38549805 0 0 0 0
-0.022537231 0.095458984 -0.38427734 0 0 0 0
-0.021240234 0.094970703 -0.38232422 0 0 0 0
-0.019989014 0.094726562 -0.38134766 0 0 0 0
-0.018768311 0.094482422 -0.38037109 0 0 0 0
-0.017486572 0.093994141 -0.37841797 0 0 0 0
-0.016265869 0.09375 -0.37744141 0 0 0 0
-0.015060425 0.093505859 -0.37646484 0 0 0 0
-0.013885498 0.093505859 -0.37646484 0 0 0 0
-0.012687683 0.093261719 -0.37524414 0 0 0 0
-0.011459351 0.092773438 -0.37329102 0 0 0 0
-0.010185242 0.09173584 -0.36938477 0 0 0 0
-0.0089874268 0.091247559 -0.36743164 0 0 0 0
-0.007850647 0.091247559 -0.36743164 0 0 0 0
-0.0066871643 0.091003418 -0.36621094 0 0 0 0
-0.0055503845 0.091003418 -0.36621094 0 0 0 0
-0.0044136047 0.091003418 -0.36621094 0 0 0 0
-0.003282547 0.091247559 -0.36743164 0 0 0 0
-0.0021419525 0.091247559 -0.36743164 0 0 0 0
-0.0010032654 0.091491699 -0.3684082 0 0 0 0
0.00014090538 0.09173584 -0.36938477 0 0 0 0
0.0013027191 0.092773438 -0.37329102 0 0 0 0
0.0024681091 0.093017578 -0.37426758 0 0 0 0
0.0036411285 0.093261719 -0.37524414 0 0 0 0
0.0048065186 0.093261719 -0.37524414 0 0 0 0
0.0059890747 0.093505859 -0.37646484 0 0 0 0
0.0071601868 0.093505859 -0.37646484 0 0 0 0
0.0083465576 0.09375 -0.37744141 0 0 0 0
0.093811035 0.096008301 -0.38647461 0 0 0 0
0.094726562 0.09576416 -0.38549805 0 0 0 0
0.095947266 0.09576416 -0.38549805 0 0 0 0
0.096862793 0.095458984 -0.38427734 0 0 0 0
0.098083496 0.095458984 -0.38427734 0 0 0 0
0.099243164 0.095458984 -0.38427734 0 0 0 0
0.10070801 0.09576416 -0.38549805 0 0 0 0
0.10192871 0.09576416 -0.38549805 0 0 0 0
0.10339355 0.096008301 -0.38647461 0 0 0 0
0.1048584 0.096252441 -0.38745117 0 0 0 0
0.10632324 0.096496582 -0.38842773 0 0 0 0
0.10809326 0.096984863 -0.39038086 0 0 0 0
0.10961914 0.097229004 -0.39135742 0 0 0 0
0.11108398 0.097473145 -0.39233398 0 0 0 0
0.11230469 0.097473145 -0.39233398 0 0 0 0
0.11383057 0.097717285 -0.39331055 0 0 0 0
0.11505127 0.097717285 -0.39331055 0 0 0 0
0.11657715 0.097961426 -0.39453125 0 0 0 0
0.11779785 0.097961426 -0.39453125 0 0 0 0
0.11932373 0.098205566 -0.39550781 0 0 0 0
0.12084961 0.098449707 -0.39648438 0 0 0 0
0.12207031 0.098449707 -0.39648438 0 0 0 0
-0.028961182 0.09576416 -0.39038086 0 0 0 0
-0.027679443 0.09552002 -0.3894043 0 0 0 0
-0.026397705 0.095275879 -0.38842773 0 0 0 0
-0.025131226 0.095031738 -0.38745117 0 0 0 0
-0.023803711 0.094543457 -0.38549805 0 0 0 0
-0.022537231 0.094299316 -0.38427734 0 0 0 0
-0.021240234 0.093811035 -0.38232422 0 0 0 0
-0.019989014 0.093566895 -0.38134766 0 0 0 0
-0.018768311 0.093322754 -0.38037109 0 0 0 0
-0.017486572 0.092834473 -0.37841797 0 0 0 0
-0.016265869 0.092590332 -0.37744141 0 0 0 0
-0.015098572 0.092590332 -0.37744141 0 0 0 0
-0.013885498 0.092346191 -0.37646484 0 0 0 0
-0.012687683 0.092102051 -0.37524414 0 0 0 0
-0.011459351 0.09161377 -0.37329102 0 0 0 0
-0.010238647 0.091064453 -0.37133789 0 0 0 0
-0.0090637207 0.090820312 -0.37036133 0 0 0 0
-0.0078659058 0.090332031 -0.3684082 0 0 0 0
-0.0067253113 0.090332031 -0.3684082 0 0 0 0
-0.0055809021 0.090332031 -0.3684082 0 0 0 0
-0.0044364929 0.090332031 -0.3684082 0 0 0 0
-0.0032920837 0.090332031 -0.3684082 0 0 0 0
-0.0021476746 0.090332031 -0.3684082 0 0 0 0
-0.0010061264 0.090576172 -0.36938477 0 0 0 0
0.00014138222 0.090820312 -0.37036133 0 0 0 0
0.0013027191 0.09161377 -0.37329102 0 0 0 0
0.0024681091 0.09185791 -0.37426758 0 0 0 0
0.0036411285 0.092102051 -0.37524414 0 0 0 0
0.0048065186 0.092102051 -0.37524414 0 0 0 0
0.0059890747 0.092346191 -0.37646484 0 0 0 0
0.0071601868 0.092346191 -0.37646484 0 0 0 0
0.094726562 0.094543457 -0.38549805 0 0 0 0
0.095703125 0.094299316 -0.38427734 0 0 0 0
0.096862793 0.094299316 -0.38427734 0 0 0 0
0.098083496 0.094299316 -0.38427734 0 0 0 0
0.099243164 0.094299316 -0.38427734 0 0 0 0
0.10046387 0.094299316 -0.38427734 0 0 0 0
0.10192871 0.094543457 -0.38549805 0 0 0 0
0.10314941 0.094543457 -0.38549805 0 0 0 0
0.10461426 0.094787598 -0.38647461 0 0 0 0
0.10632324 0.095275879 -0.38842773 0 0 0 0
0.10784912 0.09552002 -0.3894043 0 0 0 0
0.10931396 0.09576416 -0.39038086 0 0 0 0
0.11083984 0.096008301 -0.39135742 0 0 0 0
0.11199951 0.096008301 -0.39135742 0 0 0 0
0.11352539 0.096252441 -0.39233398 0 0 0 0
0.11474609 0.096252441 -0.39233398 0 0 0 0
0.11627197 0.096496582 -0.39331055 0 0 0 0
0.11779785 0.096740723 -0.39453125 0 0 0 0
0.11901855 0.096740723 -0.39453125 0 0 0 0
0.12054443 0.096984863 -0.39550781 0 0 0 0
0.12176514 0.096984863 -0.39550781 0 0 0 0
0.12335205 0.097229004 -0.39648438 0 0 0 0
-0.027679443 0.094299316 -0.3894043 0 0 0 0
-0.02633667 0.093811035 -0.38745117 0 0 0 0
-0.025054932 0.093566895 -0.38647461 0 0 0 0
-0.023803711 0.093322754 -0.38549805 0 0 0 0
-0.022537231 0.093078613 -0.38427734 0 0 0 0
-0.021240234 0.092590332 -0.38232422 0 0 0 0
-0.019989014 0.092346191 -0.38134766 0 0 0 0
-0.018768311 0.092102051 -0.38037109 0 0 0 0
-0.017486572 0.09161377 -0.37841797 0 0 0 0
-0.016311646 0.09161377 -0.37841797 0 0 0 0
-0.015098572 0.091369629 -0.37744141 0 0 0 0
-0.013885498 0.091125488 -0.37646484 0 0 0 0
-0.012687683 0.090881348 -0.37524414 0 0 0 0
-0.011489868 0.090637207 -0.37426758 0 0 0 0
-0.010269165 0.090209961 -0.37231445 0 0 0 0
-0.0090866089 0.08996582 -0.37133789 0 0 0 0
-0.0079345703 0.08996582 -0.37133789 0 0 0 0
-0.0067634583 0.08972168 -0.37036133 0 0 0 0
-0.0055961609 0.089477539 -0.36938477 0 0 0 0
-0.004447937 0.089477539 -0.36938477 0 0 0 0
-0.0033016205 0.089477539 -0.36938477 0 0 0 0
-0.0021591187 0.08972168 -0.37036133 0 0 0 0
-0.0010089874 0.08972168 -0.37036133 0 0 0 0
0.00014173985 0.08996582 -0.37133789 0 0 0 0
0.0013027191 0.090393066 -0.37329102 0 0 0 0
0.0024681091 0.090637207 -0.37426758 0 0 0 0
0.0036411285 0.090881348 -0.37524414 0 0 0 0
0.0048065186 0.090881348 -0.37524414 0 0 0 0
0.0059890747 0.091125488 -0.37646484 0 0 0 0
0.0071601868 0.091125488 -0.37646484 0 0 0 0
0.089416504 0.089233398 -0.3684082 0 0 0 0
0.090759277 0.089477539 -0.36938477 0 0 0 0
0.091918945 0.089477539 -0.36938477 0 0 0 0
0.096862793 0.093078613 -0.38427734 0 0 0 0
0.097839355 0.092834473 -0.38330078 0 0 0 0
0.098999023 0.092834473 -0.38330078 0 0 0 0
0.10021973 0.092834473 -0.38330078 0 0 0 0
0.10168457 0.093078613 -0.38427734 0 0 0 0
0.10314941 0.093322754 -0.38549805 0 0 0 0
0.10461426 0.093566895 -0.38647461 0 0 0 0
0.1060791 0.093811035 -0.38745117 0 0 0 0
0.10754395 0.094055176 -0.38842773 0 0 0 0
0.10900879 0.094299316 -0.3894043 0 0 0 0
0.11022949 0.094299316 -0.3894043 0 0 0 0
0.11175537 0.094543457 -0.39038086 0 0 0 0
0.11322021 0.094787598 -0.39135742 0 0 0 0
0.11474609 0.095031738 -0.39233398 0 0 0 0
0.1159668 0.095031738 -0.39233398 0 0 0 0
0.11749268 0.095275879 -0.39331055 0 0 0 0
0.11901855 0.09552002 -0.39453125 0 0 0 0
0.12054443 0.09576416 -0.39550781 0 0 0 0
0.12176514 0.09576416 -0.39550781 0 0 0 0
0.12335205 0.096008301 -0.39648438 0 0 0 0
-0.02633667 0.092651367 -0.38745117 0 0 0 0
-0.025054932 0.092407227 -0.38647461 0 0 0 0
-0.023803711 0.092163086 -0.38549805 0 0 0 0
-0.022537231 0.091918945 -0.38427734 0 0 0 0
-0.021240234 0.091430664 -0.38232422 0 0 0 0
-0.019989014 0.091186523 -0.38134766 0 0 0 0
-0.018768311 0.090942383 -0.38037109 0 0 0 0
-0.017532349 0.090698242 -0.37939453 0 0 0 0
-0.016311646 0.090454102 -0.37841797 0 0 0 0
-0.015098572 0.090209961 -0.37744141 0 0 0 0
-0.013885498 0.08996582 -0.37646484 0 0 0 0
-0.012687683 0.08972168 -0.37524414 0 0 0 0
-0.011489868 0.089477539 -0.37426758 0 0 0 0
-0.010299683 0.089233398 -0.37329102 0 0 0 0
-0.0091323853 0.089233398 -0.37329102 0 0 0 0
-0.0079574585 0.089050293 -0.37231445 0 0 0 0
-0.006778717 0.088806152 -0.37133789 0 0 0 0
-0.0056266785 0.088806152 -0.37133789 0 0 0 0
-0.0044708252 0.088806152 -0.37133789 0 0 0 0
-0.0033187866 0.088806152 -0.37133789 0 0 0 0
-0.0021648407 0.088806152 -0.37133789 0 0 0 0
-0.0010147095 0.089050293 -0.37231445 0 0 0 0
0.0001424551 0.089233398 -0.37329102 0 0 0 0
0.0013055801 0.089477539 -0.37426758 0 0 0 0
0.0024757385 0.08972168 -0.37524414 0 0 0 0
0.0036525726 0.08996582 -0.37646484 0 0 0 0
0.0048217773 0.08996582 -0.37646484 0 0 0 0
0.0059890747 0.08996582 -0.37646484 0 0 0 0
0.085754395 0.08782959 -0.36743164 0 0 0 0
0.087097168 0.08807373 -0.3684082 0 0 0 0
0.088256836 0.08807373 -0.3684082 0 0 0 0
0.089416504 0.08807373 -0.3684082 0 0 0 0
0.090759277 0.088317871 -0.36938477 0 0 0 0
0.091918945 0.088317871 -0.36938477 0 0 0 0
0.093322754 0.088562012 -0.37036133 0 0 0 0
0.097839355 0.091674805 -0.38330078 0 0 0 0
0.098754883 0.091430664 -0.38232422 0 0 0 0
0.099914551 0.091430664 -0.38232422 0 0 0 0
0.10137939 0.091674805 -0.38330078 0 0 0 0
0.10284424 0.091918945 -0.38427734 0 0 0 0
0.10430908 0.092163086 -0.38549805 0 0 0 0
0.10577393 0.092407227 -0.38647461 0 0 0 0
0.10723877 0.092651367 -0.38745117 0 0 0 0
0.10876465 0.092834473 -0.38842773 0 0 0 0
0.10998535 0.092834473 -0.38842773 0 0 0 0
0.1114502 0.093078613 -0.3894043 0 0 0 0
0.11297607 0.093322754 -0.39038086 0 0 0 0
0.11444092 0.093566895 -0.39135742 0 0 0 0
0.11566162 0.093566895 -0.39135742 0 0 0 0
0.1171875 0.093811035 -0.39233398 0 0 0 0
0.11871338 0.094055176 -0.39331055 0 0 0 0
0.12023926 0.094299316 -0.39453125 0 0 0 0
0.12176514 0.094543457 -0.39550781 0 0 0 0
0.12335205 0.094787598 -0.39648438 0 0 0 0
-0.023803711 0.090942383 -0.38549805 0 0 0 0
-0.022537231 0.090698242 -0.38427734 0 0 0 0
-0.021240234 0.090209961 -0.38232422 0 0 0 0
-0.019989014 0.090026855 -0.38134766 0 0 0 0
-0.018768311 0.089782715 -0.38037109 0 0 0 0
-0.017532349 0.089538574 -0.37939453 0 0 0 0
-0.016311646 0.089294434 -0.37841797 0 0 0 0
-0.015098572 0.089050293 -0.37744141 0 0 0 0
-0.013885498 0.088806152 -0.37646484 0 0 0 0
-0.012718201 0.088806152 -0.37646484 0 0 0 0
-0.011520386 0.088562012 -0.37524414 0 0 0 0
-0.010322571 0.088317871 -0.37426758 0 0 0 0
-0.0091629028 0.088317871 -0.37426758 0 0 0 0
-0.0079727173 0.08807373 -0.37329102 0 0 0 0
-0.006816864 0.08807373 -0.37329102 0 0 0 0
-0.0056419373 0.087890625 -0.37231445 0 0 0 0
-0.004486084 0.087890625 -0.37231445 0 0 0 0
-0.0033283234 0.087890625 -0.37231445 0 0 0 0
-0.0021762848 0.08807373 -0.37329102 0 0 0 0
-0.0010175705 0.08807373 -0.37329102 0 0 0 0
0.00014281273 0.088317871 -0.37426758 0 0 0 0
0.0013093948 0.088562012 -0.37524414 0 0 0 0
0.0024814606 0.088806152 -0.37646484 0 0 0 0
0.0036621094 0.089050293 -0.37744141 0 0 0 0
0.0048446655 0.089294434 -0.37841797 0 0 0 0
0.006023407 0.089294434 -0.37841797 0 0 0 0
0.083435059 0.086669922 -0.36743164 0 0 0 0
0.084594727 0.086669922 -0.36743164 0 0 0 0
0.085754395 0.086669922 -0.36743164 0 0 0 0
0.086853027 0.086669922 -0.36743164 0 0 0 0
0.088256836 0.086914062 -0.3684082 0 0 0 0
0.089416504 0.086914062 -0.3684082 0 0 0 0
0.090759277 0.087158203 -0.36938477 0 0 0 0
0.091918945 0.087158203 -0.36938477 0 0 0 0
0.093322754 0.087402344 -0.37036133 0 0 0 0
0.094726562 0.087646484 -0.37133789 0 0 0 0
0.098510742 0.090026855 -0.38134766 0 0 0 0
0.099914551 0.090209961 -0.38232422 0 0 0 0
0.10113525 0.090209961 -0.38232422 0 0 0 0
0.1026001 0.090454102 -0.38330078 0 0 0 0
0.10406494 0.090698242 -0.38427734 0 0 0 0
0.10552979 0.090942383 -0.38549805 0 0 0 0
0.10699463 0.091186523 -0.38647461 0 0 0 0
0.10821533 0.091186523 -0.38647461 0 0 0 0
0.10968018 0.091430664 -0.38745117 0 0 0 0
0.11114502 0.091674805 -0.38842773 0 0 0 0
0.1126709 0.091918945 -0.3894043 0 0 0 0
0.1138916 0.091918945 -0.3894043 0 0 0 0
0.11535645 0.092102051 -0.39038086 0 0 0 0
0.11688232 0.092346191 -0.39135742 0 0 0 0
0.1184082 0.092590332 -0.39233398 0 0 0 0
0.12023926 0.093078613 -0.39453125 0 0 0 0
0.12145996 0.093078613 -0.39453125 0 0 0 0
0.12298584 0.093322754 -0.39550781 0 0 0 0
-0.021240234 0.089050293 -0.38232422 0 0 0 0
-0.019989014 0.088806152 -0.38134766 0 0 0 0
-0.018707275 0.088317871 -0.37939453 0 0 0 0
-0.017486572 0.088134766 -0.37841797 0 0 0 0
-0.016311646 0.088134766 -0.37841797 0 0 0 0
-0.015098572 0.087890625 -0.37744141 0 0 0 0
-0.013885498 0.087646484 -0.37646484 0 0 0 0
-0.012718201 0.087646484 -0.37646484 0 0 0 0
-0.011520386 0.087402344 -0.37524414 0 0 0 0
-0.010353088 0.087402344 -0.37524414 0 0 0 0
-0.009185791 0.087402344 -0.37524414 0 0 0 0
-0.0079956055 0.087158203 -0.37426758 0 0 0 0
-0.0068359375 0.087158203 -0.37426758 0 0 0 0
-0.0056724548 0.087158203 -0.37426758 0 0 0 0
-0.0045089722 0.087158203 -0.37426758 0 0 0 0
-0.0033454895 0.087158203 -0.37426758 0 0 0 0
-0.0021820068 0.087158203 -0.37426758 0 0 0 0
-0.0010223389 0.087402344 -0.37524414 0 0 0 0
0.00014364719 0.087646484 -0.37646484 0 0 0 0
0.0013160706 0.087890625 -0.37744141 0 0 0 0
0.002494812 0.088134766 -0.37841797 0 0 0 0
0.0036716461 0.088134766 -0.37841797 0 0 0 0
0.0048599243 0.088317871 -0.37939453 0 0 0 0
0.0060539246 0.088562012 -0.38037109 0 0 0 0
0.081359863 0.085754395 -0.3684082 0 0 0 0
0.082519531 0.085754395 -0.3684082 0 0 0 0
0.083435059 0.085510254 -0.36743164 0 0 0 0
0.084594727 0.085510254 -0.36743164 0 0 0 0
0.085754395 0.085510254 -0.36743164 0 0 0 0
0.086853027 0.085510254 -0.36743164 0 0 0 0
0.088256836 0.085754395 -0.3684082 0 0 0 0
0.089416504 0.085754395 -0.3684082 0 0 0 0
0.090759277 0.085998535 -0.36938477 0 0 0 0
0.092163086 0.086242676 -0.37036133 0 0 0 0
0.093322754 0.086242676 -0.37036133 0 0 0 0
0.094726562 0.086486816 -0.37133789 0 0 0 0
0.096130371 0.086730957 -0.37231445 0 0 0 0
0.09967041 0.088806152 -0.38134766 0 0 0 0
0.10083008 0.088806152 -0.38134766 0 0 0 0
0.10229492 0.089050293 -0.38232422 0 0 0 0
0.10375977 0.089294434 -0.38330078 0 0 0 0
0.10522461 0.089538574 -0.38427734 0 0 0 0
0.10644531 0.089538574 -0.38427734 0 0 0 0
0.10791016 0.08972168 -0.38549805 0 0 0 0
0.109375 0.08996582 -0.38647461 0 0 0 0
0.11090088 0.090209961 -0.38745117 0 0 0 0
0.11206055 0.090209961 -0.38745117 0 0 0 0
0.11358643 0.090454102 -0.38842773 0 0 0 0
0.1151123 0.090698242 -0.3894043 0 0 0 0
0.11657715 0.090942383 -0.39038086 0 0 0 0
0.11810303 0.091125488 -0.39135742 0 0 0 0
0.11993408 0.09161377 -0.39331055 0 0 0 0
0.12145996 0.09185791 -0.39453125 0 0 0 0
0.12298584 0.092102051 -0.39550781 0 0 0 0
-0.015098572 0.086730957 -0.37744141 0 0 0 0
-0.013885498 0.086486816 -0.37646484 0 0 0 0
-0.012718201 0.086486816 -0.37646484 0 0 0 0
-0.011550903 0.086486816 -0.37646484 0 0 0 0
-0.010375977 0.086486816 -0.37646484 0 0 0 0
-0.0092086792 0.086486816 -0.37646484 0 0 0 0
-0.0080184937 0.086242676 -0.37524414 0 0 0 0
-0.006855011 0.086242676 -0.37524414 0 0 0 0
-0.0056877136 0.086242676 -0.37524414 0 0 0 0
-0.0045204163 0.086242676 -0.37524414 0 0 0 0
-0.0033550262 0.086242676 -0.37524414 0 0 0 0
-0.0021953583 0.086486816 -0.37646484 0 0 0 0
-0.0010251999 0.086486816 -0.37646484 0 0 0 0
0.00014400482 0.086730957 -0.37744141 0 0 0 0
0.0013198853 0.086914062 -0.37841797 0 0 0 0
0.0025024414 0.087158203 -0.37939453 0 0 0 0
0.0036907196 0.087402344 -0.38037109 0 0 0 0
0.0048828125 0.087646484 -0.38134766 0 0 0 0
0.0060691833 0.087646484 -0.38134766 0 0 0 0
0.0072937012 0.08807373 -0.38330078 0 0 0 0
0.081359863 0.084655762 -0.3684082 0 0 0 0
0.082519531 0.084655762 -0.3684082 0 0 0 0
0.083435059 0.084411621 -0.36743164 0 0 0 0
0.084594727 0.084411621 -0.36743164 0 0 0 0
0.085754395 0.084411621 -0.36743164 0 0 0 0
0.086853027 0.084411621 -0.36743164 0 0 0 0
0.088256836 0.084655762 -0.3684082 0 0 0 0
0.089416504 0.084655762 -0.3684082 0 0 0 0
0.090759277 0.084838867 -0.36938477 0 0 0 0
0.092163086 0.085083008 -0.37036133 0 0 0 0
0.093322754 0.085083008 -0.37036133 0 0 0 0
0.094726562 0.085327148 -0.37133789 0 0 0 0
0.096435547 0.085754395 -0.37329102 0 0 0 0
0.099121094 0.087158203 -0.37939453 0 0 0 0
0.10058594 0.087402344 -0.38037109 0 0 0 0
0.10205078 0.087646484 -0.38134766 0 0 0 0
0.10351562 0.08782959 -0.38232422 0 0 0 0
0.10498047 0.08807373 -0.38330078 0 0 0 0
0.10614014 0.08807373 -0.38330078 0 0 0 0
0.10760498 0.088317871 -0.38427734 0 0 0 0
0.10913086 0.088562012 -0.38549805 0 0 0 0
0.11029053 0.088562012 -0.38549805 0 0 0 0
0.11181641 0.088806152 -0.38647461 0 0 0 0
0.11328125 0.088989258 -0.38745117 0 0 0 0
0.11480713 0.089233398 -0.38842773 0 0 0 0
0.11627197 0.089477539 -0.3894043 0 0 0 0
0.11779785 0.08972168 -0.39038086 0 0 0 0
0.11962891 0.090148926 -0.39233398 0 0 0 0
-0.013885498 0.085327148 -0.37646484 0 0 0 0
-0.012718201 0.085327148 -0.37646484 0 0 0 0
-0.011550903 0.085327148 -0.37646484 0 0 0 0
-0.010375977 0.085327148 -0.37646484 0 0 0 0
-0.0092086792 0.085327148 -0.37646484 0 0 0 0
-0.0080413818 0.085327148 -0.37646484 0 0 0 0
-0.0068702698 0.085327148 -0.37646484 0 0 0 0
-0.0057029724 0.085327148 -0.37646484 0 0 0 0
-0.0045318604 0.085327148 -0.37646484 0 0 0 0
-0.003364563 0.085327148 -0.37646484 0 0 0 0
-0.0022010803 0.085510254 -0.37744141 0 0 0 0
-0.0010280609 0.085510254 -0.37744141 0 0 0 0
0.00014436245 0.085754395 -0.37841797 0 0 0 0
0.0013237 0.085998535 -0.37939453 0 0 0 0
0.0025081635 0.086242676 -0.38037109 0 0 0 0
0.0037002563 0.086425781 -0.38134766 0 0 0 0
0.0048980713 0.086669922 -0.38232422 0 0 0 0
0.0060844421 0.086669922 -0.38232422 0 0 0 0
0.0072937012 0.086914062 -0.38330078 0 0 0 0
0.079528809 0.08392334 -0.37036133 0 0 0 0
0.080688477 0.08392334 -0.37036133 0 0 0 0
0.081604004 0.083740234 -0.36938477 0 0 0 0
0.082519531 0.083496094 -0.3684082 0 0 0 0
0.083679199 0.083496094 -0.3684082 0 0 0 0
0.084838867 0.083496094 -0.3684082 0 0 0 0
0.0859375 0.083496094 -0.3684082 0 0 0 0
0.087097168 0.083496094 -0.3684082 0 0 0 0
0.088256836 0.083496094 -0.3684082 0 0 0 0
0.089416504 0.083496094 -0.3684082 0 0 0 0
0.090759277 0.083740234 -0.36938477 0 0 0 0
0.092163086 0.08392334 -0.37036133 0 0 0 0
0.093566895 0.08416748 -0.37133789 0 0 0 0
0.094970703 0.084411621 -0.37231445 0 0 0 0
0.096435547 0.084594727 -0.37329102 0 0 0 0
0.098876953 0.085754395 -0.37841797 0 0 0 0
0.1003418 0.085998535 -0.37939453 0 0 0 0
0.10174561 0.086242676 -0.38037109 0 0 0 0
0.10321045 0.086425781 -0.38134766 0 0 0 0
0.10467529 0.086669922 -0.38232422 0 0 0 0
0.105896 0.086669922 -0.38232422 0 0 0 0
0.10736084 0.086914062 -0.38330078 0 0 0 0
0.10852051 0.086914062 -0.38330078 0 0 0 0
0.11004639 0.087097168 -0.38427734 0 0 0 0
0.11120605 0.087097168 -0.38427734 0 0 0 0
0.1126709 0.087341309 -0.38549805 0 0 0 0
0.11419678 0.087585449 -0.38647461 0 0 0 0
0.11572266 0.08782959 -0.38745117 0 0 0 0
0.1171875 0.088012695 -0.38842773 0 0 0 0
-0.012748718 0.084350586 -0.37744141 0 0 0 0
-0.011581421 0.084350586 -0.37744141 0 0 0 0
-0.010406494 0.084350586 -0.37744141 0 0 0 0
-0.0092315674 0.084350586 -0.37744141 0 0 0 0
-0.00806427 0.084350586 -0.37744141 0 0 0 0
-0.0068893433 0.084350586 -0.37744141 0 0 0 0
-0.0057182312 0.084350586 -0.37744141 0 0 0 0
-0.0045433044 0.084350586 -0.37744141 0 0 0 0
-0.0033740997 0.084350586 -0.37744141 0 0 0 0
-0.0022068024 0.084594727 -0.37841797 0 0 0 0
-0.0010309219 0.084594727 -0.37841797 0 0 0 0
0.00014483929 0.084838867 -0.37939453 0 0 0 0
0.001326561 0.085021973 -0.38037109 0 0 0 0
0.0025157928 0.085266113 -0.38134766 0 0 0 0
0.0037002563 0.085266113 -0.38134766 0 0 0 0
0.0048980713 0.085510254 -0.38232422 0 0 0 0
0.0061035156 0.085693359 -0.38330078 0 0 0 0
0.0073127747 0.0859375 -0.38427734 0 0 0 0
0.0085296631 0.086181641 -0.38549805 0 0 0 0
0.009727478 0.086181641 -0.38549805 0 0 0 0
0.077636719 0.083251953 -0.37231445 0 0 0 0
0.078796387 0.083251953 -0.37231445 0 0 0 0
0.079711914 0.083007812 -0.37133789 0 0 0 0
0.080688477 0.082763672 -0.37036133 0 0 0 0
0.081604004 0.082580566 -0.36938477 0 0 0 0
0.082519531 0.082336426 -0.3684082 0 0 0 0
0.083679199 0.082336426 -0.3684082 0 0 0 0
0.084838867 0.082336426 -0.3684082 0 0 0 0
0.0859375 0.082336426 -0.3684082 0 0 0 0
0.087097168 0.082336426 -0.3684082 0 0 0 0
0.088256836 0.082336426 -0.3684082 0 0 0 0
0.089660645 0.082580566 -0.36938477 0 0 0 0
0.090759277 0.082580566 -0.36938477 0 0 0 0
0.092163086 0.082763672 -0.37036133 0 0 0 0
0.093566895 0.083007812 -0.37133789 0 0 0 0
0.094970703 0.083251953 -0.37231445 0 0 0 0
0.096679688 0.083679199 -0.37426758 0 0 0 0
0.098632812 0.084350586 -0.37744141 0 0 0 0
0.10003662 0.084594727 -0.37841797 0 0 0 0
0.10150146 0.084838867 -0.37939453 0 0 0 0
0.10296631 0.085021973 -0.38037109 0 0 0 0
0.10443115 0.085266113 -0.38134766 0 0 0 0
0.10559082 0.085266113 -0.38134766 0 0 0 0
0.10705566 0.085510254 -0.38232422 0 0 0 0
0.10827637 0.085510254 -0.38232422 0 0 0 0
0.10943604 0.085510254 -0.38232422 0 0 0 0
0.11090088 0.085693359 -0.38330078 0 0 0 0
0.11212158 0.085693359 -0.38330078 0 0 0 0
0.11358643 0.0859375 -0.38427734 0 0 0 0
0.11480713 0.0859375 -0.38427734 0 0 0 0
0.1159668 0.0859375 -0.38427734 0 0 0 0
-0.011581421 0.083190918 -0.37744141 0 0 0 0
-0.010437012 0.083435059 -0.37841797 0 0 0 0
-0.009262085 0.083435059 -0.37841797 0 0 0 0
-0.0080795288 0.083435059 -0.37841797 0 0 0 0
-0.0069084167 0.083435059 -0.37841797 0 0 0 0
-0.00573349 0.083435059 -0.37841797 0 0 0 0
-0.0045585632 0.083435059 -0.37841797 0 0 0 0
-0.0033817291 0.083435059 -0.37841797 0 0 0 0
-0.0022125244 0.083618164 -0.37939453 0 0 0 0
-0.001033783 0.083618164 -0.37939453 0 0 0 0
0.00014519691 0.083862305 -0.38037109 0 0 0 0
0.001326561 0.083862305 -0.38037109 0 0 0 0
0.0025157928 0.08404541 -0.38134766 0 0 0 0
0.0037097931 0.084289551 -0.38232422 0 0 0 0
0.0049095154 0.084533691 -0.38330078 0 0 0 0
0.0061035156 0.084533691 -0.38330078 0 0 0 0
0.0073127747 0.084716797 -0.38427734 0 0 0 0
0.0085296631 0.084960938 -0.38549805 0 0 0 0
0.009727478 0.084960938 -0.38549805 0 0 0 0
0.010948181 0.085205078 -0.38647461 0 0 0 0
0.077819824 0.082275391 -0.37329102 0 0 0 0
0.078796387 0.082092285 -0.37231445 0 0 0 0
0.079711914 0.081848145 -0.37133789 0 0 0 0
0.080871582 0.081848145 -0.37133789 0 0 0 0
0.081848145 0.081665039 -0.37036133 0 0 0 0
0.082763672 0.081420898 -0.36938477 0 0 0 0
0.08392334 0.081420898 -0.36938477 0 0 0 0
0.084838867 0.081176758 -0.3684082 0 0 0 0
0.0859375 0.081176758 -0.3684082 0 0 0 0
0.087097168 0.081176758 -0.3684082 0 0 0 0
0.088500977 0.081420898 -0.36938477 0 0 0 0
0.089660645 0.081420898 -0.36938477 0 0 0 0
0.091003418 0.081665039 -0.37036133 0 0 0 0
0.092407227 0.081848145 -0.37133789 0 0 0 0
0.093811035 0.082092285 -0.37231445 0 0 0 0
0.095275879 0.082275391 -0.37329102 0 0 0 0
0.096679688 0.082519531 -0.37426758 0 0 0 0
0.098388672 0.082946777 -0.37646484 0 0 0 0
0.10003662 0.083435059 -0.37841797 0 0 0 0
0.10150146 0.083618164 -0.37939453 0 0 0 0
0.10266113 0.083618164 -0.37939453 0 0 0 0
0.10412598 0.083862305 -0.38037109 0 0 0 0
0.10534668 0.083862305 -0.38037109 0 0 0 0
0.10650635 0.083862305 -0.38037109 0 0 0 0
0.10797119 0.08404541 -0.38134766 0 0 0 0
0.10913086 0.08404541 -0.38134766 0 0 0 0
0.11035156 0.08404541 -0.38134766 0 0 0 0
0.11181641 0.084289551 -0.38232422 0 0 0 0
0.11303711 0.084289551 -0.38232422 0 0 0 0
0.11419678 0.084289551 -0.38232422 0 0 0 0
0.11535645 0.084289551 -0.38232422 0 0 0 0
0.11627197 0.08404541 -0.38134766 0 0 0 0
-0.010437012 0.082214355 -0.37841797 0 0 0 0
-0.0092849731 0.082458496 -0.37939453 0 0 0 0
-0.008102417 0.082458496 -0.37939453 0 0 0 0
-0.0069274902 0.082458496 -0.37939453 0 0 0 0
-0.0057487488 0.082458496 -0.37939453 0 0 0 0
-0.0045700073 0.082458496 -0.37939453 0 0 0 0
-0.0033912659 0.082458496 -0.37939453 0 0 0 0
-0.0022125244 0.082458496 -0.37939453 0 0 0 0
-0.001036644 0.082641602 -0.38037109 0 0 0 0
0.00014519691 0.082641602 -0.38037109 0 0 0 0
0.0013303757 0.082885742 -0.38134766 0 0 0 0
0.0025157928 0.082885742 -0.38134766 0 0 0 0
0.0037097931 0.083129883 -0.38232422 0 0 0 0
0.0049095154 0.083312988 -0.38330078 0 0 0 0
0.0061035156 0.083312988 -0.38330078 0 0 0 0
0.0073127747 0.083557129 -0.38427734 0 0 0 0
0.0085296631 0.083740234 -0.38549805 0 0 0 0
0.009727478 0.083740234 -0.38549805 0 0 0 0
0.010948181 0.083984375 -0.38647461 0 0 0 0
0.012184143 0.08416748 -0.38745117 0 0 0 0
0.076904297 0.081359863 -0.37426758 0 0 0 0
0.077819824 0.081115723 -0.37329102 0 0 0 0
0.078796387 0.080932617 -0.37231445 0 0 0 0
0.079956055 0.080932617 -0.37231445 0 0 0 0
0.080871582 0.080688477 -0.37133789 0 0 0 0
0.081848145 0.080505371 -0.37036133 0 0 0 0
0.082763672 0.08026123 -0.36938477 0 0 0 0
0.08392334 0.08026123 -0.36938477 0 0 0 0
0.085021973 0.08026123 -0.36938477 0 0 0 0
0.086181641 0.08026123 -0.36938477 0 0 0 0
0.087341309 0.08026123 -0.36938477 0 0 0 0
0.088500977 0.08026123 -0.36938477 0 0 0 0
0.089660645 0.08026123 -0.36938477 0 0 0 0
0.091003418 0.080505371 -0.37036133 0 0 0 0
0.092407227 0.080688477 -0.37133789 0 0 0 0
0.093811035 0.080932617 -0.37231445 0 0 0 0
0.095275879 0.081115723 -0.37329102 0 0 0 0
0.096679688 0.081359863 -0.37426758 0 0 0 0
0.098388672 0.081787109 -0.37646484 0 0 0 0
0.09979248 0.08203125 -0.37744141 0 0 0 0
0.10125732 0.082214355 -0.37841797 0 0 0 0
0.10266113 0.082458496 -0.37939453 0 0 0 0
0.10388184 0.082458496 -0.37939453 0 0 0 0
0.1050415 0.082458496 -0.37939453 0 0 0 0
0.10650635 0.082641602 -0.38037109 0 0 0 0
0.10766602 0.082641602 -0.38037109 0 0 0 0
0.10888672 0.082641602 -0.38037109 0 0 0 0
0.11004639 0.082641602 -0.38037109 0 0 0 0
0.11120605 0.082641602 -0.38037109 0 0 0 0
0.11273193 0.082885742 -0.38134766 0 0 0 0
0.1138916 0.082885742 -0.38134766 0 0 0 0
0.1151123 0.082885742 -0.38134766 0 0 0 0
0.1159668 0.082641602 -0.38037109 0 0 0 0
-0.0093078613 0.081481934 -0.38037109 0 0 0 0
-0.0081253052 0.081481934 -0.38037109 0 0 0 0
-0.0069465637 0.081481934 -0.38037109 0 0 0 0
-0.0057487488 0.081298828 -0.37939453 0 0 0 0
-0.0045700073 0.081298828 -0.37939453 0 0 0 0
-0.0033912659 0.081298828 -0.37939453 0 0 0 0
-0.0022182465 0.081481934 -0.38037109 0 0 0 0
-0.001036644 0.081481934 -0.38037109 0 0 0 0
0.00014519691 0.081481934 -0.38037109 0 0 0 0
0.0013303757 0.081726074 -0.38134766 0 0 0 0
0.0025157928 0.081726074 -0.38134766 0 0 0 0
0.0037097931 0.08190918 -0.38232422 0 0 0 0
0.0048980713 0.08190918 -0.38232422 0 0 0 0
0.0061035156 0.08215332 -0.38330078 0 0 0 0
0.0073127747 0.082336426 -0.38427734 0 0 0 0
0.0085067749 0.082336426 -0.38427734 0 0 0 0
0.009727478 0.082580566 -0.38549805 0 0 0 0
0.010948181 0.082763672 -0.38647461 0 0 0 0
0.012184143 0.083007812 -0.38745117 0 0 0 0
0.013389587 0.083007812 -0.38745117 0 0 0 0
0.014625549 0.083190918 -0.38842773 0 0 0 0
0.015869141 0.083435059 -0.3894043 0 0 0 0
0.017089844 0.083435059 -0.3894043 0 0 0 0
0.018295288 0.083435059 -0.3894043 0 0 0 0
0.019500732 0.083435059 -0.3894043 0 0 0 0
0.020767212 0.083618164 -0.39038086 0 0 0 0
0.076904297 0.080200195 -0.37426758 0 0 0 0
0.077819824 0.079956055 -0.37329102 0 0 0 0
0.079040527 0.079956055 -0.37329102 0 0 0 0
0.079956055 0.079772949 -0.37231445 0 0 0 0
0.080871582 0.079528809 -0.37133789 0 0 0 0
0.08203125 0.079528809 -0.37133789 0 0 0 0
0.082946777 0.079345703 -0.37036133 0 0 0 0
0.084106445 0.079345703 -0.37036133 0 0 0 0
0.085021973 0.079101562 -0.36938477 0 0 0 0
0.086181641 0.079101562 -0.36938477 0 0 0 0
0.087341309 0.079101562 -0.36938477 0 0 0 0
0.088745117 0.079345703 -0.37036133 0 0 0 0
0.089904785 0.079345703 -0.37036133 0 0 0 0
0.091308594 0.079528809 -0.37133789 0 0 0 0
0.092407227 0.079528809 -0.37133789 0 0 0 0
0.093811035 0.079772949 -0.37231445 0 0 0 0
0.095275879 0.079956055 -0.37329102 0 0 0 0
0.096679688 0.080200195 -0.37426758 0 0 0 0
0.098388672 0.080627441 -0.37646484 0 0 0 0
0.09979248 0.080871582 -0.37744141 0 0 0 0
0.10125732 0.081054688 -0.37841797 0 0 0 0
0.10241699 0.081054688 -0.37841797 0 0 0 0
0.10357666 0.081054688 -0.37841797 0 0 0 0
0.1050415 0.081298828 -0.37939453 0 0 0 0
0.10620117 0.081298828 -0.37939453 0 0 0 0
0.10742188 0.081298828 -0.37939453 0 0 0 0
0.10858154 0.081298828 -0.37939453 0 0 0 0
0.10974121 0.081298828 -0.37939453 0 0 0 0
0.11120605 0.081481934 -0.38037109 0 0 0 0
0.11242676 0.081481934 -0.38037109 0 0 0 0
0.11358643 0.081481934 -0.38037109 0 0 0 0
0.11480713 0.081481934 -0.38037109 0 0 0 0
0.1159668 0.081481934 -0.38037109 0 0 0 0
0.11712646 0.081481934 -0.38037109 0 0 0 0
0.13330078 0.08581543 -0.40039062 0 0 0 0
0.13378906 0.085388184 -0.3984375 0 0 0 0
-0.0093307495 0.080505371 -0.38134766 0 0 0 0
-0.0081253052 0.080322266 -0.38037109 0 0 0 0
-0.0069465637 0.080322266 -0.38037109 0 0 0 0
-0.0057640076 0.080322266 -0.38037109 0 0 0 0
-0.0045814514 0.080322266 -0.38037109 0 0 0 0
-0.0034008026 0.080322266 -0.38037109 0 0 0 0
-0.0022182465 0.080322266 -0.38037109 0 0 0 0
-0.001036644 0.080322266 -0.38037109 0 0 0 0
0.00014519691 0.080322266 -0.38037109 0 0 0 0
0.0013303757 0.080505371 -0.38134766 0 0 0 0
0.0025157928 0.080505371 -0.38134766 0 0 0 0
0.0037002563 0.080505371 -0.38134766 0 0 0 0
0.0048980713 0.080749512 -0.38232422 0 0 0 0
0.0060844421 0.080749512 -0.38232422 0 0 0 0
0.0072937012 0.080932617 -0.38330078 0 0 0 0
0.0085067749 0.081176758 -0.38427734 0 0 0 0
0.009727478 0.081359863 -0.38549805 0 0 0 0
0.010925293 0.081359863 -0.38549805 0 0 0 0
0.012153625 0.081604004 -0.38647461 0 0 0 0
0.013389587 0.081787109 -0.38745117 0 0 0 0
0.014625549 0.081970215 -0.38842773 0 0 0 0
0.015838623 0.081970215 -0.38842773 0 0 0 0
0.017089844 0.082214355 -0.3894043 0 0 0 0
0.018295288 0.082214355 -0.3894043 0 0 0 0
0.019500732 0.082214355 -0.3894043 0 0 0 0
0.020721436 0.082214355 -0.3894043 0 0 0 0
0.02192688 0.082214355 -0.3894043 0 0 0 0
0.023132324 0.082214355 -0.3894043 0 0 0 0
0.024337769 0.082214355 -0.3894043 0 0 0 0
0.076904297 0.079040527 -0.37426758 0 0 0 0
0.078063965 0.079040527 -0.37426758 0 0 0 0
0.079040527 0.078796387 -0.37329102 0 0 0 0
0.080200195 0.078796387 -0.37329102 0 0 0 0
0.081115723 0.078613281 -0.37231445 0 0 0 0
0.08203125 0.078369141 -0.37133789 0 0 0 0
0.083190918 0.078369141 -0.37133789 0 0 0 0
0.084106445 0.078186035 -0.37036133 0 0 0 0
0.085266113 0.078186035 -0.37036133 0 0 0 0
0.086425781 0.078186035 -0.37036133 0 0 0 0
0.087585449 0.078186035 -0.37036133 0 0 0 0
0.088745117 0.078186035 -0.37036133 0 0 0 0
0.090148926 0.078369141 -0.37133789 0 0 0 0
0.091308594 0.078369141 -0.37133789 0 0 0 0
0.092712402 0.078613281 -0.37231445 0 0 0 0
0.094116211 0.078796387 -0.37329102 0 0 0 0
0.09552002 0.079040527 -0.37426758 0 0 0 0
0.096923828 0.079223633 -0.37524414 0 0 0 0
0.098388672 0.079467773 -0.37646484 0 0 0 0
0.09979248 0.079650879 -0.37744141 0 0 0 0
0.10095215 0.079650879 -0.37744141 0 0 0 0
0.10241699 0.07989502 -0.37841797 0 0 0 0
0.10357666 0.07989502 -0.37841797 0 0 0 0
0.10473633 0.07989502 -0.37841797 0 0 0 0
0.10595703 0.07989502 -0.37841797 0 0 0 0
0.1071167 0.07989502 -0.37841797 0 0 0 0
0.10858154 0.080078125 -0.37939453 0 0 0 0
0.10974121 0.080078125 -0.37939453 0 0 0 0
0.11096191 0.080078125 -0.37939453 0 0 0 0
0.11212158 0.080078125 -0.37939453 0 0 0 0
0.11358643 0.080322266 -0.38037109 0 0 0 0
0.11480713 0.080322266 -0.38037109 0 0 0 0
0.1159668 0.080322266 -0.38037109 0 0 0 0
0.11712646 0.080322266 -0.38037109 0 0 0 0
0.13195801 0.084533691 -0.40039062 0 0 0 0
0.13256836 0.084106445 -0.3984375 0 0 0 0
0.13354492 0.08392334 -0.39746094 0 0 0 0
0.13476562 0.08392334 -0.39746094 0 0 0 0
0.13562012 0.083679199 -0.39648438 0 0 0 0
0.13684082 0.083679199 -0.39648438 0 0 0 0
-0.010543823 0.079528809 -0.38232422 0 0 0 0
-0.0093307495 0.079345703 -0.38134766 0 0 0 0
-0.0081481934 0.079345703 -0.38134766 0 0 0 0
-0.0069465637 0.079101562 -0.38037109 0 0 0 0
-0.0057640076 0.079101562 -0.38037109 0 0 0 0
-0.0045814514 0.079101562 -0.38037109 0 0 0 0
-0.0034008026 0.079101562 -0.38037109 0 0 0 0
-0.0022182465 0.079101562 -0.38037109 0 0 0 0
-0.001036644 0.079101562 -0.38037109 0 0 0 0
0.00014519691 0.079101562 -0.38037109 0 0 0 0
0.001326561 0.079101562 -0.38037109 0 0 0 0
0.0025081635 0.079101562 -0.38037109 0 0 0 0
0.0037002563 0.079345703 -0.38134766 0 0 0 0
0.0048828125 0.079345703 -0.38134766 0 0 0 0
0.0060844421 0.079528809 -0.38232422 0 0 0 0
0.0072746277 0.079528809 -0.38232422 0 0 0 0
0.0084838867 0.079772949 -0.38330078 0 0 0 0
0.0096969604 0.079956055 -0.38427734 0 0 0 0
0.010925293 0.08013916 -0.38549805 0 0 0 0
0.012153625 0.080383301 -0.38647461 0 0 0 0
0.013389587 0.080566406 -0.38745117 0 0 0 0
0.014595032 0.080566406 -0.38745117 0 0 0 0
0.015838623 0.080810547 -0.38842773 0 0 0 0
0.017089844 0.080993652 -0.3894043 0 0 0 0
0.018295288 0.080993652 -0.3894043 0 0 0 0
0.019500732 0.080993652 -0.3894043 0 0 0 0
0.020721436 0.080993652 -0.3894043 0 0 0 0
0.02192688 0.080993652 -0.3894043 0 0 0 0
0.023071289 0.080810547 -0.38842773 0 0 0 0
0.024276733 0.080810547 -0.38842773 0 0 0 0
0.025421143 0.080566406 -0.38745117 0 0 0 0
0.026626587 0.080566406 -0.38745117 0 0 0 0
0.027832031 0.080566406 -0.38745117 0 0 0 0
0.029037476 0.080566406 -0.38745117 0 0 0 0
0.03024292 0.080566406 -0.38745117 0 0 0 0
0.076904297 0.077880859 -0.37426758 0 0 0 0
0.078063965 0.077880859 -0.37426758 0 0 0 0
0.079223633 0.077880859 -0.37426758 0 0 0 0
0.080200195 0.077636719 -0.37329102 0 0 0 0
0.081359863 0.077636719 -0.37329102 0 0 0 0
0.082275391 0.077453613 -0.37231445 0 0 0 0
0.083190918 0.077270508 -0.37133789 0 0 0 0
0.084350586 0.077270508 -0.37133789 0 0 0 0
0.085266113 0.077026367 -0.37036133 0 0 0 0
0.086425781 0.077026367 -0.37036133 0 0 0 0
0.087585449 0.077026367 -0.37036133 0 0 0 0
0.088989258 0.077270508 -0.37133789 0 0 0 0
0.090148926 0.077270508 -0.37133789 0 0 0 0
0.091552734 0.077453613 -0.37231445 0 0 0 0
0.092712402 0.077453613 -0.37231445 0 0 0 0
0.094116211 0.077636719 -0.37329102 0 0 0 0
0.09552002 0.077880859 -0.37426758 0 0 0 0
0.096923828 0.078063965 -0.37524414 0 0 0 0
0.098388672 0.078308105 -0.37646484 0 0 0 0
0.09954834 0.078308105 -0.37646484 0 0 0 0
0.10095215 0.078491211 -0.37744141 0 0 0 0
0.10217285 0.078491211 -0.37744141 0 0 0 0
0.10357666 0.078674316 -0.37841797 0 0 0 0
0.10473633 0.078674316 -0.37841797 0 0 0 0
0.10595703 0.078674316 -0.37841797 0 0 0 0
0.1071167 0.078674316 -0.37841797 0 0 0 0
0.10827637 0.078674316 -0.37841797 0 0 0 0
0.10949707 0.078674316 -0.37841797 0 0 0 0
0.11096191 0.078918457 -0.37939453 0 0 0 0
0.11212158 0.078918457 -0.37939453 0 0 0 0
0.11328125 0.078918457 -0.37939453 0 0 0 0
0.11480713 0.079101562 -0.38037109 0 0 0 0
0.1159668 0.079101562 -0.38037109 0 0 0 0
0.11712646 0.079101562 -0.38037109 0 0 0 0
0.1307373 0.083312988 -0.40039062 0 0 0 0
0.13171387 0.083068848 -0.39941406 0 0 0 0
0.13256836 0.082885742 -0.3984375 0 0 0 0
0.13354492 0.082702637 -0.39746094 0 0 0 0
0.13476562 0.082702637 -0.39746094 0 0 0 0
0.13562012 0.082458496 -0.39648438 0 0 0 0
0.13684082 0.082458496 -0.39648438 0 0 0 0
0.13806152 0.082458496 -0.39648438 0 0 0 0
-0.017944336 0.079589844 -0.38842773 0 0 0 0
-0.016693115 0.079406738 -0.38745117 0 0 0 0
-0.01550293 0.079406738 -0.38745117 0 0 0 0
-0.014259338 0.079162598 -0.38647461 0 0 0 0
-0.013023376 0.078979492 -0.38549805 0 0 0 0
-0.011764526 0.078552246 -0.38330078 0 0 0 0
-0.010543823 0.078369141 -0.38232422 0 0 0 0
-0.0093307495 0.078125 -0.38134766 0 0 0 0
-0.0081481934 0.078125 -0.38134766 0 0 0 0
-0.0069465637 0.077941895 -0.38037109 0 0 0 0
-0.0057640076 0.077941895 -0.38037109 0 0 0 0
-0.0045814514 0.077941895 -0.38037109 0 0 0 0
-0.0033912659 0.077758789 -0.37939453 0 0 0 0
-0.0022125244 0.077758789 -0.37939453 0 0 0 0
-0.001033783 0.077758789 -0.37939453 0 0 0 0
0.00014483929 0.077758789 -0.37939453 0 0 0 0
0.001326561 0.077941895 -0.38037109 0 0 0 0
0.0025081635 0.077941895 -0.38037109 0 0 0 0
0.0036907196 0.077941895 -0.38037109 0 0 0 0
0.0048828125 0.078125 -0.38134766 0 0 0 0
0.0060691833 0.078125 -0.38134766 0 0 0 0
0.0072555542 0.078125 -0.38134766 0 0 0 0
0.0084609985 0.078369141 -0.38232422 0 0 0 0
0.0096740723 0.078552246 -0.38330078 0 0 0 0
0.010894775 0.078735352 -0.38427734 0 0 0 0
0.012123108 0.078979492 -0.38549805 0 0 0 0
0.01335144 0.079162598 -0.38647461 0 0 0 0
0.014595032 0.079406738 -0.38745117 0 0 0 0
0.015838623 0.079589844 -0.38842773 0 0 0 0
0.017044067 0.079589844 -0.38842773 0 0 0 0
0.018249512 0.079589844 -0.38842773 0 0 0 0
0.019500732 0.079772949 -0.3894043 0 0 0 0
0.0206604 0.079589844 -0.38842773 0 0 0 0
0.021865845 0.079589844 -0.38842773 0 0 0 0
0.023071289 0.079589844 -0.38842773 0 0 0 0
0.024276733 0.079589844 -0.38842773 0 0 0 0
0.025421143 0.079406738 -0.38745117 0 0 0 0
0.026626587 0.079406738 -0.38745117 0 0 0 0
0.027755737 0.079162598 -0.38647461 0 0 0 0
0.028961182 0.079162598 -0.38647461 0 0 0 0
0.030166626 0.079162598 -0.38647461 0 0 0 0
0.031280518 0.078979492 -0.38549805 0 0 0 0
0.077087402 0.076904297 -0.37524414 0 0 0 0
0.07824707 0.076904297 -0.37524414 0 0 0 0
0.079223633 0.076721191 -0.37426758 0 0 0 0
0.080383301 0.076721191 -0.37426758 0 0 0 0
0.081359863 0.076477051 -0.37329102 0 0 0 0
0.082275391 0.076293945 -0.37231445 0 0 0 0
0.083435059 0.076293945 -0.37231445 0 0 0 0
0.084350586 0.07611084 -0.37133789 0 0 0 0
0.085510254 0.07611084 -0.37133789 0 0 0 0
0.086669922 0.07611084 -0.37133789 0 0 0 0
0.08782959 0.07611084 -0.37133789 0 0 0 0
0.088989258 0.07611084 -0.37133789 0 0 0 0
0.090393066 0.076293945 -0.37231445 0 0 0 0
0.091552734 0.076293945 -0.37231445 0 0 0 0
0.092956543 0.076477051 -0.37329102 0 0 0 0
0.094360352 0.076721191 -0.37426758 0 0 0 0
0.09552002 0.076721191 -0.37426758 0 0 0 0
0.096923828 0.076904297 -0.37524414 0 0 0 0
0.098388672 0.077087402 -0.37646484 0 0 0 0
0.09954834 0.077087402 -0.37646484 0 0 0 0
0.10095215 0.077331543 -0.37744141 0 0 0 0
0.10217285 0.077331543 -0.37744141 0 0 0 0
0.10357666 0.077514648 -0.37841797 0 0 0 0
0.10473633 0.077514648 -0.37841797 0 0 0 0
0.10595703 0.077514648 -0.37841797 0 0 0 0
0.1071167 0.077514648 -0.37841797 0 0 0 0
0.10827637 0.077514648 -0.37841797 0 0 0 0
0.10949707 0.077514648 -0.37841797 0 0 0 0
0.11096191 0.077758789 -0.37939453 0 0 0 0
0.11212158 0.077758789 -0.37939453 0 0 0 0
0.11328125 0.077758789 -0.37939453 0 0 0 0
0.11450195 0.077758789 -0.37939453 0 0 0 0
0.1159668 0.077941895 -0.38037109 0 0 0 0
0.11712646 0.077941895 -0.38037109 0 0 0 0
0.12670898 0.081848145 -0.39941406 0 0 0 0
0.1282959 0.08203125 -0.40039062 0 0 0 0
0.1295166 0.08203125 -0.40039062 0 0 0 0
0.13049316 0.081848145 -0.39941406 0 0 0 0
0.13134766 0.081665039 -0.3984375 0 0 0 0
0.13220215 0.081420898 -0.39746094 0 0 0 0
0.13354492 0.081420898 -0.39746094 0 0 0 0
0.13439941 0.081237793 -0.39648438 0 0 0 0
0.13562012 0.081237793 -0.39648438 0 0 0 0
0.13684082 0.081237793 -0.39648438 0 0 0 0
0.13806152 0.081237793 -0.39648438 0 0 0 0
0.13928223 0.081237793 -0.39648438 0 0 0 0
-0.01914978 0.078369141 -0.38842773 0 0 0 0
-0.01789856 0.078186035 -0.38745117 0 0 0 0
-0.016693115 0.078186035 -0.38745117 0 0 0 0
-0.015457153 0.07800293 -0.38647461 0 0 0 0
-0.014221191 0.077758789 -0.38549805 0 0 0 0
-0.012992859 0.077575684 -0.38427734 0 0 0 0
-0.011764526 0.077392578 -0.38330078 0 0 0 0
-0.010543823 0.077148438 -0.38232422 0 0 0 0
-0.0093307495 0.076965332 -0.38134766 0 0 0 0
-0.0081253052 0.076782227 -0.38037109 0 0 0 0
-0.0069465637 0.076782227 -0.38037109 0 0 0 0
-0.0057640076 0.076782227 -0.38037109 0 0 0 0
-0.0045700073 0.076538086 -0.37939453 0 0 0 0
-0.0033912659 0.076538086 -0.37939453 0 0 0 0
-0.0022125244 0.076538086 -0.37939453 0 0 0 0
-0.001033783 0.076538086 -0.37939453 0 0 0 0
0.00014483929 0.076538086 -0.37939453 0 0 0 0
0.0013237 0.076538086 -0.37939453 0 0 0 0
0.0025024414 0.076538086 -0.37939453 0 0 0 0
0.0036907196 0.076782227 -0.38037109 0 0 0 0
0.0048713684 0.076782227 -0.38037109 0 0 0 0
0.0060539246 0.076782227 -0.38037109 0 0 0 0
0.0072555542 0.076965332 -0.38134766 0 0 0 0
0.0084381104 0.076965332 -0.38134766 0 0 0 0
0.0096511841 0.077148438 -0.38232422 0 0 0 0
0.010864258 0.077392578 -0.38330078 0 0 0 0
0.012084961 0.077575684 -0.38427734 0 0 0 0
0.013320923 0.077758789 -0.38549805 0 0 0 0
0.014556885 0.07800293 -0.38647461 0 0 0 0
0.015792847 0.078186035 -0.38745117 0 0 0 0
0.017044067 0.078369141 -0.38842773 0 0 0 0
0.018249512 0.078369141 -0.38842773 0 0 0 0
0.019454956 0.078369141 -0.38842773 0 0 0 0
0.0206604 0.078369141 -0.38842773 0 0 0 0
0.021865845 0.078369141 -0.38842773 0 0 0 0
0.023071289 0.078369141 -0.38842773 0 0 0 0
0.024215698 0.078186035 -0.38745117 0 0 0 0
0.025421143 0.078186035 -0.38745117 0 0 0 0
0.026565552 0.07800293 -0.38647461 0 0 0 0
0.027755737 0.07800293 -0.38647461 0 0 0 0
0.028884888 0.077758789 -0.38549805 0 0 0 0
0.030075073 0.077758789 -0.38549805 0 0 0 0
0.031280518 0.077758789 -0.38549805 0 0 0 0
0.03237915 0.077575684 -0.38427734 0 0 0 0
0.07824707 0.075744629 -0.37524414 0 0 0 0
0.079406738 0.075744629 -0.37524414 0 0 0 0
0.080383301 0.075561523 -0.37426758 0 0 0 0
0.081542969 0.075561523 -0.37426758 0 0 0 0
0.082519531 0.075317383 -0.37329102 0 0 0 0
0.083435059 0.075134277 -0.37231445 0 0 0 0
0.084594727 0.075134277 -0.37231445 0 0 0 0
0.085754395 0.075134277 -0.37231445 0 0 0 0
0.086914062 0.075134277 -0.37231445 0 0 0 0
0.08807373 0.075134277 -0.37231445 0 0 0 0
0.089233398 0.075134277 -0.37231445 0 0 0 0
0.090393066 0.075134277 -0.37231445 0 0 0 0
0.091796875 0.075317383 -0.37329102 0 0 0 0
0.092956543 0.075317383 -0.37329102 0 0 0 0
0.094360352 0.075561523 -0.37426758 0 0 0 0
0.09576416 0.075744629 -0.37524414 0 0 0 0
0.096923828 0.075744629 -0.37524414 0 0 0 0
0.098388672 0.075927734 -0.37646484 0 0 0 0
0.09979248 0.076171875 -0.37744141 0 0 0 0
0.10095215 0.076171875 -0.37744141 0 0 0 0
0.10217285 0.076171875 -0.37744141 0 0 0 0
0.10333252 0.076171875 -0.37744141 0 0 0 0
0.10473633 0.07635498 -0.37841797 0 0 0 0
0.10595703 0.07635498 -0.37841797 0 0 0 0
0.1071167 0.07635498 -0.37841797 0 0 0 0
0.10827637 0.07635498 -0.37841797 0 0 0 0
0.10949707 0.07635498 -0.37841797 0 0 0 0
0.11065674 0.07635498 -0.37841797 0 0 0 0
0.11212158 0.076538086 -0.37939453 0 0 0 0
0.11328125 0.076538086 -0.37939453 0 0 0 0
0.11450195 0.076538086 -0.37939453 0 0 0 0
0.1159668 0.076782227 -0.38037109 0 0 0 0
0.11712646 0.076782227 -0.38037109 0 0 0 0
0.12512207 0.080383301 -0.3984375 0 0 0 0
0.12634277 0.080383301 -0.3984375 0 0 0 0
0.12792969 0.080627441 -0.39941406 0 0 0 0
0.12915039 0.080627441 -0.39941406 0 0 0 0
0.13012695 0.080383301 -0.3984375 0 0 0 0
0.13134766 0.080383301 -0.3984375 0 0 0 0
0.13220215 0.080200195 -0.39746094 0 0 0 0
0.13317871 0.08001709 -0.39648438 0 0 0 0
0.13439941 0.08001709 -0.39648438 0 0 0 0
0.13562012 0.08001709 -0.39648438 0 0 0 0
0.13684082 0.08001709 -0.39648438 0 0 0 0
0.13806152 0.08001709 -0.39648438 0 0 0 0
0.13928223 0.08001709 -0.39648438 0 0 0 0
-0.021575928 0.077148438 -0.38842773 0 0 0 0
-0.020370483 0.077148438 -0.38842773 0 0 0 0
-0.019104004 0.076965332 -0.38745117 0 0 0 0
-0.01789856 0.076965332 -0.38745117 0 0 0 0
-0.016662598 0.076782227 -0.38647461 0 0 0 0
-0.015457153 0.076782227 -0.38647461 0 0 0 0
-0.014221191 0.076599121 -0.38549805 0 0 0 0
-0.012992859 0.07635498 -0.38427734 0 0 0 0
-0.011764526 0.076171875 -0.38330078 0 0 0 0
-0.010543823 0.07598877 -0.38232422 0 0 0 0
-0.0093307495 0.075805664 -0.38134766 0 0 0 0
-0.0081253052 0.075561523 -0.38037109 0 0 0 0
-0.0069465637 0.075561523 -0.38037109 0 0 0 0
-0.0057487488 0.075378418 -0.37939453 0 0 0 0
-0.0045700073 0.075378418 -0.37939453 0 0 0 0
-0.0033912659 0.075378418 -0.37939453 0 0 0 0
-0.0022125244 0.075378418 -0.37939453 0 0 0 0
-0.001033783 0.075378418 -0.37939453 0 0 0 0
0.00014483929 0.075378418 -0.37939453 0 0 0 0
0.0013237 0.075378418 -0.37939453 0 0 0 0
0.0025024414 0.075378418 -0.37939453 0 0 0 0
0.0036811829 0.075378418 -0.37939453 0 0 0 0
0.0048599243 0.075378418 -0.37939453 0 0 0 0
0.0060539246 0.075561523 -0.38037109 0 0 0 0
0.0072364807 0.075561523 -0.38037109 0 0 0 0
0.0084381104 0.075805664 -0.38134766 0 0 0 0
0.0096511841 0.07598877 -0.38232422 0 0 0 0
0.010864258 0.076171875 -0.38330078 0 0 0 0
0.012084961 0.07635498 -0.38427734 0 0 0 0
0.013320923 0.076599121 -0.38549805 0 0 0 0
0.014556885 0.076782227 -0.38647461 0 0 0 0
0.015792847 0.076965332 -0.38745117 0 0 0 0
0.016998291 0.076965332 -0.38745117 0 0 0 0
0.018249512 0.077148438 -0.38842773 0 0 0 0
0.019454956 0.077148438 -0.38842773 0 0 0 0
0.0206604 0.077148438 -0.38842773 0 0 0 0
0.021865845 0.077148438 -0.38842773 0 0 0 0
0.023010254 0.076965332 -0.38745117 0 0 0 0
0.024215698 0.076965332 -0.38745117 0 0 0 0
0.025360107 0.076782227 -0.38647461 0 0 0 0
0.026489258 0.076599121 -0.38549805 0 0 0 0
0.027679443 0.076599121 -0.38549805 0 0 0 0
0.028808594 0.07635498 -0.38427734 0 0 0 0
0.029998779 0.07635498 -0.38427734 0 0 0 0
