ply
format ascii 1.0
comment PCL generated
element vertex 1048
property float x
property float y
property float z
property float nx
property float ny
property float nz
property float curvature
element face 0
element camera 0
property float view_px
property float view_py
property float view_pz
property float x_axisx
property float x_axisy
property float x_axisz
property float y_axisx
property float y_axisy
property float y_axisz
property float z_axisx
property float z_axisy
property float z_axisz
property float focal
property float scalex
property float scaley
property float centerx
property float centery
property int viewportx
property int viewporty
property float k1
property float k2
end_header
0.10943604 -0.036132812 -0.31420898 0 0 0 0
0.1104126 -0.036132812 -0.31420898 0 0 0 0
0.11138916 -0.036132812 -0.31420898 0 0 0 0
0.11236572 -0.036132812 -0.31420898 0 0 0 0
0.11334229 -0.036132812 -0.31420898 0 0 0 0
-0.017471313 -0.041870117 -0.35424805 0 0 0 0
-0.016372681 -0.041870117 -0.35424805 0 0 0 0
-0.015319824 -0.041992188 -0.35522461 0 0 0 0
-0.014175415 -0.041870117 -0.35424805 0 0 0 0
-0.013076782 -0.041870117 -0.35424805 0 0 0 0
-0.011940002 -0.041748047 -0.35327148 0 0 0 0
-0.01084137 -0.041748047 -0.35327148 0 0 0 0
-0.0097122192 -0.041625977 -0.35229492 0 0 0 0
-0.0086212158 -0.041625977 -0.35229492 0 0 0 0
-0.0075263977 -0.041625977 -0.35229492 0 0 0 0
-0.0064315796 -0.041625977 -0.35229492 0 0 0 0
-0.0053215027 -0.041503906 -0.35131836 0 0 0 0
-0.0042304993 -0.041503906 -0.35131836 0 0 0 0
-0.0031394958 -0.041503906 -0.35131836 0 0 0 0
-0.0020427704 -0.041381836 -0.3503418 0 0 0 0
-0.00095462799 -0.041381836 -0.3503418 0 0 0 0
0.00013363361 -0.041381836 -0.3503418 0 0 0 0
0.0012216568 -0.041381836 -0.3503418 0 0 0 0
0.0023040771 -0.041259766 -0.34912109 0 0 0 0
0.0033893585 -0.041259766 -0.34912109 0 0 0 0
0.0044746399 -0.041259766 -0.34912109 0 0 0 0
0.0055580139 -0.041259766 -0.34912109 0 0 0 0
0.0066452026 -0.041259766 -0.34912109 0 0 0 0
0.0077285767 -0.041259766 -0.34912109 0 0 0 0
0.0088119507 -0.041259766 -0.34912109 0 0 0 0
0.0098953247 -0.041259766 -0.34912109 0 0 0 0
0.010986328 -0.041259766 -0.34912109 0 0 0 0
0.012069702 -0.041259766 -0.34912109 0 0 0 0
0.013153076 -0.041259766 -0.34912109 0 0 0 0
0.01423645 -0.041259766 -0.34912109 0 0 0 0
0.015327454 -0.041259766 -0.34912109 0 0 0 0
0.016448975 -0.041381836 -0.3503418 0 0 0 0
0.017547607 -0.041381836 -0.3503418 0 0 0 0
0.018630981 -0.041381836 -0.3503418 0 0 0 0
0.019714355 -0.041381836 -0.3503418 0 0 0 0
0.020874023 -0.041503906 -0.35131836 0 0 0 0
0.021957397 -0.041503906 -0.35131836 0 0 0 0
0.023117065 -0.041625977 -0.35229492 0 0 0 0
0.024215698 -0.041625977 -0.35229492 0 0 0 0
0.025375366 -0.041748047 -0.35327148 0 0 0 0
0.026473999 -0.041748047 -0.35327148 0 0 0 0
0.027648926 -0.041870117 -0.35424805 0 0 0 0
0.028747559 -0.041870117 -0.35424805 0 0 0 0
0.029937744 -0.041992188 -0.35522461 0 0 0 0
0.03112793 -0.042114258 -0.35620117 0 0 0 0
0.032318115 -0.042236328 -0.35717773 0 0 0 0
0.033538818 -0.042327881 -0.35839844 0 0 0 0
0.034729004 -0.042449951 -0.359375 0 0 0 0
0.035858154 -0.042449951 -0.359375 0 0 0 0
0.037078857 -0.042572021 -0.36035156 0 0 0 0
0.038208008 -0.042572021 -0.36035156 0 0 0 0
0.039428711 -0.042694092 -0.36132812 0 0 0 0
0.063720703 -0.037231445 -0.31518555 0 0 0 0
0.064758301 -0.037231445 -0.31518555 0 0 0 0
0.065490723 -0.037109375 -0.31420898 0 0 0 0
0.066467285 -0.037109375 -0.31420898 0 0 0 0
0.067443848 -0.037109375 -0.31420898 0 0 0 0
0.06842041 -0.037109375 -0.31420898 0 0 0 0
0.069396973 -0.037109375 -0.31420898 0 0 0 0
0.070373535 -0.037109375 -0.31420898 0 0 0 0
0.071350098 -0.037109375 -0.31420898 0 0 0 0
0.07232666 -0.037109375 -0.31420898 0 0 0 0
0.073303223 -0.037109375 -0.31420898 0 0 0 0
0.074279785 -0.037109375 -0.31420898 0 0 0 0
0.075256348 -0.037109375 -0.31420898 0 0 0 0
0.07623291 -0.037109375 -0.31420898 0 0 0 0
0.077209473 -0.037109375 -0.31420898 0 0 0 0
0.078186035 -0.037109375 -0.31420898 0 0 0 0
0.079162598 -0.037109375 -0.31420898 0 0 0 0
0.08013916 -0.037109375 -0.31420898 0 0 0 0
0.081115723 -0.037109375 -0.31420898 0 0 0 0
0.082092285 -0.037109375 -0.31420898 0 0 0 0
0.083068848 -0.037109375 -0.31420898 0 0 0 0
0.08404541 -0.037109375 -0.31420898 0 0 0 0
0.085021973 -0.037109375 -0.31420898 0 0 0 0
0.085998535 -0.037109375 -0.31420898 0 0 0 0
0.086669922 -0.037017822 -0.31298828 0 0 0 0
0.087646484 -0.037017822 -0.31298828 0 0 0 0
0.088623047 -0.037017822 -0.31298828 0 0 0 0
0.089599609 -0.037017822 -0.31298828 0 0 0 0
0.090576172 -0.037017822 -0.31298828 0 0 0 0
0.091552734 -0.037017822 -0.31298828 0 0 0 0
0.092529297 -0.037017822 -0.31298828 0 0 0 0
0.093505859 -0.037017822 -0.31298828 0 0 0 0
0.094482422 -0.037017822 -0.31298828 0 0 0 0
0.095458984 -0.037017822 -0.31298828 0 0 0 0
0.096435547 -0.037017822 -0.31298828 0 0 0 0
0.097412109 -0.037017822 -0.31298828 0 0 0 0
0.098388672 -0.037017822 -0.31298828 0 0 0 0
0.099365234 -0.037017822 -0.31298828 0 0 0 0
0.1003418 -0.037017822 -0.31298828 0 0 0 0
0.10131836 -0.037017822 -0.31298828 0 0 0 0
0.10229492 -0.037017822 -0.31298828 0 0 0 0
0.10327148 -0.037017822 -0.31298828 0 0 0 0
0.10455322 -0.037109375 -0.31420898 0 0 0 0
0.10552979 -0.037109375 -0.31420898 0 0 0 0
0.10650635 -0.037109375 -0.31420898 0 0 0 0
0.10748291 -0.037109375 -0.31420898 0 0 0 0
0.10845947 -0.037109375 -0.31420898 0 0 0 0
0.10943604 -0.037109375 -0.31420898 0 0 0 0
0.1104126 -0.037109375 -0.31420898 0 0 0 0
0.11138916 -0.037109375 -0.31420898 0 0 0 0
0.11236572 -0.037109375 -0.31420898 0 0 0 0
0.1137085 -0.037231445 -0.31518555 0 0 0 0
0.11468506 -0.037231445 -0.31518555 0 0 0 0
-0.018569946 -0.04296875 -0.35424805 0 0 0 0
-0.017471313 -0.04296875 -0.35424805 0 0 0 0
-0.016372681 -0.04296875 -0.35424805 0 0 0 0
-0.015274048 -0.04296875 -0.35424805 0 0 0 0
-0.014175415 -0.04296875 -0.35424805 0 0 0 0
-0.013038635 -0.04284668 -0.35327148 0 0 0 0
-0.011940002 -0.04284668 -0.35327148 0 0 0 0
-0.01084137 -0.04284668 -0.35327148 0 0 0 0
-0.0097122192 -0.042724609 -0.35229492 0 0 0 0
-0.0086212158 -0.042724609 -0.35229492 0 0 0 0
-0.0075263977 -0.042724609 -0.35229492 0 0 0 0
-0.0064125061 -0.042602539 -0.35131836 0 0 0 0
-0.0053215027 -0.042602539 -0.35131836 0 0 0 0
-0.0042304993 -0.042602539 -0.35131836 0 0 0 0
-0.0031394958 -0.042602539 -0.35131836 0 0 0 0
-0.0020427704 -0.042480469 -0.3503418 0 0 0 0
-0.00095462799 -0.042480469 -0.3503418 0 0 0 0
0.00013363361 -0.042480469 -0.3503418 0 0 0 0
0.0012178421 -0.042358398 -0.34912109 0 0 0 0
0.0023040771 -0.042358398 -0.34912109 0 0 0 0
0.0033893585 -0.042358398 -0.34912109 0 0 0 0
0.0044746399 -0.042358398 -0.34912109 0 0 0 0
0.0055580139 -0.042358398 -0.34912109 0 0 0 0
0.0066452026 -0.042358398 -0.34912109 0 0 0 0
0.0077285767 -0.042358398 -0.34912109 0 0 0 0
0.0088119507 -0.042358398 -0.34912109 0 0 0 0
0.0098953247 -0.042358398 -0.34912109 0 0 0 0
0.010986328 -0.042358398 -0.34912109 0 0 0 0
0.012069702 -0.042358398 -0.34912109 0 0 0 0
0.013153076 -0.042358398 -0.34912109 0 0 0 0
0.01423645 -0.042358398 -0.34912109 0 0 0 0
0.01537323 -0.042480469 -0.3503418 0 0 0 0
0.016448975 -0.042480469 -0.3503418 0 0 0 0
0.017547607 -0.042480469 -0.3503418 0 0 0 0
0.018630981 -0.042480469 -0.3503418 0 0 0 0
0.019775391 -0.042602539 -0.35131836 0 0 0 0
0.020874023 -0.042602539 -0.35131836 0 0 0 0
0.021957397 -0.042602539 -0.35131836 0 0 0 0
0.023117065 -0.042724609 -0.35229492 0 0 0 0
0.024215698 -0.042724609 -0.35229492 0 0 0 0
0.025375366 -0.04284668 -0.35327148 0 0 0 0
0.026550293 -0.04296875 -0.35424805 0 0 0 0
0.027648926 -0.04296875 -0.35424805 0 0 0 0
0.028839111 -0.04309082 -0.35522461 0 0 0 0
0.030029297 -0.043212891 -0.35620117 0 0 0 0
0.031219482 -0.043334961 -0.35717773 0 0 0 0
0.032318115 -0.043334961 -0.35717773 0 0 0 0
0.033538818 -0.043457031 -0.35839844 0 0 0 0
0.034729004 -0.043579102 -0.359375 0 0 0 0
0.035949707 -0.043701172 -0.36035156 0 0 0 0
0.037078857 -0.043701172 -0.36035156 0 0 0 0
0.038299561 -0.043823242 -0.36132812 0 0 0 0
0.063964844 -0.038330078 -0.31616211 0 0 0 0
0.064758301 -0.038208008 -0.31518555 0 0 0 0
0.065490723 -0.038085938 -0.31420898 0 0 0 0
0.066467285 -0.038085938 -0.31420898 0 0 0 0
0.067443848 -0.038085938 -0.31420898 0 0 0 0
0.06842041 -0.038085938 -0.31420898 0 0 0 0
0.069396973 -0.038085938 -0.31420898 0 0 0 0
0.070373535 -0.038085938 -0.31420898 0 0 0 0
0.071350098 -0.038085938 -0.31420898 0 0 0 0
0.07232666 -0.038085938 -0.31420898 0 0 0 0
0.073059082 -0.037963867 -0.31298828 0 0 0 0
0.074035645 -0.037963867 -0.31298828 0 0 0 0
0.075012207 -0.037963867 -0.31298828 0 0 0 0
0.07598877 -0.037963867 -0.31298828 0 0 0 0
0.076965332 -0.037963867 -0.31298828 0 0 0 0
0.078186035 -0.038085938 -0.31420898 0 0 0 0
0.079162598 -0.038085938 -0.31420898 0 0 0 0
0.08013916 -0.038085938 -0.31420898 0 0 0 0
0.081115723 -0.038085938 -0.31420898 0 0 0 0
0.082092285 -0.038085938 -0.31420898 0 0 0 0
0.083068848 -0.038085938 -0.31420898 0 0 0 0
0.08404541 -0.038085938 -0.31420898 0 0 0 0
0.085021973 -0.038085938 -0.31420898 0 0 0 0
0.085754395 -0.037963867 -0.31298828 0 0 0 0
0.086669922 -0.037963867 -0.31298828 0 0 0 0
0.087646484 -0.037963867 -0.31298828 0 0 0 0
0.088623047 -0.037963867 -0.31298828 0 0 0 0
0.089599609 -0.037963867 -0.31298828 0 0 0 0
0.090576172 -0.037963867 -0.31298828 0 0 0 0
0.091552734 -0.037963867 -0.31298828 0 0 0 0
0.092529297 -0.037963867 -0.31298828 0 0 0 0
0.093505859 -0.037963867 -0.31298828 0 0 0 0
0.094482422 -0.037963867 -0.31298828 0 0 0 0
0.095458984 -0.037963867 -0.31298828 0 0 0 0
0.096435547 -0.037963867 -0.31298828 0 0 0 0
0.097412109 -0.037963867 -0.31298828 0 0 0 0
0.098388672 -0.037963867 -0.31298828 0 0 0 0
0.099365234 -0.037963867 -0.31298828 0 0 0 0
0.1003418 -0.037963867 -0.31298828 0 0 0 0
0.10131836 -0.037963867 -0.31298828 0 0 0 0
0.10229492 -0.037963867 -0.31298828 0 0 0 0
0.10327148 -0.037963867 -0.31298828 0 0 0 0
0.10418701 -0.037963867 -0.31298828 0 0 0 0
0.10552979 -0.038085938 -0.31420898 0 0 0 0
0.10650635 -0.038085938 -0.31420898 0 0 0 0
0.10748291 -0.038085938 -0.31420898 0 0 0 0
0.10845947 -0.038085938 -0.31420898 0 0 0 0
0.10943604 -0.038085938 -0.31420898 0 0 0 0
0.1104126 -0.038085938 -0.31420898 0 0 0 0
0.11138916 -0.038085938 -0.31420898 0 0 0 0
0.11236572 -0.038085938 -0.31420898 0 0 0 0
0.1137085 -0.038208008 -0.31518555 0 0 0 0
0.11468506 -0.038208008 -0.31518555 0 0 0 0
-0.019729614 -0.044189453 -0.35522461 0 0 0 0
-0.018569946 -0.044067383 -0.35424805 0 0 0 0
-0.017471313 -0.044067383 -0.35424805 0 0 0 0
-0.016372681 -0.044067383 -0.35424805 0 0 0 0
-0.015274048 -0.044067383 -0.35424805 0 0 0 0
-0.014137268 -0.043945312 -0.35327148 0 0 0 0
-0.013038635 -0.043945312 -0.35327148 0 0 0 0
-0.011940002 -0.043945312 -0.35327148 0 0 0 0
-0.010810852 -0.043823242 -0.35229492 0 0 0 0
-0.0097122192 -0.043823242 -0.35229492 0 0 0 0
-0.0086212158 -0.043823242 -0.35229492 0 0 0 0
-0.0075073242 -0.043701172 -0.35131836 0 0 0 0
-0.0064125061 -0.043701172 -0.35131836 0 0 0 0
-0.0053215027 -0.043701172 -0.35131836 0 0 0 0
-0.0042304993 -0.043701172 -0.35131836 0 0 0 0
-0.0031299591 -0.043579102 -0.3503418 0 0 0 0
-0.0020427704 -0.043579102 -0.3503418 0 0 0 0
-0.00095462799 -0.043579102 -0.3503418 0 0 0 0
0.00013327599 -0.043457031 -0.34912109 0 0 0 0
0.0012178421 -0.043457031 -0.34912109 0 0 0 0
0.0023040771 -0.043457031 -0.34912109 0 0 0 0
0.0033893585 -0.043457031 -0.34912109 0 0 0 0
0.0044746399 -0.043457031 -0.34912109 0 0 0 0
0.0055580139 -0.043457031 -0.34912109 0 0 0 0
0.0066452026 -0.043457031 -0.34912109 0 0 0 0
0.0077285767 -0.043457031 -0.34912109 0 0 0 0
0.0088119507 -0.043457031 -0.34912109 0 0 0 0
0.0098953247 -0.043457031 -0.34912109 0 0 0 0
0.010986328 -0.043457031 -0.34912109 0 0 0 0
0.012069702 -0.043457031 -0.34912109 0 0 0 0
0.013153076 -0.043457031 -0.34912109 0 0 0 0
0.014282227 -0.043579102 -0.3503418 0 0 0 0
0.01537323 -0.043579102 -0.3503418 0 0 0 0
0.016448975 -0.043579102 -0.3503418 0 0 0 0
0.017547607 -0.043579102 -0.3503418 0 0 0 0
0.018630981 -0.043579102 -0.3503418 0 0 0 0
0.019775391 -0.043701172 -0.35131836 0 0 0 0
0.020874023 -0.043701172 -0.35131836 0 0 0 0
0.022018433 -0.043823242 -0.35229492 0 0 0 0
0.023117065 -0.043823242 -0.35229492 0 0 0 0
0.024276733 -0.043945312 -0.35327148 0 0 0 0
0.02545166 -0.044067383 -0.35424805 0 0 0 0
0.026550293 -0.044067383 -0.35424805 0 0 0 0
0.02772522 -0.044189453 -0.35522461 0 0 0 0
0.028915405 -0.044311523 -0.35620117 0 0 0 0
0.030029297 -0.044311523 -0.35620117 0 0 0 0
0.031219482 -0.044433594 -0.35717773 0 0 0 0
0.032409668 -0.044555664 -0.35839844 0 0 0 0
0.033630371 -0.044708252 -0.359375 0 0 0 0
0.034729004 -0.044708252 -0.359375 0 0 0 0
0.035949707 -0.044830322 -0.36035156 0 0 0 0
0.037078857 -0.044830322 -0.36035156 0 0 0 0
0.064758301 -0.03918457 -0.31518555 0 0 0 0
0.065490723 -0.0390625 -0.31420898 0 0 0 0
0.066467285 -0.0390625 -0.31420898 0 0 0 0
0.067443848 -0.0390625 -0.31420898 0 0 0 0
0.06842041 -0.0390625 -0.31420898 0 0 0 0
0.069396973 -0.0390625 -0.31420898 0 0 0 0
0.070373535 -0.0390625 -0.31420898 0 0 0 0
0.071105957 -0.03894043 -0.31298828 0 0 0 0
0.07208252 -0.03894043 -0.31298828 0 0 0 0
0.073059082 -0.03894043 -0.31298828 0 0 0 0
0.074035645 -0.03894043 -0.31298828 0 0 0 0
0.075012207 -0.03894043 -0.31298828 0 0 0 0
0.07598877 -0.03894043 -0.31298828 0 0 0 0
0.076965332 -0.03894043 -0.31298828 0 0 0 0
0.077941895 -0.03894043 -0.31298828 0 0 0 0
0.078918457 -0.03894043 -0.31298828 0 0 0 0
0.07989502 -0.03894043 -0.31298828 0 0 0 0
0.080871582 -0.03894043 -0.31298828 0 0 0 0
0.081848145 -0.03894043 -0.31298828 0 0 0 0
0.082824707 -0.03894043 -0.31298828 0 0 0 0
0.08380127 -0.03894043 -0.31298828 0 0 0 0
0.084777832 -0.03894043 -0.31298828 0 0 0 0
0.085754395 -0.03894043 -0.31298828 0 0 0 0
0.086669922 -0.03894043 -0.31298828 0 0 0 0
0.087646484 -0.03894043 -0.31298828 0 0 0 0
0.088623047 -0.03894043 -0.31298828 0 0 0 0
0.089599609 -0.03894043 -0.31298828 0 0 0 0
0.090576172 -0.03894043 -0.31298828 0 0 0 0
0.091552734 -0.03894043 -0.31298828 0 0 0 0
0.092529297 -0.03894043 -0.31298828 0 0 0 0
0.093505859 -0.03894043 -0.31298828 0 0 0 0
0.094482422 -0.03894043 -0.31298828 0 0 0 0
0.095458984 -0.03894043 -0.31298828 0 0 0 0
0.096435547 -0.03894043 -0.31298828 0 0 0 0
0.097412109 -0.03894043 -0.31298828 0 0 0 0
0.098388672 -0.03894043 -0.31298828 0 0 0 0
0.099365234 -0.03894043 -0.31298828 0 0 0 0
0.1003418 -0.03894043 -0.31298828 0 0 0 0
0.10131836 -0.03894043 -0.31298828 0 0 0 0
0.10229492 -0.03894043 -0.31298828 0 0 0 0
0.10327148 -0.03894043 -0.31298828 0 0 0 0
0.10418701 -0.03894043 -0.31298828 0 0 0 0
0.10516357 -0.03894043 -0.31298828 0 0 0 0
0.10650635 -0.0390625 -0.31420898 0 0 0 0
0.10748291 -0.0390625 -0.31420898 0 0 0 0
0.10845947 -0.0390625 -0.31420898 0 0 0 0
0.10943604 -0.0390625 -0.31420898 0 0 0 0
0.1104126 -0.0390625 -0.31420898 0 0 0 0
0.11138916 -0.0390625 -0.31420898 0 0 0 0
0.11236572 -0.0390625 -0.31420898 0 0 0 0
0.1137085 -0.03918457 -0.31518555 0 0 0 0
0.11468506 -0.03918457 -0.31518555 0 0 0 0
-0.024627686 -0.046203613 -0.36230469 0 0 0 0
-0.0234375 -0.046081543 -0.36132812 0 0 0 0
-0.021011353 -0.045684814 -0.35839844 0 0 0 0
-0.019729614 -0.045288086 -0.35522461 0 0 0 0
-0.018569946 -0.045166016 -0.35424805 0 0 0 0
-0.017471313 -0.045166016 -0.35424805 0 0 0 0
-0.016372681 -0.045166016 -0.35424805 0 0 0 0
-0.015228271 -0.045043945 -0.35327148 0 0 0 0
-0.014137268 -0.045043945 -0.35327148 0 0 0 0
-0.013038635 -0.045043945 -0.35327148 0 0 0 0
-0.011901855 -0.044921875 -0.35229492 0 0 0 0
-0.010810852 -0.044921875 -0.35229492 0 0 0 0
-0.0096893311 -0.044799805 -0.35131836 0 0 0 0
-0.0085983276 -0.044799805 -0.35131836 0 0 0 0
-0.0075073242 -0.044799805 -0.35131836 0 0 0 0
-0.0064125061 -0.044799805 -0.35131836 0 0 0 0
-0.0053062439 -0.044647217 -0.3503418 0 0 0 0
-0.0042190552 -0.044647217 -0.3503418 0 0 0 0
-0.0031299591 -0.044647217 -0.3503418 0 0 0 0
-0.0020427704 -0.044647217 -0.3503418 0 0 0 0
-0.00095176697 -0.044525146 -0.34912109 0 0 0 0
0.00013327599 -0.044525146 -0.34912109 0 0 0 0
0.0012178421 -0.044525146 -0.34912109 0 0 0 0
0.0023040771 -0.044525146 -0.34912109 0 0 0 0
0.0033893585 -0.044525146 -0.34912109 0 0 0 0
0.0044746399 -0.044525146 -0.34912109 0 0 0 0
0.0055580139 -0.044525146 -0.34912109 0 0 0 0
0.0066452026 -0.044525146 -0.34912109 0 0 0 0
0.0077285767 -0.044525146 -0.34912109 0 0 0 0
0.0088119507 -0.044525146 -0.34912109 0 0 0 0
0.0098953247 -0.044525146 -0.34912109 0 0 0 0
0.010986328 -0.044525146 -0.34912109 0 0 0 0
0.012069702 -0.044525146 -0.34912109 0 0 0 0
0.013191223 -0.044647217 -0.3503418 0 0 0 0
0.014282227 -0.044647217 -0.3503418 0 0 0 0
0.01537323 -0.044647217 -0.3503418 0 0 0 0
0.016448975 -0.044647217 -0.3503418 0 0 0 0
0.017547607 -0.044647217 -0.3503418 0 0 0 0
0.018692017 -0.044799805 -0.35131836 0 0 0 0
0.019775391 -0.044799805 -0.35131836 0 0 0 0
0.020874023 -0.044799805 -0.35131836 0 0 0 0
0.022018433 -0.044921875 -0.35229492 0 0 0 0
0.023178101 -0.045043945 -0.35327148 0 0 0 0
0.024276733 -0.045043945 -0.35327148 0 0 0 0
0.02545166 -0.045166016 -0.35424805 0 0 0 0
0.026626587 -0.045288086 -0.35522461 0 0 0 0
0.02772522 -0.045288086 -0.35522461 0 0 0 0
0.028915405 -0.045440674 -0.35620117 0 0 0 0
0.030105591 -0.045562744 -0.35717773 0 0 0 0
0.031311035 -0.045684814 -0.35839844 0 0 0 0
0.032409668 -0.045684814 -0.35839844 0 0 0 0
0.033630371 -0.045806885 -0.359375 0 0 0 0
0.034729004 -0.045806885 -0.359375 0 0 0 0
0.035949707 -0.045928955 -0.36035156 0 0 0 0
0.065490723 -0.040039062 -0.31420898 0 0 0 0
0.066467285 -0.040039062 -0.31420898 0 0 0 0
0.067443848 -0.040039062 -0.31420898 0 0 0 0
0.06842041 -0.040039062 -0.31420898 0 0 0 0
0.069152832 -0.039916992 -0.31298828 0 0 0 0
0.070129395 -0.039916992 -0.31298828 0 0 0 0
0.071105957 -0.039916992 -0.31298828 0 0 0 0
0.07208252 -0.039916992 -0.31298828 0 0 0 0
0.073059082 -0.039916992 -0.31298828 0 0 0 0
0.074035645 -0.039916992 -0.31298828 0 0 0 0
0.075012207 -0.039916992 -0.31298828 0 0 0 0
0.07598877 -0.039916992 -0.31298828 0 0 0 0
0.076965332 -0.039916992 -0.31298828 0 0 0 0
0.077941895 -0.039916992 -0.31298828 0 0 0 0
0.078918457 -0.039916992 -0.31298828 0 0 0 0
0.07989502 -0.039916992 -0.31298828 0 0 0 0
0.080871582 -0.039916992 -0.31298828 0 0 0 0
0.081848145 -0.039916992 -0.31298828 0 0 0 0
0.082824707 -0.039916992 -0.31298828 0 0 0 0
0.08380127 -0.039916992 -0.31298828 0 0 0 0
0.084777832 -0.039916992 -0.31298828 0 0 0 0
0.085754395 -0.039916992 -0.31298828 0 0 0 0
0.086669922 -0.039916992 -0.31298828 0 0 0 0
0.087646484 -0.039916992 -0.31298828 0 0 0 0
0.088623047 -0.039916992 -0.31298828 0 0 0 0
0.089599609 -0.039916992 -0.31298828 0 0 0 0
0.090576172 -0.039916992 -0.31298828 0 0 0 0
0.091552734 -0.039916992 -0.31298828 0 0 0 0
0.092529297 -0.039916992 -0.31298828 0 0 0 0
0.093505859 -0.039916992 -0.31298828 0 0 0 0
0.094482422 -0.039916992 -0.31298828 0 0 0 0
0.095458984 -0.039916992 -0.31298828 0 0 0 0
0.096435547 -0.039916992 -0.31298828 0 0 0 0
0.097412109 -0.039916992 -0.31298828 0 0 0 0
0.098388672 -0.039916992 -0.31298828 0 0 0 0
0.099365234 -0.039916992 -0.31298828 0 0 0 0
0.1003418 -0.039916992 -0.31298828 0 0 0 0
0.10131836 -0.039916992 -0.31298828 0 0 0 0
0.10229492 -0.039916992 -0.31298828 0 0 0 0
0.10327148 -0.039916992 -0.31298828 0 0 0 0
0.10418701 -0.039916992 -0.31298828 0 0 0 0
0.10516357 -0.039916992 -0.31298828 0 0 0 0
0.10614014 -0.039916992 -0.31298828 0 0 0 0
0.10748291 -0.040039062 -0.31420898 0 0 0 0
0.10845947 -0.040039062 -0.31420898 0 0 0 0
0.10943604 -0.040039062 -0.31420898 0 0 0 0
0.1104126 -0.040039062 -0.31420898 0 0 0 0
0.11138916 -0.040039062 -0.31420898 0 0 0 0
0.11236572 -0.040039062 -0.31420898 0 0 0 0
0.1137085 -0.04019165 -0.31518555 0 0 0 0
0.11468506 -0.04019165 -0.31518555 0 0 0 0
-0.024551392 -0.047180176 -0.36132812 0 0 0 0
-0.023376465 -0.047058105 -0.36035156 0 0 0 0
-0.022125244 -0.046783447 -0.35839844 0 0 0 0
-0.020950317 -0.046661377 -0.35717773 0 0 0 0
-0.019729614 -0.046417236 -0.35522461 0 0 0 0
-0.018569946 -0.046264648 -0.35424805 0 0 0 0
-0.017471313 -0.046264648 -0.35424805 0 0 0 0
-0.016372681 -0.046264648 -0.35424805 0 0 0 0
-0.015228271 -0.046142578 -0.35327148 0 0 0 0
-0.014137268 -0.046142578 -0.35327148 0 0 0 0
-0.013000488 -0.046020508 -0.35229492 0 0 0 0
-0.011901855 -0.046020508 -0.35229492 0 0 0 0
-0.010780334 -0.04586792 -0.35131836 0 0 0 0
-0.0096893311 -0.04586792 -0.35131836 0 0 0 0
-0.0085983276 -0.04586792 -0.35131836 0 0 0 0
-0.007484436 -0.04574585 -0.3503418 0 0 0 0
-0.0063972473 -0.04574585 -0.3503418 0 0 0 0
-0.0053062439 -0.04574585 -0.3503418 0 0 0 0
-0.0042190552 -0.04574585 -0.3503418 0 0 0 0
-0.0031223297 -0.045623779 -0.34912109 0 0 0 0
-0.0020370483 -0.045623779 -0.34912109 0 0 0 0
-0.00095176697 -0.045623779 -0.34912109 0 0 0 0
0.00013327599 -0.045623779 -0.34912109 0 0 0 0
0.0012178421 -0.045623779 -0.34912109 0 0 0 0
0.0023040771 -0.045623779 -0.34912109 0 0 0 0
0.0033798218 -0.045471191 -0.34814453 0 0 0 0
0.0044593811 -0.045471191 -0.34814453 0 0 0 0
0.0055427551 -0.045471191 -0.34814453 0 0 0 0
0.0066452026 -0.045623779 -0.34912109 0 0 0 0
0.0077285767 -0.045623779 -0.34912109 0 0 0 0
0.0088119507 -0.045623779 -0.34912109 0 0 0 0
0.0098953247 -0.045623779 -0.34912109 0 0 0 0
0.010986328 -0.045623779 -0.34912109 0 0 0 0
0.012069702 -0.045623779 -0.34912109 0 0 0 0
0.013191223 -0.04574585 -0.3503418 0 0 0 0
0.014282227 -0.04574585 -0.3503418 0 0 0 0
0.01537323 -0.04574585 -0.3503418 0 0 0 0
0.016448975 -0.04574585 -0.3503418 0 0 0 0
0.017593384 -0.04586792 -0.35131836 0 0 0 0
0.018692017 -0.04586792 -0.35131836 0 0 0 0
0.019775391 -0.04586792 -0.35131836 0 0 0 0
0.020935059 -0.046020508 -0.35229492 0 0 0 0
0.022018433 -0.046020508 -0.35229492 0 0 0 0
0.023178101 -0.046142578 -0.35327148 0 0 0 0
0.024353027 -0.046264648 -0.35424805 0 0 0 0
0.02545166 -0.046264648 -0.35424805 0 0 0 0
0.026626587 -0.046417236 -0.35522461 0 0 0 0
0.027816772 -0.046539307 -0.35620117 0 0 0 0
0.028991699 -0.046661377 -0.35717773 0 0 0 0
0.030105591 -0.046661377 -0.35717773 0 0 0 0
0.031311035 -0.046783447 -0.35839844 0 0 0 0
0.032409668 -0.046783447 -0.35839844 0 0 0 0
0.033630371 -0.046936035 -0.359375 0 0 0 0
0.034729004 -0.046936035 -0.359375 0 0 0 0
0.064758301 -0.041168213 -0.31518555 0 0 0 0
0.065490723 -0.041015625 -0.31420898 0 0 0 0
0.066467285 -0.041015625 -0.31420898 0 0 0 0
0.067443848 -0.041015625 -0.31420898 0 0 0 0
0.06842041 -0.041015625 -0.31420898 0 0 0 0
0.069152832 -0.040893555 -0.31298828 0 0 0 0
0.070129395 -0.040893555 -0.31298828 0 0 0 0
0.071105957 -0.040893555 -0.31298828 0 0 0 0
0.07208252 -0.040893555 -0.31298828 0 0 0 0
0.073059082 -0.040893555 -0.31298828 0 0 0 0
0.074035645 -0.040893555 -0.31298828 0 0 0 0
0.075012207 -0.040893555 -0.31298828 0 0 0 0
0.07598877 -0.040893555 -0.31298828 0 0 0 0
0.076965332 -0.040893555 -0.31298828 0 0 0 0
0.077941895 -0.040893555 -0.31298828 0 0 0 0
0.078918457 -0.040893555 -0.31298828 0 0 0 0
0.07989502 -0.040893555 -0.31298828 0 0 0 0
0.080871582 -0.040893555 -0.31298828 0 0 0 0
0.081848145 -0.040893555 -0.31298828 0 0 0 0
0.082824707 -0.040893555 -0.31298828 0 0 0 0
0.08380127 -0.040893555 -0.31298828 0 0 0 0
0.084777832 -0.040893555 -0.31298828 0 0 0 0
0.085754395 -0.040893555 -0.31298828 0 0 0 0
0.086669922 -0.040893555 -0.31298828 0 0 0 0
0.087646484 -0.040893555 -0.31298828 0 0 0 0
0.088623047 -0.040893555 -0.31298828 0 0 0 0
0.089599609 -0.040893555 -0.31298828 0 0 0 0
0.090576172 -0.040893555 -0.31298828 0 0 0 0
0.091552734 -0.040893555 -0.31298828 0 0 0 0
0.092529297 -0.040893555 -0.31298828 0 0 0 0
0.093505859 -0.040893555 -0.31298828 0 0 0 0
0.094482422 -0.040893555 -0.31298828 0 0 0 0
0.095458984 -0.040893555 -0.31298828 0 0 0 0
0.096435547 -0.040893555 -0.31298828 0 0 0 0
0.097412109 -0.040893555 -0.31298828 0 0 0 0
0.098388672 -0.040893555 -0.31298828 0 0 0 0
0.099365234 -0.040893555 -0.31298828 0 0 0 0
0.1003418 -0.040893555 -0.31298828 0 0 0 0
0.10131836 -0.040893555 -0.31298828 0 0 0 0
0.10229492 -0.040893555 -0.31298828 0 0 0 0
0.10327148 -0.040893555 -0.31298828 0 0 0 0
0.10418701 -0.040893555 -0.31298828 0 0 0 0
0.10516357 -0.040893555 -0.31298828 0 0 0 0
0.10614014 -0.040893555 -0.31298828 0 0 0 0
0.1071167 -0.040893555 -0.31298828 0 0 0 0
0.10845947 -0.041015625 -0.31420898 0 0 0 0
0.10943604 -0.041015625 -0.31420898 0 0 0 0
0.1104126 -0.041015625 -0.31420898 0 0 0 0
0.11138916 -0.041015625 -0.31420898 0 0 0 0
0.11236572 -0.041015625 -0.31420898 0 0 0 0
0.1137085 -0.041168213 -0.31518555 0 0 0 0
0.11468506 -0.041168213 -0.31518555 0 0 0 0
-0.025604248 -0.048187256 -0.36035156 0 0 0 0
-0.024490356 -0.048187256 -0.36035156 0 0 0 0
-0.023239136 -0.047912598 -0.35839844 0 0 0 0
-0.022064209 -0.047790527 -0.35717773 0 0 0 0
-0.020889282 -0.047637939 -0.35620117 0 0 0 0
-0.019729614 -0.047515869 -0.35522461 0 0 0 0
-0.018630981 -0.047515869 -0.35522461 0 0 0 0
-0.017471313 -0.047363281 -0.35424805 0 0 0 0
-0.016372681 -0.047363281 -0.35424805 0 0 0 0
-0.015228271 -0.047241211 -0.35327148 0 0 0 0
-0.014091492 -0.047119141 -0.35229492 0 0 0 0
-0.013000488 -0.047119141 -0.35229492 0 0 0 0
-0.011901855 -0.047119141 -0.35229492 0 0 0 0
-0.010780334 -0.046966553 -0.35131836 0 0 0 0
-0.0096893311 -0.046966553 -0.35131836 0 0 0 0
-0.0085678101 -0.046844482 -0.3503418 0 0 0 0
-0.007484436 -0.046844482 -0.3503418 0 0 0 0
-0.0063972473 -0.046844482 -0.3503418 0 0 0 0
-0.0052909851 -0.046691895 -0.34912109 0 0 0 0
-0.0042076111 -0.046691895 -0.34912109 0 0 0 0
-0.0031223297 -0.046691895 -0.34912109 0 0 0 0
-0.0020370483 -0.046691895 -0.34912109 0 0 0 0
-0.00095176697 -0.046691895 -0.34912109 0 0 0 0
0.00013291836 -0.046569824 -0.34814453 0 0 0 0
0.0012149811 -0.046569824 -0.34814453 0 0 0 0
0.0022964478 -0.046569824 -0.34814453 0 0 0 0
0.0033798218 -0.046569824 -0.34814453 0 0 0 0
0.0044593811 -0.046569824 -0.34814453 0 0 0 0
0.0055427551 -0.046569824 -0.34814453 0 0 0 0
0.0066452026 -0.046691895 -0.34912109 0 0 0 0
0.0077285767 -0.046691895 -0.34912109 0 0 0 0
0.0088119507 -0.046691895 -0.34912109 0 0 0 0
0.0098953247 -0.046691895 -0.34912109 0 0 0 0
0.010986328 -0.046691895 -0.34912109 0 0 0 0
0.01210022 -0.046844482 -0.3503418 0 0 0 0
0.013191223 -0.046844482 -0.3503418 0 0 0 0
0.014282227 -0.046844482 -0.3503418 0 0 0 0
0.01537323 -0.046844482 -0.3503418 0 0 0 0
0.016494751 -0.046966553 -0.35131836 0 0 0 0
0.017593384 -0.046966553 -0.35131836 0 0 0 0
0.018692017 -0.046966553 -0.35131836 0 0 0 0
0.019836426 -0.047119141 -0.35229492 0 0 0 0
0.020935059 -0.047119141 -0.35229492 0 0 0 0
0.022079468 -0.047241211 -0.35327148 0 0 0 0
0.023178101 -0.047241211 -0.35327148 0 0 0 0
0.024353027 -0.047363281 -0.35424805 0 0 0 0
0.025527954 -0.047515869 -0.35522461 0 0 0 0
0.026626587 -0.047515869 -0.35522461 0 0 0 0
0.027816772 -0.047637939 -0.35620117 0 0 0 0
0.028991699 -0.047790527 -0.35717773 0 0 0 0
0.030197144 -0.047912598 -0.35839844 0 0 0 0
0.031311035 -0.047912598 -0.35839844 0 0 0 0
0.032501221 -0.048034668 -0.359375 0 0 0 0
0.033630371 -0.048034668 -0.359375 0 0 0 0
0.034729004 -0.048034668 -0.359375 0 0 0 0
0.066467285 -0.041992188 -0.31420898 0 0 0 0
0.067443848 -0.041992188 -0.31420898 0 0 0 0
0.068237305 -0.041870117 -0.31298828 0 0 0 0
0.069152832 -0.041870117 -0.31298828 0 0 0 0
0.070129395 -0.041870117 -0.31298828 0 0 0 0
0.071105957 -0.041870117 -0.31298828 0 0 0 0
0.07208252 -0.041870117 -0.31298828 0 0 0 0
0.073059082 -0.041870117 -0.31298828 0 0 0 0
0.074035645 -0.041870117 -0.31298828 0 0 0 0
0.075012207 -0.041870117 -0.31298828 0 0 0 0
0.07598877 -0.041870117 -0.31298828 0 0 0 0
0.076965332 -0.041870117 -0.31298828 0 0 0 0
0.077941895 -0.041870117 -0.31298828 0 0 0 0
0.078918457 -0.041870117 -0.31298828 0 0 0 0
0.07989502 -0.041870117 -0.31298828 0 0 0 0
0.080871582 -0.041870117 -0.31298828 0 0 0 0
0.081848145 -0.041870117 -0.31298828 0 0 0 0
0.082824707 -0.041870117 -0.31298828 0 0 0 0
0.08380127 -0.041870117 -0.31298828 0 0 0 0
0.084777832 -0.041870117 -0.31298828 0 0 0 0
0.085754395 -0.041870117 -0.31298828 0 0 0 0
0.086669922 -0.041870117 -0.31298828 0 0 0 0
0.087646484 -0.041870117 -0.31298828 0 0 0 0
0.088623047 -0.041870117 -0.31298828 0 0 0 0
0.089599609 -0.041870117 -0.31298828 0 0 0 0
0.090576172 -0.041870117 -0.31298828 0 0 0 0
0.091552734 -0.041870117 -0.31298828 0 0 0 0
0.092529297 -0.041870117 -0.31298828 0 0 0 0
0.093505859 -0.041870117 -0.31298828 0 0 0 0
0.094482422 -0.041870117 -0.31298828 0 0 0 0
0.095458984 -0.041870117 -0.31298828 0 0 0 0
0.096435547 -0.041870117 -0.31298828 0 0 0 0
0.097412109 -0.041870117 -0.31298828 0 0 0 0
0.098388672 -0.041870117 -0.31298828 0 0 0 0
0.099365234 -0.041870117 -0.31298828 0 0 0 0
0.1003418 -0.041870117 -0.31298828 0 0 0 0
0.10131836 -0.041870117 -0.31298828 0 0 0 0
0.10229492 -0.041870117 -0.31298828 0 0 0 0
0.10327148 -0.041870117 -0.31298828 0 0 0 0
0.10418701 -0.041870117 -0.31298828 0 0 0 0
0.10516357 -0.041870117 -0.31298828 0 0 0 0
0.10614014 -0.041870117 -0.31298828 0 0 0 0
0.1071167 -0.041870117 -0.31298828 0 0 0 0
0.10809326 -0.041870117 -0.31298828 0 0 0 0
0.10943604 -0.041992188 -0.31420898 0 0 0 0
0.1104126 -0.041992188 -0.31420898 0 0 0 0
0.11138916 -0.041992188 -0.31420898 0 0 0 0
0.11236572 -0.041992188 -0.31420898 0 0 0 0
0.11334229 -0.041992188 -0.31420898 0 0 0 0
-0.025466919 -0.04901123 -0.35839844 0 0 0 0
-0.024353027 -0.04901123 -0.35839844 0 0 0 0
-0.023178101 -0.04888916 -0.35717773 0 0 0 0
-0.022064209 -0.04888916 -0.35717773 0 0 0 0
-0.020889282 -0.048736572 -0.35620117 0 0 0 0
-0.019729614 -0.048614502 -0.35522461 0 0 0 0
-0.018630981 -0.048614502 -0.35522461 0 0 0 0
-0.017471313 -0.048461914 -0.35424805 0 0 0 0
-0.016326904 -0.048339844 -0.35327148 0 0 0 0
-0.015228271 -0.048339844 -0.35327148 0 0 0 0
-0.014091492 -0.048187256 -0.35229492 0 0 0 0
-0.013000488 -0.048187256 -0.35229492 0 0 0 0
-0.011871338 -0.048065186 -0.35131836 0 0 0 0
-0.010780334 -0.048065186 -0.35131836 0 0 0 0
-0.0096588135 -0.047912598 -0.3503418 0 0 0 0
-0.0085678101 -0.047912598 -0.3503418 0 0 0 0
-0.007484436 -0.047912598 -0.3503418 0 0 0 0
-0.0063781738 -0.047790527 -0.34912109 0 0 0 0
-0.0052909851 -0.047790527 -0.34912109 0 0 0 0
-0.0042076111 -0.047790527 -0.34912109 0 0 0 0
-0.0031223297 -0.047790527 -0.34912109 0 0 0 0
-0.0020313263 -0.047637939 -0.34814453 0 0 0 0
-0.00094890594 -0.047637939 -0.34814453 0 0 0 0
0.00013291836 -0.047637939 -0.34814453 0 0 0 0
0.0012149811 -0.047637939 -0.34814453 0 0 0 0
0.0022964478 -0.047637939 -0.34814453 0 0 0 0
0.0033798218 -0.047637939 -0.34814453 0 0 0 0
0.0044593811 -0.047637939 -0.34814453 0 0 0 0
0.0055427551 -0.047637939 -0.34814453 0 0 0 0
0.0066452026 -0.047790527 -0.34912109 0 0 0 0
0.0077285767 -0.047790527 -0.34912109 0 0 0 0
0.0088119507 -0.047790527 -0.34912109 0 0 0 0
0.0098953247 -0.047790527 -0.34912109 0 0 0 0
0.010986328 -0.047790527 -0.34912109 0 0 0 0
0.01210022 -0.047912598 -0.3503418 0 0 0 0
0.013191223 -0.047912598 -0.3503418 0 0 0 0
0.014282227 -0.047912598 -0.3503418 0 0 0 0
0.015411377 -0.048065186 -0.35131836 0 0 0 0
0.016494751 -0.048065186 -0.35131836 0 0 0 0
0.017593384 -0.048065186 -0.35131836 0 0 0 0
0.018737793 -0.048187256 -0.35229492 0 0 0 0
0.019836426 -0.048187256 -0.35229492 0 0 0 0
0.020935059 -0.048187256 -0.35229492 0 0 0 0
0.022079468 -0.048339844 -0.35327148 0 0 0 0
0.023254395 -0.048461914 -0.35424805 0 0 0 0
0.024353027 -0.048461914 -0.35424805 0 0 0 0
0.025527954 -0.048614502 -0.35522461 0 0 0 0
0.026702881 -0.048736572 -0.35620117 0 0 0 0
0.027893066 -0.04888916 -0.35717773 0 0 0 0
0.028991699 -0.04888916 -0.35717773 0 0 0 0
0.030197144 -0.04901123 -0.35839844 0 0 0 0
0.031311035 -0.04901123 -0.35839844 0 0 0 0
0.032501221 -0.049163818 -0.359375 0 0 0 0
0.033630371 -0.049163818 -0.359375 0 0 0 0
0.067443848 -0.04296875 -0.31420898 0 0 0 0
0.068237305 -0.04284668 -0.31298828 0 0 0 0
0.069152832 -0.04284668 -0.31298828 0 0 0 0
0.070129395 -0.04284668 -0.31298828 0 0 0 0
0.071105957 -0.04284668 -0.31298828 0 0 0 0
0.07208252 -0.04284668 -0.31298828 0 0 0 0
0.073059082 -0.04284668 -0.31298828 0 0 0 0
0.074035645 -0.04284668 -0.31298828 0 0 0 0
0.075012207 -0.04284668 -0.31298828 0 0 0 0
0.07598877 -0.04284668 -0.31298828 0 0 0 0
0.076965332 -0.04284668 -0.31298828 0 0 0 0
0.077941895 -0.04284668 -0.31298828 0 0 0 0
0.078918457 -0.04284668 -0.31298828 0 0 0 0
0.07989502 -0.04284668 -0.31298828 0 0 0 0
0.080871582 -0.04284668 -0.31298828 0 0 0 0
0.081848145 -0.04284668 -0.31298828 0 0 0 0
0.082824707 -0.04284668 -0.31298828 0 0 0 0
0.08380127 -0.04284668 -0.31298828 0 0 0 0
0.084777832 -0.04284668 -0.31298828 0 0 0 0
0.085754395 -0.04284668 -0.31298828 0 0 0 0
0.086669922 -0.04284668 -0.31298828 0 0 0 0
0.087646484 -0.04284668 -0.31298828 0 0 0 0
0.088623047 -0.04284668 -0.31298828 0 0 0 0
0.089599609 -0.04284668 -0.31298828 0 0 0 0
0.090576172 -0.04284668 -0.31298828 0 0 0 0
0.10809326 -0.04284668 -0.31298828 0 0 0 0
0.10943604 -0.04296875 -0.31420898 0 0 0 0
0.1104126 -0.04296875 -0.31420898 0 0 0 0
0.11138916 -0.04296875 -0.31420898 0 0 0 0
-0.026504517 -0.049987793 -0.35717773 0 0 0 0
-0.025466919 -0.050140381 -0.35839844 0 0 0 0
-0.024276733 -0.049987793 -0.35717773 0 0 0 0
-0.023178101 -0.049987793 -0.35717773 0 0 0 0
-0.022064209 -0.049987793 -0.35717773 0 0 0 0
-0.020889282 -0.049865723 -0.35620117 0 0 0 0
-0.019729614 -0.049713135 -0.35522461 0 0 0 0
-0.018630981 -0.049713135 -0.35522461 0 0 0 0
-0.017471313 -0.049560547 -0.35424805 0 0 0 0
-0.016326904 -0.049438477 -0.35327148 0 0 0 0
-0.015228271 -0.049438477 -0.35327148 0 0 0 0
-0.014091492 -0.049285889 -0.35229492 0 0 0 0
-0.012962341 -0.049163818 -0.35131836 0 0 0 0
-0.011871338 -0.049163818 -0.35131836 0 0 0 0
-0.010749817 -0.04901123 -0.3503418 0 0 0 0
-0.0096588135 -0.04901123 -0.3503418 0 0 0 0
-0.0085449219 -0.048858643 -0.34912109 0 0 0 0
-0.0074615479 -0.048858643 -0.34912109 0 0 0 0
-0.0063781738 -0.048858643 -0.34912109 0 0 0 0
-0.0052909851 -0.048858643 -0.34912109 0 0 0 0
-0.004196167 -0.048736572 -0.34814453 0 0 0 0
-0.003112793 -0.048736572 -0.34814453 0 0 0 0
-0.0020313263 -0.048736572 -0.34814453 0 0 0 0
-0.00094890594 -0.048736572 -0.34814453 0 0 0 0
0.00013291836 -0.048736572 -0.34814453 0 0 0 0
0.0012149811 -0.048736572 -0.34814453 0 0 0 0
0.0022964478 -0.048736572 -0.34814453 0 0 0 0
0.0033798218 -0.048736572 -0.34814453 0 0 0 0
0.0044593811 -0.048736572 -0.34814453 0 0 0 0
0.0055427551 -0.048736572 -0.34814453 0 0 0 0
0.0066452026 -0.048858643 -0.34912109 0 0 0 0
0.0077285767 -0.048858643 -0.34912109 0 0 0 0
0.0088119507 -0.048858643 -0.34912109 0 0 0 0
0.0098953247 -0.048858643 -0.34912109 0 0 0 0
0.011016846 -0.04901123 -0.3503418 0 0 0 0
0.01210022 -0.04901123 -0.3503418 0 0 0 0
0.013191223 -0.04901123 -0.3503418 0 0 0 0
0.014282227 -0.04901123 -0.3503418 0 0 0 0
0.015411377 -0.049163818 -0.35131836 0 0 0 0
0.016494751 -0.049163818 -0.35131836 0 0 0 0
0.017593384 -0.049163818 -0.35131836 0 0 0 0
0.018737793 -0.049285889 -0.35229492 0 0 0 0
0.019836426 -0.049285889 -0.35229492 0 0 0 0
0.020980835 -0.049438477 -0.35327148 0 0 0 0
0.022079468 -0.049438477 -0.35327148 0 0 0 0
0.023254395 -0.049560547 -0.35424805 0 0 0 0
0.024414062 -0.049713135 -0.35522461 0 0 0 0
0.025527954 -0.049713135 -0.35522461 0 0 0 0
0.026702881 -0.049865723 -0.35620117 0 0 0 0
0.027893066 -0.049987793 -0.35717773 0 0 0 0
0.028991699 -0.049987793 -0.35717773 0 0 0 0
0.030197144 -0.050140381 -0.35839844 0 0 0 0
0.031311035 -0.050140381 -0.35839844 0 0 0 0
0.032501221 -0.050262451 -0.359375 0 0 0 0
-0.028884888 -0.051391602 -0.359375 0 0 0 0
-0.027694702 -0.051239014 -0.35839844 0 0 0 0
-0.026504517 -0.051116943 -0.35717773 0 0 0 0
-0.025390625 -0.051116943 -0.35717773 0 0 0 0
-0.024276733 -0.051116943 -0.35717773 0 0 0 0
-0.023178101 -0.051116943 -0.35717773 0 0 0 0
-0.022003174 -0.050964355 -0.35620117 0 0 0 0
-0.020889282 -0.050964355 -0.35620117 0 0 0 0
-0.019729614 -0.050811768 -0.35522461 0 0 0 0
-0.018630981 -0.050811768 -0.35522461 0 0 0 0
-0.017471313 -0.050689697 -0.35424805 0 0 0 0
-0.016326904 -0.050537109 -0.35327148 0 0 0 0
-0.015190125 -0.050384521 -0.35229492 0 0 0 0
-0.014053345 -0.050231934 -0.35131836 0 0 0 0
-0.012962341 -0.050231934 -0.35131836 0 0 0 0
-0.011833191 -0.050109863 -0.3503418 0 0 0 0
-0.010749817 -0.050109863 -0.3503418 0 0 0 0
-0.0096282959 -0.049957275 -0.34912109 0 0 0 0
-0.0085449219 -0.049957275 -0.34912109 0 0 0 0
-0.0074615479 -0.049957275 -0.34912109 0 0 0 0
-0.0063591003 -0.049804688 -0.34814453 0 0 0 0
-0.0052757263 -0.049804688 -0.34814453 0 0 0 0
-0.004196167 -0.049804688 -0.34814453 0 0 0 0
-0.003112793 -0.049804688 -0.34814453 0 0 0 0
-0.0020313263 -0.049804688 -0.34814453 0 0 0 0
-0.00094890594 -0.049804688 -0.34814453 0 0 0 0
0.00013291836 -0.049804688 -0.34814453 0 0 0 0
0.0012149811 -0.049804688 -0.34814453 0 0 0 0
0.0022964478 -0.049804688 -0.34814453 0 0 0 0
0.0033798218 -0.049804688 -0.34814453 0 0 0 0
0.0044593811 -0.049804688 -0.34814453 0 0 0 0
0.0055427551 -0.049804688 -0.34814453 0 0 0 0
0.0066452026 -0.049957275 -0.34912109 0 0 0 0
0.0077285767 -0.049957275 -0.34912109 0 0 0 0
0.0088119507 -0.049957275 -0.34912109 0 0 0 0
0.0098953247 -0.049957275 -0.34912109 0 0 0 0
0.011016846 -0.050109863 -0.3503418 0 0 0 0
0.01210022 -0.050109863 -0.3503418 0 0 0 0
0.013191223 -0.050109863 -0.3503418 0 0 0 0
0.014320374 -0.050231934 -0.35131836 0 0 0 0
0.015411377 -0.050231934 -0.35131836 0 0 0 0
0.016494751 -0.050231934 -0.35131836 0 0 0 0
0.01763916 -0.050384521 -0.35229492 0 0 0 0
0.018737793 -0.050384521 -0.35229492 0 0 0 0
0.019882202 -0.050537109 -0.35327148 0 0 0 0
0.020980835 -0.050537109 -0.35327148 0 0 0 0
0.022140503 -0.050689697 -0.35424805 0 0 0 0
0.023254395 -0.050689697 -0.35424805 0 0 0 0
0.024414062 -0.050811768 -0.35522461 0 0 0 0
0.025588989 -0.050964355 -0.35620117 0 0 0 0
0.026702881 -0.050964355 -0.35620117 0 0 0 0
0.027893066 -0.051116943 -0.35717773 0 0 0 0
0.029083252 -0.051239014 -0.35839844 0 0 0 0
0.030197144 -0.051239014 -0.35839844 0 0 0 0
0.03137207 -0.051391602 -0.359375 0 0 0 0
-0.028808594 -0.052368164 -0.35839844 0 0 0 0
-0.027694702 -0.052368164 -0.35839844 0 0 0 0
-0.026504517 -0.052215576 -0.35717773 0 0 0 0
-0.025390625 -0.052215576 -0.35717773 0 0 0 0
-0.024276733 -0.052215576 -0.35717773 0 0 0 0
-0.023178101 -0.052215576 -0.35717773 0 0 0 0
-0.022003174 -0.052062988 -0.35620117 0 0 0 0
-0.020889282 -0.052062988 -0.35620117 0 0 0 0
-0.019790649 -0.052062988 -0.35620117 0 0 0 0
-0.018630981 -0.0519104 -0.35522461 0 0 0 0
-0.017471313 -0.05178833 -0.35424805 0 0 0 0
-0.016326904 -0.051635742 -0.35327148 0 0 0 0
-0.015190125 -0.051483154 -0.35229492 0 0 0 0
-0.014053345 -0.051330566 -0.35131836 0 0 0 0
-0.012924194 -0.051177979 -0.3503418 0 0 0 0
-0.011833191 -0.051177979 -0.3503418 0 0 0 0
-0.010719299 -0.051055908 -0.34912109 0 0 0 0
-0.0096282959 -0.051055908 -0.34912109 0 0 0 0
-0.0085449219 -0.051055908 -0.34912109 0 0 0 0
-0.0074424744 -0.05090332 -0.34814453 0 0 0 0
-0.0063591003 -0.05090332 -0.34814453 0 0 0 0
-0.0052757263 -0.05090332 -0.34814453 0 0 0 0
-0.004196167 -0.05090332 -0.34814453 0 0 0 0
-0.003112793 -0.05090332 -0.34814453 0 0 0 0
-0.0020313263 -0.05090332 -0.34814453 0 0 0 0
-0.00094890594 -0.05090332 -0.34814453 0 0 0 0
0.00013291836 -0.05090332 -0.34814453 0 0 0 0
0.0012149811 -0.05090332 -0.34814453 0 0 0 0
0.0022964478 -0.05090332 -0.34814453 0 0 0 0
0.0033798218 -0.05090332 -0.34814453 0 0 0 0
0.0044593811 -0.05090332 -0.34814453 0 0 0 0
0.0055427551 -0.05090332 -0.34814453 0 0 0 0
0.0066452026 -0.051055908 -0.34912109 0 0 0 0
0.0077285767 -0.051055908 -0.34912109 0 0 0 0
0.0088119507 -0.051055908 -0.34912109 0 0 0 0
0.0099258423 -0.051177979 -0.3503418 0 0 0 0
0.011016846 -0.051177979 -0.3503418 0 0 0 0
0.01210022 -0.051177979 -0.3503418 0 0 0 0
0.01322937 -0.051330566 -0.35131836 0 0 0 0
0.014320374 -0.051330566 -0.35131836 0 0 0 0
0.015411377 -0.051330566 -0.35131836 0 0 0 0
0.016555786 -0.051483154 -0.35229492 0 0 0 0
0.01763916 -0.051483154 -0.35229492 0 0 0 0
0.018798828 -0.051635742 -0.35327148 0 0 0 0
0.019882202 -0.051635742 -0.35327148 0 0 0 0
0.02104187 -0.05178833 -0.35424805 0 0 0 0
0.022140503 -0.05178833 -0.35424805 0 0 0 0
0.02331543 -0.0519104 -0.35522461 0 0 0 0
0.024414062 -0.0519104 -0.35522461 0 0 0 0
0.025588989 -0.052062988 -0.35620117 0 0 0 0
0.026702881 -0.052062988 -0.35620117 0 0 0 0
0.027893066 -0.052215576 -0.35717773 0 0 0 0
0.029083252 -0.052368164 -0.35839844 0 0 0 0
0.030197144 -0.052368164 -0.35839844 0 0 0 0
-0.029922485 -0.053466797 -0.35839844 0 0 0 0
-0.028808594 -0.053466797 -0.35839844 0 0 0 0
-0.027618408 -0.053314209 -0.35717773 0 0 0 0
-0.026504517 -0.053314209 -0.35717773 0 0 0 0
-0.025390625 -0.053314209 -0.35717773 0 0 0 0
-0.024276733 -0.053314209 -0.35717773 0 0 0 0
-0.023178101 -0.053314209 -0.35717773 0 0 0 0
-0.022003174 -0.053192139 -0.35620117 0 0 0 0
-0.020889282 -0.053192139 -0.35620117 0 0 0 0
-0.019790649 -0.053192139 -0.35620117 0 0 0 0
-0.018630981 -0.053039551 -0.35522461 0 0 0 0
-0.017471313 -0.052886963 -0.35424805 0 0 0 0
-0.016326904 -0.052734375 -0.35327148 0 0 0 0
-0.015144348 -0.052429199 -0.35131836 0 0 0 0
-0.014015198 -0.052276611 -0.3503418 0 0 0 0
-0.012886047 -0.052124023 -0.34912109 0 0 0 0
-0.011802673 -0.052124023 -0.34912109 0 0 0 0
-0.010719299 -0.052124023 -0.34912109 0 0 0 0
-0.0096054077 -0.051971436 -0.34814453 0 0 0 0
-0.0085220337 -0.051971436 -0.34814453 0 0 0 0
-0.0074424744 -0.051971436 -0.34814453 0 0 0 0
-0.0063591003 -0.051971436 -0.34814453 0 0 0 0
-0.0052757263 -0.051971436 -0.34814453 0 0 0 0
-0.004196167 -0.051971436 -0.34814453 0 0 0 0
-0.003112793 -0.051971436 -0.34814453 0 0 0 0
-0.0020313263 -0.051971436 -0.34814453 0 0 0 0
-0.00094890594 -0.051971436 -0.34814453 0 0 0 0
0.00013291836 -0.051971436 -0.34814453 0 0 0 0
0.0012149811 -0.051971436 -0.34814453 0 0 0 0
0.0022964478 -0.051971436 -0.34814453 0 0 0 0
0.0033798218 -0.051971436 -0.34814453 0 0 0 0
0.0044593811 -0.051971436 -0.34814453 0 0 0 0
0.0055580139 -0.052124023 -0.34912109 0 0 0 0
0.0066452026 -0.052124023 -0.34912109 0 0 0 0
0.0077285767 -0.052124023 -0.34912109 0 0 0 0
0.0088119507 -0.052124023 -0.34912109 0 0 0 0
0.0099258423 -0.052276611 -0.3503418 0 0 0 0
0.011016846 -0.052276611 -0.3503418 0 0 0 0
0.012138367 -0.052429199 -0.35131836 0 0 0 0
0.01322937 -0.052429199 -0.35131836 0 0 0 0
0.014320374 -0.052429199 -0.35131836 0 0 0 0
0.015457153 -0.052581787 -0.35229492 0 0 0 0
0.016555786 -0.052581787 -0.35229492 0 0 0 0
0.017700195 -0.052734375 -0.35327148 0 0 0 0
0.018798828 -0.052734375 -0.35327148 0 0 0 0
0.019882202 -0.052734375 -0.35327148 0 0 0 0
0.02104187 -0.052886963 -0.35424805 0 0 0 0
0.022140503 -0.052886963 -0.35424805 0 0 0 0
0.02331543 -0.053039551 -0.35522461 0 0 0 0
0.024414062 -0.053039551 -0.35522461 0 0 0 0
0.025588989 -0.053192139 -0.35620117 0 0 0 0
0.026702881 -0.053192139 -0.35620117 0 0 0 0
0.027893066 -0.053314209 -0.35717773 0 0 0 0
-0.031112671 -0.054748535 -0.359375 0 0 0 0
-0.029922485 -0.054595947 -0.35839844 0 0 0 0
-0.028808594 -0.054595947 -0.35839844 0 0 0 0
-0.027618408 -0.054443359 -0.35717773 0 0 0 0
-0.026504517 -0.054443359 -0.35717773 0 0 0 0
-0.025390625 -0.054443359 -0.35717773 0 0 0 0
-0.024276733 -0.054443359 -0.35717773 0 0 0 0
-0.023178101 -0.054443359 -0.35717773 0 0 0 0
-0.022064209 -0.054443359 -0.35717773 0 0 0 0
-0.020889282 -0.054290771 -0.35620117 0 0 0 0
-0.019790649 -0.054290771 -0.35620117 0 0 0 0
-0.018676758 -0.054290771 -0.35620117 0 0 0 0
-0.017471313 -0.053985596 -0.35424805 0 0 0 0
-0.016281128 -0.05368042 -0.35229492 0 0 0 0
-0.015098572 -0.053375244 -0.3503418 0 0 0 0
-0.013969421 -0.053222656 -0.34912109 0 0 0 0
-0.012886047 -0.053222656 -0.34912109 0 0 0 0
-0.011772156 -0.053070068 -0.34814453 0 0 0 0
-0.010688782 -0.053070068 -0.34814453 0 0 0 0
-0.0096054077 -0.053070068 -0.34814453 0 0 0 0
-0.0085220337 -0.053070068 -0.34814453 0 0 0 0
-0.0074424744 -0.053070068 -0.34814453 0 0 0 0
-0.0063400269 -0.05291748 -0.34716797 0 0 0 0
-0.0052604675 -0.05291748 -0.34716797 0 0 0 0
-0.0041809082 -0.05291748 -0.34716797 0 0 0 0
-0.003112793 -0.053070068 -0.34814453 0 0 0 0
-0.0020313263 -0.053070068 -0.34814453 0 0 0 0
-0.00094890594 -0.053070068 -0.34814453 0 0 0 0
0.00013291836 -0.053070068 -0.34814453 0 0 0 0
0.0012149811 -0.053070068 -0.34814453 0 0 0 0
0.0022964478 -0.053070068 -0.34814453 0 0 0 0
0.0033798218 -0.053070068 -0.34814453 0 0 0 0
0.0044593811 -0.053070068 -0.34814453 0 0 0 0
0.0055580139 -0.053222656 -0.34912109 0 0 0 0
0.0066452026 -0.053222656 -0.34912109 0 0 0 0
0.0077285767 -0.053222656 -0.34912109 0 0 0 0
0.0088348389 -0.053375244 -0.3503418 0 0 0 0
0.0099258423 -0.053375244 -0.3503418 0 0 0 0
0.011047363 -0.053527832 -0.35131836 0 0 0 0
0.012138367 -0.053527832 -0.35131836 0 0 0 0
0.01322937 -0.053527832 -0.35131836 0 0 0 0
0.01436615 -0.05368042 -0.35229492 0 0 0 0
0.015457153 -0.05368042 -0.35229492 0 0 0 0
0.016601562 -0.053833008 -0.35327148 0 0 0 0
0.017700195 -0.053833008 -0.35327148 0 0 0 0
0.018798828 -0.053833008 -0.35327148 0 0 0 0
0.019943237 -0.053985596 -0.35424805 0 0 0 0
0.02104187 -0.053985596 -0.35424805 0 0 0 0
0.022216797 -0.054138184 -0.35522461 0 0 0 0
0.02331543 -0.054138184 -0.35522461 0 0 0 0
0.024414062 -0.054138184 -0.35522461 0 0 0 0
0.025588989 -0.054290771 -0.35620117 0 0 0 0
-0.034759521 -0.056335449 -0.36230469 0 0 0 0
-0.033538818 -0.056182861 -0.36132812 0 0 0 0
-0.032318115 -0.056030273 -0.36035156 0 0 0 0
-0.031112671 -0.055847168 -0.359375 0 0 0 0
-0.029922485 -0.05569458 -0.35839844 0 0 0 0
-0.028808594 -0.05569458 -0.35839844 0 0 0 0
-0.027618408 -0.055541992 -0.35717773 0 0 0 0
-0.026504517 -0.055541992 -0.35717773 0 0 0 0
-0.025390625 -0.055541992 -0.35717773 0 0 0 0
-0.024276733 -0.055541992 -0.35717773 0 0 0 0
-0.023178101 -0.055541992 -0.35717773 0 0 0 0
-0.022064209 -0.055541992 -0.35717773 0 0 0 0
-0.020950317 -0.055541992 -0.35717773 0 0 0 0
-0.019790649 -0.055389404 -0.35620117 0 0 0 0
-0.018676758 -0.055389404 -0.35620117 0 0 0 0
-0.017471313 -0.055084229 -0.35424805 0 0 0 0
-0.015014648 -0.054138184 -0.34814453 0 0 0 0
-0.013931274 -0.054138184 -0.34814453 0 0 0 0
-0.0128479 -0.054138184 -0.34814453 0 0 0 0
-0.011772156 -0.054138184 -0.34814453 0 0 0 0
-0.010688782 -0.054138184 -0.34814453 0 0 0 0
-0.0096054077 -0.054138184 -0.34814453 0 0 0 0
-0.0084991455 -0.053985596 -0.34716797 0 0 0 0
-0.0074195862 -0.053985596 -0.34716797 0 0 0 0
-0.0063400269 -0.053985596 -0.34716797 0 0 0 0
-0.0052604675 -0.053985596 -0.34716797 0 0 0 0
-0.0041809082 -0.053985596 -0.34716797 0 0 0 0
-0.003112793 -0.054138184 -0.34814453 0 0 0 0
-0.0020313263 -0.054138184 -0.34814453 0 0 0 0
-0.00094890594 -0.054138184 -0.34814453 0 0 0 0
0.00013291836 -0.054138184 -0.34814453 0 0 0 0
0.0012149811 -0.054138184 -0.34814453 0 0 0 0
0.0022964478 -0.054138184 -0.34814453 0 0 0 0
0.0033798218 -0.054138184 -0.34814453 0 0 0 0
0.0044746399 -0.054290771 -0.34912109 0 0 0 0
0.0055580139 -0.054290771 -0.34912109 0 0 0 0
0.0066452026 -0.054290771 -0.34912109 0 0 0 0
0.0077285767 -0.054290771 -0.34912109 0 0 0 0
0.0088348389 -0.054443359 -0.3503418 0 0 0 0
0.0099258423 -0.054443359 -0.3503418 0 0 0 0
0.011047363 -0.054626465 -0.35131836 0 0 0 0
0.012138367 -0.054626465 -0.35131836 0 0 0 0
0.013267517 -0.054779053 -0.35229492 0 0 0 0
0.01436615 -0.054779053 -0.35229492 0 0 0 0
0.01550293 -0.054931641 -0.35327148 0 0 0 0
0.016601562 -0.054931641 -0.35327148 0 0 0 0
0.017745972 -0.055084229 -0.35424805 0 0 0 0
0.018844604 -0.055084229 -0.35424805 0 0 0 0
0.019943237 -0.055084229 -0.35424805 0 0 0 0
0.021102905 -0.055236816 -0.35522461 0 0 0 0
0.022216797 -0.055236816 -0.35522461 0 0 0 0
0.02331543 -0.055236816 -0.35522461 0 0 0 0
0.024414062 -0.055236816 -0.35522461 0 0 0 0
-0.035980225 -0.057617188 -0.36328125 0 0 0 0
-0.034759521 -0.0574646 -0.36230469 0 0 0 0
-0.033538818 -0.057281494 -0.36132812 0 0 0 0
-0.032318115 -0.057128906 -0.36035156 0 0 0 0
-0.031112671 -0.056976318 -0.359375 0 0 0 0
-0.029922485 -0.05682373 -0.35839844 0 0 0 0
-0.028808594 -0.05682373 -0.35839844 0 0 0 0
-0.027618408 -0.056671143 -0.35717773 0 0 0 0
-0.026504517 -0.056671143 -0.35717773 0 0 0 0
-0.025390625 -0.056671143 -0.35717773 0 0 0 0
