ply
format ascii 1.0
comment PCL generated
element vertex 1046
property float x
property float y
property float z
property float nx
property float ny
property float nz
property float curvature
element face 0
element camera 0
property float view_px
property float view_py
property float view_pz
property float x_axisx
property float x_axisy
property float x_axisz
property float y_axisx
property float y_axisy
property float y_axisz
property float z_axisx
property float z_axisy
property float z_axisz
property float focal
property float scalex
property float scaley
property float centerx
property float centery
property int viewportx
property int viewporty
property float k1
property float k2
end_header
0.053894043 -0.023223877 -0.33911133 0 0 0 0
0.054931641 -0.023223877 -0.33911133 0 0 0 0
0.056152344 -0.023300171 -0.34008789 0 0 0 0
0.057220459 -0.023300171 -0.34008789 0 0 0 0
0.058258057 -0.023300171 -0.34008789 0 0 0 0
0.059509277 -0.023361206 -0.34130859 0 0 0 0
0.060546875 -0.023361206 -0.34130859 0 0 0 0
0.061798096 -0.0234375 -0.34228516 0 0 0 0
0.062866211 -0.0234375 -0.34228516 0 0 0 0
0.064086914 -0.023498535 -0.34326172 0 0 0 0
0.065185547 -0.023498535 -0.34326172 0 0 0 0
0.066223145 -0.023498535 -0.34326172 0 0 0 0
0.067504883 -0.023574829 -0.34423828 0 0 0 0
0.06854248 -0.023574829 -0.34423828 0 0 0 0
0.069824219 -0.023635864 -0.34521484 0 0 0 0
0.070922852 -0.023635864 -0.34521484 0 0 0 0
0.071960449 -0.023635864 -0.34521484 0 0 0 0
0.073303223 -0.023712158 -0.34619141 0 0 0 0
0.07434082 -0.023712158 -0.34619141 0 0 0 0
0.075439453 -0.023712158 -0.34619141 0 0 0 0
0.076721191 -0.023773193 -0.34716797 0 0 0 0
0.077819824 -0.023773193 -0.34716797 0 0 0 0
0.078857422 -0.023773193 -0.34716797 0 0 0 0
0.079956055 -0.023773193 -0.34716797 0 0 0 0
0.081298828 -0.023849487 -0.34814453 0 0 0 0
0.082336426 -0.023849487 -0.34814453 0 0 0 0
0.083435059 -0.023849487 -0.34814453 0 0 0 0
0.084777832 -0.023910522 -0.34912109 0 0 0 0
0.085876465 -0.023910522 -0.34912109 0 0 0 0
0.087158203 -0.023986816 -0.3503418 0 0 0 0
0.088256836 -0.023986816 -0.3503418 0 0 0 0
0.089355469 -0.023986816 -0.3503418 0 0 0 0
0.090698242 -0.024047852 -0.35131836 0 0 0 0
0.091796875 -0.024047852 -0.35131836 0 0 0 0
0.092895508 -0.024047852 -0.35131836 0 0 0 0
0.094238281 -0.024124146 -0.35229492 0 0 0 0
0.095336914 -0.024124146 -0.35229492 0 0 0 0
0.096435547 -0.024124146 -0.35229492 0 0 0 0
0.097839355 -0.024185181 -0.35327148 0 0 0 0
0.098937988 -0.024185181 -0.35327148 0 0 0 0
0.10003662 -0.024185181 -0.35327148 0 0 0 0
0.10113525 -0.024185181 -0.35327148 0 0 0 0
0.10247803 -0.024261475 -0.35424805 0 0 0 0
0.10357666 -0.024261475 -0.35424805 0 0 0 0
0.10467529 -0.024261475 -0.35424805 0 0 0 0
0.10577393 -0.024261475 -0.35424805 0 0 0 0
0.10687256 -0.024261475 -0.35424805 0 0 0 0
0.10803223 -0.024261475 -0.35424805 0 0 0 0
0.10913086 -0.024261475 -0.35424805 0 0 0 0
-0.091430664 -0.026367188 -0.3684082 0 0 0 0
-0.090026855 -0.026290894 -0.36743164 0 0 0 0
-0.088867188 -0.026290894 -0.36743164 0 0 0 0
-0.087463379 -0.026229858 -0.36621094 0 0 0 0
-0.086364746 -0.026229858 -0.36621094 0 0 0 0
-0.084960938 -0.026153564 -0.36523438 0 0 0 0
-0.083862305 -0.026153564 -0.36523438 0 0 0 0
-0.082702637 -0.026153564 -0.36523438 0 0 0 0
-0.081542969 -0.026153564 -0.36523438 0 0 0 0
-0.080200195 -0.026077271 -0.36425781 0 0 0 0
-0.079101562 -0.026077271 -0.36425781 0 0 0 0
-0.077941895 -0.026077271 -0.36425781 0 0 0 0
-0.076843262 -0.026077271 -0.36425781 0 0 0 0
-0.075683594 -0.026077271 -0.36425781 0 0 0 0
-0.074584961 -0.026077271 -0.36425781 0 0 0 0
-0.073425293 -0.026077271 -0.36425781 0 0 0 0
-0.072509766 -0.026153564 -0.36523438 0 0 0 0
-0.071350098 -0.026153564 -0.36523438 0 0 0 0
-0.07019043 -0.026153564 -0.36523438 0 0 0 0
-0.069091797 -0.026153564 -0.36523438 0 0 0 0
-0.068115234 -0.026229858 -0.36621094 0 0 0 0
-0.067016602 -0.026229858 -0.36621094 0 0 0 0
-0.066040039 -0.026290894 -0.36743164 0 0 0 0
-0.064880371 -0.026290894 -0.36743164 0 0 0 0
-0.063903809 -0.026367188 -0.3684082 0 0 0 0
-0.062927246 -0.026443481 -0.36938477 0 0 0 0
-0.061828613 -0.026443481 -0.36938477 0 0 0 0
-0.060852051 -0.026504517 -0.37036133 0 0 0 0
-0.059844971 -0.026580811 -0.37133789 0 0 0 0
-0.058868408 -0.026657104 -0.37231445 0 0 0 0
-0.05770874 -0.026657104 -0.37231445 0 0 0 0
-0.05670166 -0.026733398 -0.37329102 0 0 0 0
-0.05569458 -0.026794434 -0.37426758 0 0 0 0
-0.054534912 -0.026794434 -0.37426758 0 0 0 0
-0.053344727 -0.026794434 -0.37426758 0 0 0 0
-0.052337646 -0.026870728 -0.37524414 0 0 0 0
-0.038757324 -0.026367188 -0.3684082 0 0 0 0
-0.037628174 -0.026367188 -0.3684082 0 0 0 0
-0.036468506 -0.026367188 -0.3684082 0 0 0 0
-0.035339355 -0.026367188 -0.3684082 0 0 0 0
-0.034088135 -0.026290894 -0.36743164 0 0 0 0
-0.032958984 -0.026290894 -0.36743164 0 0 0 0
-0.031799316 -0.026290894 -0.36743164 0 0 0 0
-0.030670166 -0.026290894 -0.36743164 0 0 0 0
-0.029525757 -0.026290894 -0.36743164 0 0 0 0
-0.028396606 -0.026290894 -0.36743164 0 0 0 0
-0.027252197 -0.026290894 -0.36743164 0 0 0 0
-0.026107788 -0.026290894 -0.36743164 0 0 0 0
-0.024902344 -0.026229858 -0.36621094 0 0 0 0
-0.022125244 -0.027008057 -0.37744141 0 0 0 0
-0.020950317 -0.027008057 -0.37744141 0 0 0 0
-0.019790649 -0.027008057 -0.37744141 0 0 0 0
-0.018615723 -0.027008057 -0.37744141 0 0 0 0
-0.017440796 -0.027008057 -0.37744141 0 0 0 0
-0.016265869 -0.027008057 -0.37744141 0 0 0 0
-0.015098572 -0.027008057 -0.37744141 0 0 0 0
-0.013923645 -0.027008057 -0.37744141 0 0 0 0
-0.012748718 -0.027008057 -0.37744141 0 0 0 0
-0.011581421 -0.027008057 -0.37744141 0 0 0 0
-0.010406494 -0.027008057 -0.37744141 0 0 0 0
-0.0092315674 -0.027008057 -0.37744141 0 0 0 0
-0.00806427 -0.027008057 -0.37744141 0 0 0 0
-0.0068893433 -0.027008057 -0.37744141 0 0 0 0
-0.0057182312 -0.027008057 -0.37744141 0 0 0 0
-0.0045433044 -0.027008057 -0.37744141 0 0 0 0
-0.003364563 -0.026947021 -0.37646484 0 0 0 0
-0.0021953583 -0.026947021 -0.37646484 0 0 0 0
-0.0010223389 -0.026870728 -0.37524414 0 0 0 0
0.00014328957 -0.026870728 -0.37524414 0 0 0 0
0.0013055801 -0.026794434 -0.37426758 0 0 0 0
0.0024623871 -0.026733398 -0.37329102 0 0 0 0
0.0036125183 -0.026657104 -0.37231445 0 0 0 0
0.0047302246 -0.026443481 -0.36938477 0 0 0 0
0.006893158 -0.025939941 -0.36230469 0 0 0 0
0.0079956055 -0.025863647 -0.36132812 0 0 0 0
0.0090942383 -0.025787354 -0.36035156 0 0 0 0
0.010185242 -0.025726318 -0.359375 0 0 0 0
0.013664246 -0.024002075 -0.33520508 0 0 0 0
0.014663696 -0.023925781 -0.33422852 0 0 0 0
0.015609741 -0.023773193 -0.33227539 0 0 0 0
0.01663208 -0.023773193 -0.33227539 0 0 0 0
0.017623901 -0.023712158 -0.33105469 0 0 0 0
0.018585205 -0.023635864 -0.33007812 0 0 0 0
0.019622803 -0.023635864 -0.33007812 0 0 0 0
0.020584106 -0.02355957 -0.32910156 0 0 0 0
0.021606445 -0.02355957 -0.32910156 0 0 0 0
0.022628784 -0.02355957 -0.32910156 0 0 0 0
0.023651123 -0.02355957 -0.32910156 0 0 0 0
0.024749756 -0.023635864 -0.33007812 0 0 0 0
0.025772095 -0.023635864 -0.33007812 0 0 0 0
0.026794434 -0.023635864 -0.33007812 0 0 0 0
0.027832031 -0.023635864 -0.33007812 0 0 0 0
0.028945923 -0.023712158 -0.33105469 0 0 0 0
0.029968262 -0.023712158 -0.33105469 0 0 0 0
0.031097412 -0.023773193 -0.33227539 0 0 0 0
0.032104492 -0.023773193 -0.33227539 0 0 0 0
0.03314209 -0.023773193 -0.33227539 0 0 0 0
0.03427124 -0.023849487 -0.33325195 0 0 0 0
0.035308838 -0.023849487 -0.33325195 0 0 0 0
0.036346436 -0.023849487 -0.33325195 0 0 0 0
0.037506104 -0.023925781 -0.33422852 0 0 0 0
0.038543701 -0.023925781 -0.33422852 0 0 0 0
0.039581299 -0.023925781 -0.33422852 0 0 0 0
0.040618896 -0.023925781 -0.33422852 0 0 0 0
0.041778564 -0.024002075 -0.33520508 0 0 0 0
0.042816162 -0.024002075 -0.33520508 0 0 0 0
0.04385376 -0.024002075 -0.33520508 0 0 0 0
0.045043945 -0.02406311 -0.33618164 0 0 0 0
0.046081543 -0.02406311 -0.33618164 0 0 0 0
0.047271729 -0.024139404 -0.3371582 0 0 0 0
0.048309326 -0.024139404 -0.3371582 0 0 0 0
0.049377441 -0.024139404 -0.3371582 0 0 0 0
0.050567627 -0.024215698 -0.33813477 0 0 0 0
0.051605225 -0.024215698 -0.33813477 0 0 0 0
0.05267334 -0.024215698 -0.33813477 0 0 0 0
0.053894043 -0.024276733 -0.33911133 0 0 0 0
0.054931641 -0.024276733 -0.33911133 0 0 0 0
0.056152344 -0.024353027 -0.34008789 0 0 0 0
0.057220459 -0.024353027 -0.34008789 0 0 0 0
0.058441162 -0.024429321 -0.34130859 0 0 0 0
0.059509277 -0.024429321 -0.34130859 0 0 0 0
0.060546875 -0.024429321 -0.34130859 0 0 0 0
0.061798096 -0.024505615 -0.34228516 0 0 0 0
0.062866211 -0.024505615 -0.34228516 0 0 0 0
0.064086914 -0.02456665 -0.34326172 0 0 0 0
0.065185547 -0.02456665 -0.34326172 0 0 0 0
0.066223145 -0.02456665 -0.34326172 0 0 0 0
0.067504883 -0.024642944 -0.34423828 0 0 0 0
0.06854248 -0.024642944 -0.34423828 0 0 0 0
0.069824219 -0.024719238 -0.34521484 0 0 0 0
0.070922852 -0.024719238 -0.34521484 0 0 0 0
0.071960449 -0.024719238 -0.34521484 0 0 0 0
0.073303223 -0.024780273 -0.34619141 0 0 0 0
0.07434082 -0.024780273 -0.34619141 0 0 0 0
0.075439453 -0.024780273 -0.34619141 0 0 0 0
0.076721191 -0.024856567 -0.34716797 0 0 0 0
0.077819824 -0.024856567 -0.34716797 0 0 0 0
0.078857422 -0.024856567 -0.34716797 0 0 0 0
0.080200195 -0.024932861 -0.34814453 0 0 0 0
0.081298828 -0.024932861 -0.34814453 0 0 0 0
0.082336426 -0.024932861 -0.34814453 0 0 0 0
0.083679199 -0.024993896 -0.34912109 0 0 0 0
0.084777832 -0.024993896 -0.34912109 0 0 0 0
0.085876465 -0.024993896 -0.34912109 0 0 0 0
0.087158203 -0.02507019 -0.3503418 0 0 0 0
0.088256836 -0.02507019 -0.3503418 0 0 0 0
0.089355469 -0.02507019 -0.3503418 0 0 0 0
0.090698242 -0.025146484 -0.35131836 0 0 0 0
0.091796875 -0.025146484 -0.35131836 0 0 0 0
0.092895508 -0.025146484 -0.35131836 0 0 0 0
0.094238281 -0.025222778 -0.35229492 0 0 0 0
0.095336914 -0.025222778 -0.35229492 0 0 0 0
0.096740723 -0.025283813 -0.35327148 0 0 0 0
0.097839355 -0.025283813 -0.35327148 0 0 0 0
0.098937988 -0.025283813 -0.35327148 0 0 0 0
0.10003662 -0.025283813 -0.35327148 0 0 0 0
0.10137939 -0.025360107 -0.35424805 0 0 0 0
0.10247803 -0.025360107 -0.35424805 0 0 0 0
0.10357666 -0.025360107 -0.35424805 0 0 0 0
0.10467529 -0.025360107 -0.35424805 0 0 0 0
0.10577393 -0.025360107 -0.35424805 0 0 0 0
0.10687256 -0.025360107 -0.35424805 0 0 0 0
0.10803223 -0.025360107 -0.35424805 0 0 0 0
0.10913086 -0.025360107 -0.35424805 0 0 0 0
-0.091430664 -0.027511597 -0.3684082 0 0 0 0
-0.090270996 -0.027511597 -0.3684082 0 0 0 0
-0.088867188 -0.027435303 -0.36743164 0 0 0 0
-0.08770752 -0.027435303 -0.36743164 0 0 0 0
-0.086364746 -0.027359009 -0.36621094 0 0 0 0
-0.085205078 -0.027359009 -0.36621094 0 0 0 0
-0.083862305 -0.027282715 -0.36523438 0 0 0 0
-0.082702637 -0.027282715 -0.36523438 0 0 0 0
-0.081542969 -0.027282715 -0.36523438 0 0 0 0
-0.080444336 -0.027282715 -0.36523438 0 0 0 0
-0.079284668 -0.027282715 -0.36523438 0 0 0 0
-0.078186035 -0.027282715 -0.36523438 0 0 0 0
-0.077026367 -0.027282715 -0.36523438 0 0 0 0
-0.075866699 -0.027282715 -0.36523438 0 0 0 0
-0.074768066 -0.027282715 -0.36523438 0 0 0 0
-0.073608398 -0.027282715 -0.36523438 0 0 0 0
-0.072509766 -0.027282715 -0.36523438 0 0 0 0
-0.071350098 -0.027282715 -0.36523438 0 0 0 0
-0.07019043 -0.027282715 -0.36523438 0 0 0 0
-0.069091797 -0.027282715 -0.36523438 0 0 0 0
-0.068115234 -0.027359009 -0.36621094 0 0 0 0
-0.067016602 -0.027359009 -0.36621094 0 0 0 0
-0.066040039 -0.027435303 -0.36743164 0 0 0 0
-0.064880371 -0.027435303 -0.36743164 0 0 0 0
-0.063903809 -0.027511597 -0.3684082 0 0 0 0
-0.062927246 -0.027587891 -0.36938477 0 0 0 0
-0.061828613 -0.027587891 -0.36938477 0 0 0 0
-0.060852051 -0.027664185 -0.37036133 0 0 0 0
-0.059844971 -0.027740479 -0.37133789 0 0 0 0
-0.058868408 -0.027816772 -0.37231445 0 0 0 0
-0.05770874 -0.027816772 -0.37231445 0 0 0 0
-0.05670166 -0.027893066 -0.37329102 0 0 0 0
-0.055541992 -0.027893066 -0.37329102 0 0 0 0
-0.054534912 -0.027954102 -0.37426758 0 0 0 0
-0.053344727 -0.027954102 -0.37426758 0 0 0 0
-0.038970947 -0.027664185 -0.37036133 0 0 0 0
-0.037719727 -0.027587891 -0.36938477 0 0 0 0
-0.036560059 -0.027587891 -0.36938477 0 0 0 0
-0.035430908 -0.027587891 -0.36938477 0 0 0 0
-0.034179688 -0.027511597 -0.3684082 0 0 0 0
-0.033050537 -0.027511597 -0.3684082 0 0 0 0
-0.031890869 -0.027511597 -0.3684082 0 0 0 0
-0.030761719 -0.027511597 -0.3684082 0 0 0 0
-0.02961731 -0.027511597 -0.3684082 0 0 0 0
-0.0284729 -0.027511597 -0.3684082 0 0 0 0
-0.027328491 -0.027511597 -0.3684082 0 0 0 0
-0.026245117 -0.027587891 -0.36938477 0 0 0 0
-0.024414062 -0.028106689 -0.37646484 0 0 0 0
-0.023300171 -0.028182983 -0.37744141 0 0 0 0
-0.022125244 -0.028182983 -0.37744141 0 0 0 0
-0.020950317 -0.028182983 -0.37744141 0 0 0 0
-0.019790649 -0.028182983 -0.37744141 0 0 0 0
-0.018569946 -0.028106689 -0.37646484 0 0 0 0
-0.01739502 -0.028106689 -0.37646484 0 0 0 0
-0.016220093 -0.028106689 -0.37646484 0 0 0 0
-0.015060425 -0.028106689 -0.37646484 0 0 0 0
-0.013885498 -0.028106689 -0.37646484 0 0 0 0
-0.012718201 -0.028106689 -0.37646484 0 0 0 0
-0.011550903 -0.028106689 -0.37646484 0 0 0 0
-0.010375977 -0.028106689 -0.37646484 0 0 0 0
-0.0092315674 -0.028182983 -0.37744141 0 0 0 0
-0.00806427 -0.028182983 -0.37744141 0 0 0 0
-0.0068893433 -0.028182983 -0.37744141 0 0 0 0
-0.0057182312 -0.028182983 -0.37744141 0 0 0 0
-0.0045318604 -0.028106689 -0.37646484 0 0 0 0
-0.003364563 -0.028106689 -0.37646484 0 0 0 0
-0.0021896362 -0.028030396 -0.37524414 0 0 0 0
-0.0010223389 -0.028030396 -0.37524414 0 0 0 0
0.00014281273 -0.027954102 -0.37426758 0 0 0 0
0.0013055801 -0.027954102 -0.37426758 0 0 0 0
0.0024623871 -0.027893066 -0.37329102 0 0 0 0
0.0036125183 -0.027816772 -0.37231445 0 0 0 0
0.0047683716 -0.027816772 -0.37231445 0 0 0 0
0.006893158 -0.027053833 -0.36230469 0 0 0 0
0.0079956055 -0.026992798 -0.36132812 0 0 0 0
0.0090942383 -0.026916504 -0.36035156 0 0 0 0
0.010185242 -0.02684021 -0.359375 0 0 0 0
0.013664246 -0.025039673 -0.33520508 0 0 0 0
0.014663696 -0.024963379 -0.33422852 0 0 0 0
0.015609741 -0.024810791 -0.33227539 0 0 0 0
0.016586304 -0.024734497 -0.33105469 0 0 0 0
0.017623901 -0.024734497 -0.33105469 0 0 0 0
0.018585205 -0.024658203 -0.33007812 0 0 0 0
0.019561768 -0.024581909 -0.32910156 0 0 0 0
0.020584106 -0.024581909 -0.32910156 0 0 0 0
0.021606445 -0.024581909 -0.32910156 0 0 0 0
0.022628784 -0.024581909 -0.32910156 0 0 0 0
0.023651123 -0.024581909 -0.32910156 0 0 0 0
0.024673462 -0.024581909 -0.32910156 0 0 0 0
0.025772095 -0.024658203 -0.33007812 0 0 0 0
0.026794434 -0.024658203 -0.33007812 0 0 0 0
0.027832031 -0.024658203 -0.33007812 0 0 0 0
0.028945923 -0.024734497 -0.33105469 0 0 0 0
0.029968262 -0.024734497 -0.33105469 0 0 0 0
0.031097412 -0.024810791 -0.33227539 0 0 0 0
0.032104492 -0.024810791 -0.33227539 0 0 0 0
0.03314209 -0.024810791 -0.33227539 0 0 0 0
0.03427124 -0.024887085 -0.33325195 0 0 0 0
0.035308838 -0.024887085 -0.33325195 0 0 0 0
0.036346436 -0.024887085 -0.33325195 0 0 0 0
0.037506104 -0.024963379 -0.33422852 0 0 0 0
0.038543701 -0.024963379 -0.33422852 0 0 0 0
0.039581299 -0.024963379 -0.33422852 0 0 0 0
0.040618896 -0.024963379 -0.33422852 0 0 0 0
0.041778564 -0.025039673 -0.33520508 0 0 0 0
0.042816162 -0.025039673 -0.33520508 0 0 0 0
0.04385376 -0.025039673 -0.33520508 0 0 0 0
0.045043945 -0.025115967 -0.33618164 0 0 0 0
0.046081543 -0.025115967 -0.33618164 0 0 0 0
0.047271729 -0.025192261 -0.3371582 0 0 0 0
0.048309326 -0.025192261 -0.3371582 0 0 0 0
0.049377441 -0.025192261 -0.3371582 0 0 0 0
0.050567627 -0.025268555 -0.33813477 0 0 0 0
0.051605225 -0.025268555 -0.33813477 0 0 0 0
0.052825928 -0.02532959 -0.33911133 0 0 0 0
0.053894043 -0.02532959 -0.33911133 0 0 0 0
0.054931641 -0.02532959 -0.33911133 0 0 0 0
0.056152344 -0.025405884 -0.34008789 0 0 0 0
0.057220459 -0.025405884 -0.34008789 0 0 0 0
0.058441162 -0.025482178 -0.34130859 0 0 0 0
0.059509277 -0.025482178 -0.34130859 0 0 0 0
0.060546875 -0.025482178 -0.34130859 0 0 0 0
0.061798096 -0.025558472 -0.34228516 0 0 0 0
0.062866211 -0.025558472 -0.34228516 0 0 0 0
0.064086914 -0.025634766 -0.34326172 0 0 0 0
0.065185547 -0.025634766 -0.34326172 0 0 0 0
0.066223145 -0.025634766 -0.34326172 0 0 0 0
0.067504883 -0.02571106 -0.34423828 0 0 0 0
0.06854248 -0.02571106 -0.34423828 0 0 0 0
0.069824219 -0.025787354 -0.34521484 0 0 0 0
0.070922852 -0.025787354 -0.34521484 0 0 0 0
0.071960449 -0.025787354 -0.34521484 0 0 0 0
0.073303223 -0.025863647 -0.34619141 0 0 0 0
0.07434082 -0.025863647 -0.34619141 0 0 0 0
0.075622559 -0.025939941 -0.34716797 0 0 0 0
0.076721191 -0.025939941 -0.34716797 0 0 0 0
0.077819824 -0.025939941 -0.34716797 0 0 0 0
0.078857422 -0.025939941 -0.34716797 0 0 0 0
0.080200195 -0.026016235 -0.34814453 0 0 0 0
0.081298828 -0.026016235 -0.34814453 0 0 0 0
0.082336426 -0.026016235 -0.34814453 0 0 0 0
0.083679199 -0.026092529 -0.34912109 0 0 0 0
0.084777832 -0.026092529 -0.34912109 0 0 0 0
0.085876465 -0.026092529 -0.34912109 0 0 0 0
0.087158203 -0.026168823 -0.3503418 0 0 0 0
0.088256836 -0.026168823 -0.3503418 0 0 0 0
0.089355469 -0.026168823 -0.3503418 0 0 0 0
0.090698242 -0.026229858 -0.35131836 0 0 0 0
0.091796875 -0.026229858 -0.35131836 0 0 0 0
0.093139648 -0.026306152 -0.35229492 0 0 0 0
0.094238281 -0.026306152 -0.35229492 0 0 0 0
0.095336914 -0.026306152 -0.35229492 0 0 0 0
0.096740723 -0.026382446 -0.35327148 0 0 0 0
0.097839355 -0.026382446 -0.35327148 0 0 0 0
0.098937988 -0.026382446 -0.35327148 0 0 0 0
0.10003662 -0.026382446 -0.35327148 0 0 0 0
0.10137939 -0.02645874 -0.35424805 0 0 0 0
0.10247803 -0.02645874 -0.35424805 0 0 0 0
0.10357666 -0.02645874 -0.35424805 0 0 0 0
0.10467529 -0.02645874 -0.35424805 0 0 0 0
0.10577393 -0.02645874 -0.35424805 0 0 0 0
0.10687256 -0.02645874 -0.35424805 0 0 0 0
0.10803223 -0.02645874 -0.35424805 0 0 0 0
-0.091430664 -0.028656006 -0.3684082 0 0 0 0
-0.090270996 -0.028656006 -0.3684082 0 0 0 0
-0.088867188 -0.028579712 -0.36743164 0 0 0 0
-0.08770752 -0.028579712 -0.36743164 0 0 0 0
-0.086364746 -0.028503418 -0.36621094 0 0 0 0
-0.085205078 -0.028503418 -0.36621094 0 0 0 0
-0.083862305 -0.028427124 -0.36523438 0 0 0 0
-0.082702637 -0.028427124 -0.36523438 0 0 0 0
-0.081542969 -0.028427124 -0.36523438 0 0 0 0
-0.080444336 -0.028427124 -0.36523438 0 0 0 0
-0.079284668 -0.028427124 -0.36523438 0 0 0 0
-0.078186035 -0.028427124 -0.36523438 0 0 0 0
-0.077026367 -0.028427124 -0.36523438 0 0 0 0
-0.075866699 -0.028427124 -0.36523438 0 0 0 0
-0.074768066 -0.028427124 -0.36523438 0 0 0 0
-0.073608398 -0.028427124 -0.36523438 0 0 0 0
-0.072509766 -0.028427124 -0.36523438 0 0 0 0
-0.071350098 -0.028427124 -0.36523438 0 0 0 0
-0.07019043 -0.028427124 -0.36523438 0 0 0 0
-0.069274902 -0.028503418 -0.36621094 0 0 0 0
-0.068115234 -0.028503418 -0.36621094 0 0 0 0
-0.067016602 -0.028503418 -0.36621094 0 0 0 0
-0.066040039 -0.028579712 -0.36743164 0 0 0 0
-0.064880371 -0.028579712 -0.36743164 0 0 0 0
-0.063903809 -0.028656006 -0.3684082 0 0 0 0
-0.062927246 -0.0287323 -0.36938477 0 0 0 0
-0.061828613 -0.0287323 -0.36938477 0 0 0 0
-0.060852051 -0.028808594 -0.37036133 0 0 0 0
-0.059844971 -0.028884888 -0.37133789 0 0 0 0
-0.058685303 -0.028884888 -0.37133789 0 0 0 0
-0.05770874 -0.028961182 -0.37231445 0 0 0 0
-0.05670166 -0.029052734 -0.37329102 0 0 0 0
-0.055541992 -0.029052734 -0.37329102 0 0 0 0
-0.054534912 -0.029129028 -0.37426758 0 0 0 0
-0.053344727 -0.029129028 -0.37426758 0 0 0 0
-0.039093018 -0.028884888 -0.37133789 0 0 0 0
-0.037811279 -0.028808594 -0.37036133 0 0 0 0
-0.036682129 -0.028808594 -0.37036133 0 0 0 0
-0.035430908 -0.0287323 -0.36938477 0 0 0 0
-0.03427124 -0.0287323 -0.36938477 0 0 0 0
-0.03314209 -0.0287323 -0.36938477 0 0 0 0
-0.031982422 -0.0287323 -0.36938477 0 0 0 0
-0.030838013 -0.0287323 -0.36938477 0 0 0 0
-0.029693604 -0.0287323 -0.36938477 0 0 0 0
-0.028549194 -0.0287323 -0.36938477 0 0 0 0
-0.02746582 -0.028808594 -0.37036133 0 0 0 0
-0.026321411 -0.028808594 -0.37036133 0 0 0 0
-0.025650024 -0.02935791 -0.37744141 0 0 0 0
-0.024475098 -0.02935791 -0.37744141 0 0 0 0
-0.023300171 -0.02935791 -0.37744141 0 0 0 0
-0.022125244 -0.02935791 -0.37744141 0 0 0 0
-0.020904541 -0.029281616 -0.37646484 0 0 0 0
-0.019729614 -0.029281616 -0.37646484 0 0 0 0
-0.018569946 -0.029281616 -0.37646484 0 0 0 0
-0.01739502 -0.029281616 -0.37646484 0 0 0 0
-0.016220093 -0.029281616 -0.37646484 0 0 0 0
-0.015060425 -0.029281616 -0.37646484 0 0 0 0
-0.013885498 -0.029281616 -0.37646484 0 0 0 0
-0.012718201 -0.029281616 -0.37646484 0 0 0 0
-0.011550903 -0.029281616 -0.37646484 0 0 0 0
-0.010375977 -0.029281616 -0.37646484 0 0 0 0
-0.0092086792 -0.029281616 -0.37646484 0 0 0 0
-0.0080413818 -0.029281616 -0.37646484 0 0 0 0
-0.0068702698 -0.029281616 -0.37646484 0 0 0 0
-0.0057029724 -0.029281616 -0.37646484 0 0 0 0
-0.0045318604 -0.029281616 -0.37646484 0 0 0 0
-0.0033550262 -0.029205322 -0.37524414 0 0 0 0
-0.0021896362 -0.029205322 -0.37524414 0 0 0 0
-0.0010204315 -0.029129028 -0.37426758 0 0 0 0
0.00014281273 -0.029129028 -0.37426758 0 0 0 0
0.0013027191 -0.029052734 -0.37329102 0 0 0 0
0.0024623871 -0.029052734 -0.37329102 0 0 0 0
0.0036125183 -0.028961182 -0.37231445 0 0 0 0
0.0057830811 -0.028259277 -0.36328125 0 0 0 0
0.0068740845 -0.028106689 -0.36132812 0 0 0 0
0.0079956055 -0.028106689 -0.36132812 0 0 0 0
0.0090942383 -0.028030396 -0.36035156 0 0 0 0
0.012664795 -0.026153564 -0.33618164 0 0 0 0
0.013710022 -0.026153564 -0.33618164 0 0 0 0
0.014663696 -0.026000977 -0.33422852 0 0 0 0
0.015609741 -0.025848389 -0.33227539 0 0 0 0
0.016586304 -0.025772095 -0.33105469 0 0 0 0
0.017562866 -0.025680542 -0.33007812 0 0 0 0
0.018585205 -0.025680542 -0.33007812 0 0 0 0
0.019561768 -0.025604248 -0.32910156 0 0 0 0
0.020584106 -0.025604248 -0.32910156 0 0 0 0
0.021606445 -0.025604248 -0.32910156 0 0 0 0
0.022628784 -0.025604248 -0.32910156 0 0 0 0
0.023651123 -0.025604248 -0.32910156 0 0 0 0
0.024673462 -0.025604248 -0.32910156 0 0 0 0
0.025772095 -0.025680542 -0.33007812 0 0 0 0
0.026794434 -0.025680542 -0.33007812 0 0 0 0
0.027832031 -0.025680542 -0.33007812 0 0 0 0
0.028945923 -0.025772095 -0.33105469 0 0 0 0
0.029968262 -0.025772095 -0.33105469 0 0 0 0
0.031097412 -0.025848389 -0.33227539 0 0 0 0
0.032104492 -0.025848389 -0.33227539 0 0 0 0
0.03314209 -0.025848389 -0.33227539 0 0 0 0
0.03427124 -0.025924683 -0.33325195 0 0 0 0
0.035308838 -0.025924683 -0.33325195 0 0 0 0
0.036346436 -0.025924683 -0.33325195 0 0 0 0
0.037506104 -0.026000977 -0.33422852 0 0 0 0
0.038543701 -0.026000977 -0.33422852 0 0 0 0
0.039581299 -0.026000977 -0.33422852 0 0 0 0
0.040618896 -0.026000977 -0.33422852 0 0 0 0
0.041778564 -0.026077271 -0.33520508 0 0 0 0
0.042816162 -0.026077271 -0.33520508 0 0 0 0
0.04385376 -0.026077271 -0.33520508 0 0 0 0
0.045043945 -0.026153564 -0.33618164 0 0 0 0
0.046081543 -0.026153564 -0.33618164 0 0 0 0
0.047271729 -0.026229858 -0.3371582 0 0 0 0
0.048309326 -0.026229858 -0.3371582 0 0 0 0
0.049530029 -0.026306152 -0.33813477 0 0 0 0
0.050567627 -0.026306152 -0.33813477 0 0 0 0
0.051605225 -0.026306152 -0.33813477 0 0 0 0
0.052825928 -0.026397705 -0.33911133 0 0 0 0
0.053894043 -0.026397705 -0.33911133 0 0 0 0
0.054931641 -0.026397705 -0.33911133 0 0 0 0
0.056152344 -0.026473999 -0.34008789 0 0 0 0
0.057220459 -0.026473999 -0.34008789 0 0 0 0
0.058441162 -0.026550293 -0.34130859 0 0 0 0
0.059509277 -0.026550293 -0.34130859 0 0 0 0
0.060546875 -0.026550293 -0.34130859 0 0 0 0
0.061798096 -0.026626587 -0.34228516 0 0 0 0
0.062866211 -0.026626587 -0.34228516 0 0 0 0
0.064086914 -0.026702881 -0.34326172 0 0 0 0
0.065185547 -0.026702881 -0.34326172 0 0 0 0
0.066223145 -0.026702881 -0.34326172 0 0 0 0
0.067504883 -0.026779175 -0.34423828 0 0 0 0
0.06854248 -0.026779175 -0.34423828 0 0 0 0
0.069824219 -0.026855469 -0.34521484 0 0 0 0
0.070922852 -0.026855469 -0.34521484 0 0 0 0
0.071960449 -0.026855469 -0.34521484 0 0 0 0
0.073303223 -0.026931763 -0.34619141 0 0 0 0
0.07434082 -0.026931763 -0.34619141 0 0 0 0
0.075622559 -0.027023315 -0.34716797 0 0 0 0
0.076721191 -0.027023315 -0.34716797 0 0 0 0
0.077819824 -0.027023315 -0.34716797 0 0 0 0
0.079101562 -0.027099609 -0.34814453 0 0 0 0
0.080200195 -0.027099609 -0.34814453 0 0 0 0
0.081298828 -0.027099609 -0.34814453 0 0 0 0
0.082580566 -0.027175903 -0.34912109 0 0 0 0
0.083679199 -0.027175903 -0.34912109 0 0 0 0
0.084777832 -0.027175903 -0.34912109 0 0 0 0
0.086120605 -0.027252197 -0.3503418 0 0 0 0
0.087158203 -0.027252197 -0.3503418 0 0 0 0
0.088256836 -0.027252197 -0.3503418 0 0 0 0
0.089599609 -0.027328491 -0.35131836 0 0 0 0
0.090698242 -0.027328491 -0.35131836 0 0 0 0
0.091796875 -0.027328491 -0.35131836 0 0 0 0
0.093139648 -0.027404785 -0.35229492 0 0 0 0
0.094238281 -0.027404785 -0.35229492 0 0 0 0
0.095336914 -0.027404785 -0.35229492 0 0 0 0
0.096740723 -0.027481079 -0.35327148 0 0 0 0
0.097839355 -0.027481079 -0.35327148 0 0 0 0
0.098937988 -0.027481079 -0.35327148 0 0 0 0
0.10028076 -0.027557373 -0.35424805 0 0 0 0
0.10137939 -0.027557373 -0.35424805 0 0 0 0
0.10247803 -0.027557373 -0.35424805 0 0 0 0
0.10357666 -0.027557373 -0.35424805 0 0 0 0
0.10467529 -0.027557373 -0.35424805 0 0 0 0
0.10577393 -0.027557373 -0.35424805 0 0 0 0
0.10687256 -0.027557373 -0.35424805 0 0 0 0
0.1083374 -0.027633667 -0.35522461 0 0 0 0
-0.091674805 -0.029876709 -0.36938477 0 0 0 0
-0.090270996 -0.029800415 -0.3684082 0 0 0 0
-0.088867188 -0.029724121 -0.36743164 0 0 0 0
-0.08770752 -0.029724121 -0.36743164 0 0 0 0
-0.086364746 -0.029632568 -0.36621094 0 0 0 0
-0.085205078 -0.029632568 -0.36621094 0 0 0 0
-0.08404541 -0.029632568 -0.36621094 0 0 0 0
-0.082702637 -0.029556274 -0.36523438 0 0 0 0
-0.081542969 -0.029556274 -0.36523438 0 0 0 0
-0.080444336 -0.029556274 -0.36523438 0 0 0 0
-0.079284668 -0.029556274 -0.36523438 0 0 0 0
-0.078186035 -0.029556274 -0.36523438 0 0 0 0
-0.077026367 -0.029556274 -0.36523438 0 0 0 0
-0.075866699 -0.029556274 -0.36523438 0 0 0 0
-0.074768066 -0.029556274 -0.36523438 0 0 0 0
-0.073608398 -0.029556274 -0.36523438 0 0 0 0
-0.072692871 -0.029632568 -0.36621094 0 0 0 0
-0.071533203 -0.029632568 -0.36621094 0 0 0 0
-0.07043457 -0.029632568 -0.36621094 0 0 0 0
-0.069274902 -0.029632568 -0.36621094 0 0 0 0
-0.068115234 -0.029632568 -0.36621094 0 0 0 0
-0.067199707 -0.029724121 -0.36743164 0 0 0 0
-0.066040039 -0.029724121 -0.36743164 0 0 0 0
-0.064880371 -0.029724121 -0.36743164 0 0 0 0
-0.063903809 -0.029800415 -0.3684082 0 0 0 0
-0.062805176 -0.029800415 -0.3684082 0 0 0 0
-0.061828613 -0.029876709 -0.36938477 0 0 0 0
-0.060852051 -0.029968262 -0.37036133 0 0 0 0
-0.059692383 -0.029968262 -0.37036133 0 0 0 0
-0.058685303 -0.030044556 -0.37133789 0 0 0 0
-0.05770874 -0.03012085 -0.37231445 0 0 0 0
-0.05670166 -0.030212402 -0.37329102 0 0 0 0
-0.055541992 -0.030212402 -0.37329102 0 0 0 0
-0.054534912 -0.030288696 -0.37426758 0 0 0 0
-0.039093018 -0.030044556 -0.37133789 0 0 0 0
-0.03793335 -0.030044556 -0.37133789 0 0 0 0
-0.036773682 -0.030044556 -0.37133789 0 0 0 0
-0.035522461 -0.029968262 -0.37036133 0 0 0 0
-0.034362793 -0.029968262 -0.37036133 0 0 0 0
-0.033233643 -0.029968262 -0.37036133 0 0 0 0
-0.032073975 -0.029968262 -0.37036133 0 0 0 0
-0.030929565 -0.029968262 -0.37036133 0 0 0 0
-0.029769897 -0.029968262 -0.37036133 0 0 0 0
-0.028625488 -0.029968262 -0.37036133 0 0 0 0
-0.027542114 -0.030044556 -0.37133789 0 0 0 0
-0.026535034 -0.030212402 -0.37329102 0 0 0 0
-0.025512695 -0.03036499 -0.37524414 0 0 0 0
-0.024414062 -0.030456543 -0.37646484 0 0 0 0
-0.023239136 -0.030456543 -0.37646484 0 0 0 0
-0.022064209 -0.030456543 -0.37646484 0 0 0 0
-0.020904541 -0.030456543 -0.37646484 0 0 0 0
-0.019729614 -0.030456543 -0.37646484 0 0 0 0
-0.018569946 -0.030456543 -0.37646484 0 0 0 0
-0.01739502 -0.030456543 -0.37646484 0 0 0 0
-0.016174316 -0.03036499 -0.37524414 0 0 0 0
-0.015014648 -0.03036499 -0.37524414 0 0 0 0
-0.013847351 -0.03036499 -0.37524414 0 0 0 0
-0.012687683 -0.03036499 -0.37524414 0 0 0 0
-0.011520386 -0.03036499 -0.37524414 0 0 0 0
-0.010353088 -0.03036499 -0.37524414 0 0 0 0
-0.009185791 -0.03036499 -0.37524414 0 0 0 0
-0.0080413818 -0.030456543 -0.37646484 0 0 0 0
-0.0068702698 -0.030456543 -0.37646484 0 0 0 0
-0.0056877136 -0.03036499 -0.37524414 0 0 0 0
-0.0045204163 -0.03036499 -0.37524414 0 0 0 0
-0.0033550262 -0.03036499 -0.37524414 0 0 0 0
-0.0021820068 -0.030288696 -0.37426758 0 0 0 0
-0.0010204315 -0.030288696 -0.37426758 0 0 0 0
0.0001424551 -0.030212402 -0.37329102 0 0 0 0
0.0013027191 -0.030212402 -0.37329102 0 0 0 0
0.0024547577 -0.03012085 -0.37231445 0 0 0 0
0.0036029816 -0.030044556 -0.37133789 0 0 0 0
0.0047302246 -0.029876709 -0.36938477 0 0 0 0
0.0057678223 -0.029312134 -0.36230469 0 0 0 0
0.0068740845 -0.02923584 -0.36132812 0 0 0 0
0.0079956055 -0.02923584 -0.36132812 0 0 0 0
0.011650085 -0.027282715 -0.3371582 0 0 0 0
0.012664795 -0.027206421 -0.33618164 0 0 0 0
0.013710022 -0.027206421 -0.33618164 0 0 0 0
0.014709473 -0.027114868 -0.33520508 0 0 0 0
0.015609741 -0.026870728 -0.33227539 0 0 0 0
0.016586304 -0.026794434 -0.33105469 0 0 0 0
0.017562866 -0.02671814 -0.33007812 0 0 0 0
0.018539429 -0.026626587 -0.32910156 0 0 0 0
0.019561768 -0.026626587 -0.32910156 0 0 0 0
0.020584106 -0.026626587 -0.32910156 0 0 0 0
0.021606445 -0.026626587 -0.32910156 0 0 0 0
0.022628784 -0.026626587 -0.32910156 0 0 0 0
0.023651123 -0.026626587 -0.32910156 0 0 0 0
0.024673462 -0.026626587 -0.32910156 0 0 0 0
0.025772095 -0.02671814 -0.33007812 0 0 0 0
0.026794434 -0.02671814 -0.33007812 0 0 0 0
0.027832031 -0.02671814 -0.33007812 0 0 0 0
0.028945923 -0.026794434 -0.33105469 0 0 0 0
0.029968262 -0.026794434 -0.33105469 0 0 0 0
0.031097412 -0.026870728 -0.33227539 0 0 0 0
0.032104492 -0.026870728 -0.33227539 0 0 0 0
0.03314209 -0.026870728 -0.33227539 0 0 0 0
0.03427124 -0.02696228 -0.33325195 0 0 0 0
0.035308838 -0.02696228 -0.33325195 0 0 0 0
0.036346436 -0.02696228 -0.33325195 0 0 0 0
0.037506104 -0.027038574 -0.33422852 0 0 0 0
0.038543701 -0.027038574 -0.33422852 0 0 0 0
0.039581299 -0.027038574 -0.33422852 0 0 0 0
0.040740967 -0.027114868 -0.33520508 0 0 0 0
0.041778564 -0.027114868 -0.33520508 0 0 0 0
0.042816162 -0.027114868 -0.33520508 0 0 0 0
0.044006348 -0.027206421 -0.33618164 0 0 0 0
0.045043945 -0.027206421 -0.33618164 0 0 0 0
0.046081543 -0.027206421 -0.33618164 0 0 0 0
0.047271729 -0.027282715 -0.3371582 0 0 0 0
0.048309326 -0.027282715 -0.3371582 0 0 0 0
0.049530029 -0.027359009 -0.33813477 0 0 0 0
0.050567627 -0.027359009 -0.33813477 0 0 0 0
0.051605225 -0.027359009 -0.33813477 0 0 0 0
0.052825928 -0.027450562 -0.33911133 0 0 0 0
0.053894043 -0.027450562 -0.33911133 0 0 0 0
0.055084229 -0.027526855 -0.34008789 0 0 0 0
0.056152344 -0.027526855 -0.34008789 0 0 0 0
0.057220459 -0.027526855 -0.34008789 0 0 0 0
0.058441162 -0.027603149 -0.34130859 0 0 0 0
0.059509277 -0.027603149 -0.34130859 0 0 0 0
0.06072998 -0.027694702 -0.34228516 0 0 0 0
0.061798096 -0.027694702 -0.34228516 0 0 0 0
0.062866211 -0.027694702 -0.34228516 0 0 0 0
0.064086914 -0.027770996 -0.34326172 0 0 0 0
0.065185547 -0.027770996 -0.34326172 0 0 0 0
0.066223145 -0.027770996 -0.34326172 0 0 0 0
0.067504883 -0.02784729 -0.34423828 0 0 0 0
0.06854248 -0.02784729 -0.34423828 0 0 0 0
0.069824219 -0.027938843 -0.34521484 0 0 0 0
0.070922852 -0.027938843 -0.34521484 0 0 0 0
0.071960449 -0.027938843 -0.34521484 0 0 0 0
0.073303223 -0.028015137 -0.34619141 0 0 0 0
0.07434082 -0.028015137 -0.34619141 0 0 0 0
0.075622559 -0.028091431 -0.34716797 0 0 0 0
0.076721191 -0.028091431 -0.34716797 0 0 0 0
0.077819824 -0.028091431 -0.34716797 0 0 0 0
0.079101562 -0.028182983 -0.34814453 0 0 0 0
0.080200195 -0.028182983 -0.34814453 0 0 0 0
0.081298828 -0.028182983 -0.34814453 0 0 0 0
0.082580566 -0.028259277 -0.34912109 0 0 0 0
0.083679199 -0.028259277 -0.34912109 0 0 0 0
0.084777832 -0.028259277 -0.34912109 0 0 0 0
0.086120605 -0.028335571 -0.3503418 0 0 0 0
0.087158203 -0.028335571 -0.3503418 0 0 0 0
0.088256836 -0.028335571 -0.3503418 0 0 0 0
0.089599609 -0.028427124 -0.35131836 0 0 0 0
0.090698242 -0.028427124 -0.35131836 0 0 0 0
0.091796875 -0.028427124 -0.35131836 0 0 0 0
0.093139648 -0.028503418 -0.35229492 0 0 0 0
0.094238281 -0.028503418 -0.35229492 0 0 0 0
0.095336914 -0.028503418 -0.35229492 0 0 0 0
0.096740723 -0.028579712 -0.35327148 0 0 0 0
0.097839355 -0.028579712 -0.35327148 0 0 0 0
0.098937988 -0.028579712 -0.35327148 0 0 0 0
0.10028076 -0.028656006 -0.35424805 0 0 0 0
0.10137939 -0.028656006 -0.35424805 0 0 0 0
0.10247803 -0.028656006 -0.35424805 0 0 0 0
0.10357666 -0.028656006 -0.35424805 0 0 0 0
0.10467529 -0.028656006 -0.35424805 0 0 0 0
0.10577393 -0.028656006 -0.35424805 0 0 0 0
-0.090270996 -0.030944824 -0.3684082 0 0 0 0
-0.088867188 -0.03086853 -0.36743164 0 0 0 0
-0.08770752 -0.03086853 -0.36743164 0 0 0 0
-0.086608887 -0.03086853 -0.36743164 0 0 0 0
-0.085205078 -0.030776978 -0.36621094 0 0 0 0
-0.08404541 -0.030776978 -0.36621094 0 0 0 0
-0.082946777 -0.030776978 -0.36621094 0 0 0 0
-0.081787109 -0.030776978 -0.36621094 0 0 0 0
-0.080444336 -0.030685425 -0.36523438 0 0 0 0
-0.079284668 -0.030685425 -0.36523438 0 0 0 0
-0.078186035 -0.030685425 -0.36523438 0 0 0 0
-0.077026367 -0.030685425 -0.36523438 0 0 0 0
-0.07611084 -0.030776978 -0.36621094 0 0 0 0
-0.074951172 -0.030776978 -0.36621094 0 0 0 0
-0.073852539 -0.030776978 -0.36621094 0 0 0 0
-0.072692871 -0.030776978 -0.36621094 0 0 0 0
-0.071533203 -0.030776978 -0.36621094 0 0 0 0
-0.07043457 -0.030776978 -0.36621094 0 0 0 0
-0.069458008 -0.03086853 -0.36743164 0 0 0 0
-0.06829834 -0.03086853 -0.36743164 0 0 0 0
-0.067199707 -0.03086853 -0.36743164 0 0 0 0
-0.066040039 -0.03086853 -0.36743164 0 0 0 0
-0.065063477 -0.030944824 -0.3684082 0 0 0 0
-0.063903809 -0.030944824 -0.3684082 0 0 0 0
-0.062805176 -0.030944824 -0.3684082 0 0 0 0
-0.061828613 -0.031036377 -0.36938477 0 0 0 0
-0.060852051 -0.031112671 -0.37036133 0 0 0 0
-0.059692383 -0.031112671 -0.37036133 0 0 0 0
-0.058685303 -0.031204224 -0.37133789 0 0 0 0
-0.05770874 -0.031280518 -0.37231445 0 0 0 0
-0.05670166 -0.03137207 -0.37329102 0 0 0 0
-0.05569458 -0.031433105 -0.37426758 0 0 0 0
-0.039093018 -0.031204224 -0.37133789 0 0 0 0
-0.03793335 -0.031204224 -0.37133789 0 0 0 0
-0.036773682 -0.031204224 -0.37133789 0 0 0 0
-0.035614014 -0.031204224 -0.37133789 0 0 0 0
-0.034454346 -0.031204224 -0.37133789 0 0 0 0
-0.033325195 -0.031204224 -0.37133789 0 0 0 0
-0.032165527 -0.031204224 -0.37133789 0 0 0 0
-0.031005859 -0.031204224 -0.37133789 0 0 0 0
-0.029769897 -0.031112671 -0.37036133 0 0 0 0
-0.028625488 -0.031112671 -0.37036133 0 0 0 0
-0.02784729 -0.031524658 -0.37524414 0 0 0 0
-0.026611328 -0.031433105 -0.37426758 0 0 0 0
-0.02557373 -0.031616211 -0.37646484 0 0 0 0
-0.024414062 -0.031616211 -0.37646484 0 0 0 0
-0.023239136 -0.031616211 -0.37646484 0 0 0 0
-0.022064209 -0.031616211 -0.37646484 0 0 0 0
-0.020904541 -0.031616211 -0.37646484 0 0 0 0
-0.019729614 -0.031616211 -0.37646484 0 0 0 0
-0.018508911 -0.031524658 -0.37524414 0 0 0 0
-0.017349243 -0.031524658 -0.37524414 0 0 0 0
-0.016174316 -0.031524658 -0.37524414 0 0 0 0
-0.015014648 -0.031524658 -0.37524414 0 0 0 0
-0.013847351 -0.031524658 -0.37524414 0 0 0 0
-0.012687683 -0.031524658 -0.37524414 0 0 0 0
-0.011520386 -0.031524658 -0.37524414 0 0 0 0
-0.010353088 -0.031524658 -0.37524414 0 0 0 0
-0.009185791 -0.031524658 -0.37524414 0 0 0 0
-0.0080184937 -0.031524658 -0.37524414 0 0 0 0
-0.006855011 -0.031524658 -0.37524414 0 0 0 0
-0.0056877136 -0.031524658 -0.37524414 0 0 0 0
-0.0045204163 -0.031524658 -0.37524414 0 0 0 0
-0.0033454895 -0.031433105 -0.37426758 0 0 0 0
-0.0021820068 -0.031433105 -0.37426758 0 0 0 0
-0.0010175705 -0.03137207 -0.37329102 0 0 0 0
0.0001424551 -0.03137207 -0.37329102 0 0 0 0
0.0012989044 -0.031280518 -0.37231445 0 0 0 0
0.0024547577 -0.031280518 -0.37231445 0 0 0 0
0.0035934448 -0.031112671 -0.37036133 0 0 0 0
0.0047416687 -0.031112671 -0.37036133 0 0 0 0
0.0058135986 -0.030685425 -0.36523438 0 0 0 0
0.0068740845 -0.030349731 -0.36132812 0 0 0 0
0.010635376 -0.028411865 -0.33813477 0 0 0 0
0.011650085 -0.028335571 -0.3371582 0 0 0 0
0.012664795 -0.028244019 -0.33618164 0 0 0 0
0.013710022 -0.028244019 -0.33618164 0 0 0 0
0.014709473 -0.028167725 -0.33520508 0 0 0 0
0.015563965 -0.027832031 -0.33105469 0 0 0 0
0.016540527 -0.027740479 -0.33007812 0 0 0 0
0.017562866 -0.027740479 -0.33007812 0 0 0 0
0.018539429 -0.027648926 -0.32910156 0 0 0 0
0.019561768 -0.027648926 -0.32910156 0 0 0 0
0.020584106 -0.027648926 -0.32910156 0 0 0 0
0.021606445 -0.027648926 -0.32910156 0 0 0 0
0.022628784 -0.027648926 -0.32910156 0 0 0 0
0.023651123 -0.027648926 -0.32910156 0 0 0 0
0.024673462 -0.027648926 -0.32910156 0 0 0 0
0.025772095 -0.027740479 -0.33007812 0 0 0 0
0.026794434 -0.027740479 -0.33007812 0 0 0 0
0.027832031 -0.027740479 -0.33007812 0 0 0 0
0.028945923 -0.027832031 -0.33105469 0 0 0 0
0.029968262 -0.027832031 -0.33105469 0 0 0 0
0.031097412 -0.027908325 -0.33227539 0 0 0 0
0.032104492 -0.027908325 -0.33227539 0 0 0 0
0.03314209 -0.027908325 -0.33227539 0 0 0 0
0.03427124 -0.027999878 -0.33325195 0 0 0 0
0.035308838 -0.027999878 -0.33325195 0 0 0 0
0.036468506 -0.028076172 -0.33422852 0 0 0 0
0.037506104 -0.028076172 -0.33422852 0 0 0 0
0.038543701 -0.028076172 -0.33422852 0 0 0 0
0.039581299 -0.028076172 -0.33422852 0 0 0 0
0.040740967 -0.028167725 -0.33520508 0 0 0 0
0.041778564 -0.028167725 -0.33520508 0 0 0 0
0.042816162 -0.028167725 -0.33520508 0 0 0 0
0.044006348 -0.028244019 -0.33618164 0 0 0 0
0.045043945 -0.028244019 -0.33618164 0 0 0 0
0.046234131 -0.028335571 -0.3371582 0 0 0 0
0.047271729 -0.028335571 -0.3371582 0 0 0 0
0.048309326 -0.028335571 -0.3371582 0 0 0 0
0.049530029 -0.028411865 -0.33813477 0 0 0 0
0.050567627 -0.028411865 -0.33813477 0 0 0 0
0.051757812 -0.028503418 -0.33911133 0 0 0 0
0.052825928 -0.028503418 -0.33911133 0 0 0 0
0.053894043 -0.028503418 -0.33911133 0 0 0 0
0.055084229 -0.028579712 -0.34008789 0 0 0 0
0.056152344 -0.028579712 -0.34008789 0 0 0 0
0.057373047 -0.028671265 -0.34130859 0 0 0 0
0.058441162 -0.028671265 -0.34130859 0 0 0 0
0.059509277 -0.028671265 -0.34130859 0 0 0 0
0.06072998 -0.028747559 -0.34228516 0 0 0 0
0.061798096 -0.028747559 -0.34228516 0 0 0 0
0.062866211 -0.028747559 -0.34228516 0 0 0 0
0.064086914 -0.028839111 -0.34326172 0 0 0 0
0.065185547 -0.028839111 -0.34326172 0 0 0 0
0.06640625 -0.028915405 -0.34423828 0 0 0 0
0.067504883 -0.028915405 -0.34423828 0 0 0 0
0.06854248 -0.028915405 -0.34423828 0 0 0 0
0.069824219 -0.029006958 -0.34521484 0 0 0 0
0.070922852 -0.029006958 -0.34521484 0 0 0 0
0.07220459 -0.029083252 -0.34619141 0 0 0 0
0.073303223 -0.029083252 -0.34619141 0 0 0 0
0.07434082 -0.029083252 -0.34619141 0 0 0 0
0.075622559 -0.029174805 -0.34716797 0 0 0 0
0.076721191 -0.029174805 -0.34716797 0 0 0 0
0.077819824 -0.029174805 -0.34716797 0 0 0 0
0.079101562 -0.029251099 -0.34814453 0 0 0 0
0.080200195 -0.029251099 -0.34814453 0 0 0 0
0.081298828 -0.029251099 -0.34814453 0 0 0 0
0.082580566 -0.029342651 -0.34912109 0 0 0 0
0.083679199 -0.029342651 -0.34912109 0 0 0 0
0.084777832 -0.029342651 -0.34912109 0 0 0 0
0.086120605 -0.029434204 -0.3503418 0 0 0 0
0.087158203 -0.029434204 -0.3503418 0 0 0 0
0.088256836 -0.029434204 -0.3503418 0 0 0 0
0.089599609 -0.029510498 -0.35131836 0 0 0 0
0.090698242 -0.029510498 -0.35131836 0 0 0 0
0.092041016 -0.029602051 -0.35229492 0 0 0 0
0.093139648 -0.029602051 -0.35229492 0 0 0 0
0.094238281 -0.029602051 -0.35229492 0 0 0 0
0.09564209 -0.029678345 -0.35327148 0 0 0 0
0.096740723 -0.029678345 -0.35327148 0 0 0 0
0.097839355 -0.029678345 -0.35327148 0 0 0 0
0.099182129 -0.029769897 -0.35424805 0 0 0 0
0.10028076 -0.029769897 -0.35424805 0 0 0 0
0.10137939 -0.029769897 -0.35424805 0 0 0 0
0.10247803 -0.029769897 -0.35424805 0 0 0 0
0.10357666 -0.029769897 -0.35424805 0 0 0 0
0.10498047 -0.029846191 -0.35522461 0 0 0 0
0.1060791 -0.029846191 -0.35522461 0 0 0 0
-0.089111328 -0.032073975 -0.3684082 0 0 0 0
-0.08770752 -0.031982422 -0.36743164 0 0 0 0
-0.086608887 -0.031982422 -0.36743164 0 0 0 0
-0.085205078 -0.031921387 -0.36621094 0 0 0 0
-0.08404541 -0.031921387 -0.36621094 0 0 0 0
-0.082946777 -0.031921387 -0.36621094 0 0 0 0
-0.081787109 -0.031921387 -0.36621094 0 0 0 0
-0.080688477 -0.031921387 -0.36621094 0 0 0 0
-0.079528809 -0.031921387 -0.36621094 0 0 0 0
-0.078369141 -0.031921387 -0.36621094 0 0 0 0
-0.077270508 -0.031921387 -0.36621094 0 0 0 0
-0.07611084 -0.031921387 -0.36621094 0 0 0 0
-0.074951172 -0.031921387 -0.36621094 0 0 0 0
-0.073852539 -0.031921387 -0.36621094 0 0 0 0
-0.072692871 -0.031921387 -0.36621094 0 0 0 0
-0.071777344 -0.031982422 -0.36743164 0 0 0 0
-0.070617676 -0.031982422 -0.36743164 0 0 0 0
-0.069458008 -0.031982422 -0.36743164 0 0 0 0
-0.06829834 -0.031982422 -0.36743164 0 0 0 0
-0.067199707 -0.031982422 -0.36743164 0 0 0 0
-0.066223145 -0.032073975 -0.3684082 0 0 0 0
-0.065063477 -0.032073975 -0.3684082 0 0 0 0
-0.063903809 -0.032073975 -0.3684082 0 0 0 0
-0.062805176 -0.032073975 -0.3684082 0 0 0 0
-0.061828613 -0.032165527 -0.36938477 0 0 0 0
-0.060852051 -0.03225708 -0.37036133 0 0 0 0
-0.059844971 -0.032348633 -0.37133789 0 0 0 0
-0.058685303 -0.032348633 -0.37133789 0 0 0 0
-0.05770874 -0.032440186 -0.37231445 0 0 0 0
-0.05670166 -0.032531738 -0.37329102 0 0 0 0
-0.05569458 -0.032592773 -0.37426758 0 0 0 0
-0.03918457 -0.032440186 -0.37231445 0 0 0 0
-0.038024902 -0.032440186 -0.37231445 0 0 0 0
-0.036865234 -0.032440186 -0.37231445 0 0 0 0
-0.035705566 -0.032440186 -0.37231445 0 0 0 0
-0.034545898 -0.032440186 -0.37231445 0 0 0 0
-0.03338623 -0.032440186 -0.37231445 0 0 0 0
-0.032165527 -0.032348633 -0.37133789 0 0 0 0
-0.031005859 -0.032348633 -0.37133789 0 0 0 0
-0.02986145 -0.032348633 -0.37133789 0 0 0 0
-0.027923584 -0.032775879 -0.37646484 0 0 0 0
-0.026672363 -0.032684326 -0.37524414 0 0 0 0
-0.02557373 -0.032775879 -0.37646484 0 0 0 0
-0.024414062 -0.032775879 -0.37646484 0 0 0 0
-0.023239136 -0.032775879 -0.37646484 0 0 0 0
-0.022064209 -0.032775879 -0.37646484 0 0 0 0
-0.020904541 -0.032775879 -0.37646484 0 0 0 0
-0.019683838 -0.032684326 -0.37524414 0 0 0 0
-0.018508911 -0.032684326 -0.37524414 0 0 0 0
-0.017349243 -0.032684326 -0.37524414 0 0 0 0
-0.016143799 -0.032592773 -0.37426758 0 0 0 0
-0.014976501 -0.032592773 -0.37426758 0 0 0 0
-0.013816833 -0.032592773 -0.37426758 0 0 0 0
-0.012649536 -0.032592773 -0.37426758 0 0 0 0
-0.011489868 -0.032592773 -0.37426758 0 0 0 0
-0.010322571 -0.032592773 -0.37426758 0 0 0 0
-0.0091629028 -0.032592773 -0.37426758 0 0 0 0
-0.0079956055 -0.032592773 -0.37426758 0 0 0 0
-0.0068359375 -0.032592773 -0.37426758 0 0 0 0
-0.0056724548 -0.032592773 -0.37426758 0 0 0 0
-0.0045089722 -0.032592773 -0.37426758 0 0 0 0
-0.0033454895 -0.032592773 -0.37426758 0 0 0 0
-0.0021762848 -0.032531738 -0.37329102 0 0 0 0
-0.0010175705 -0.032531738 -0.37329102 0 0 0 0
0.00014209747 -0.032440186 -0.37231445 0 0 0 0
0.0012950897 -0.032348633 -0.37133789 0 0 0 0
0.0024490356 -0.032348633 -0.37133789 0 0 0 0
0.0035934448 -0.03225708 -0.37036133 0 0 0 0
0.0047035217 -0.031982422 -0.36743164 0 0 0 0
0.0057983398 -0.031738281 -0.36425781 0 0 0 0
0.010635376 -0.029464722 -0.33813477 0 0 0 0
0.011650085 -0.029373169 -0.3371582 0 0 0 0
0.012664795 -0.029296875 -0.33618164 0 0 0 0
0.013710022 -0.029296875 -0.33618164 0 0 0 0
0.01461792 -0.029022217 -0.33325195 0 0 0 0
0.015563965 -0.02885437 -0.33105469 0 0 0 0
0.016540527 -0.028762817 -0.33007812 0 0 0 0
0.017562866 -0.028762817 -0.33007812 0 0 0 0
0.018539429 -0.028686523 -0.32910156 0 0 0 0
0.019561768 -0.028686523 -0.32910156 0 0 0 0
0.020584106 -0.028686523 -0.32910156 0 0 0 0
0.021606445 -0.028686523 -0.32910156 0 0 0 0
0.022628784 -0.028686523 -0.32910156 0 0 0 0
0.023651123 -0.028686523 -0.32910156 0 0 0 0
0.024673462 -0.028686523 -0.32910156 0 0 0 0
0.025772095 -0.028762817 -0.33007812 0 0 0 0
0.026794434 -0.028762817 -0.33007812 0 0 0 0
0.027832031 -0.028762817 -0.33007812 0 0 0 0
0.028945923 -0.02885437 -0.33105469 0 0 0 0
0.029968262 -0.02885437 -0.33105469 0 0 0 0
0.031097412 -0.028945923 -0.33227539 0 0 0 0
0.032104492 -0.028945923 -0.33227539 0 0 0 0
0.03314209 -0.028945923 -0.33227539 0 0 0 0
0.03427124 -0.029022217 -0.33325195 0 0 0 0
0.035308838 -0.029022217 -0.33325195 0 0 0 0
0.036468506 -0.02911377 -0.33422852 0 0 0 0
0.037506104 -0.02911377 -0.33422852 0 0 0 0
0.038543701 -0.02911377 -0.33422852 0 0 0 0
0.039703369 -0.029205322 -0.33520508 0 0 0 0
0.040740967 -0.029205322 -0.33520508 0 0 0 0
0.041778564 -0.029205322 -0.33520508 0 0 0 0
0.042816162 -0.029205322 -0.33520508 0 0 0 0
0.044006348 -0.029296875 -0.33618164 0 0 0 0
0.045043945 -0.029296875 -0.33618164 0 0 0 0
0.046234131 -0.029373169 -0.3371582 0 0 0 0
0.047271729 -0.029373169 -0.3371582 0 0 0 0
0.048461914 -0.029464722 -0.33813477 0 0 0 0
0.049530029 -0.029464722 -0.33813477 0 0 0 0
0.050567627 -0.029464722 -0.33813477 0 0 0 0
0.051757812 -0.029556274 -0.33911133 0 0 0 0
0.052825928 -0.029556274 -0.33911133 0 0 0 0
0.053894043 -0.029556274 -0.33911133 0 0 0 0
0.055084229 -0.029647827 -0.34008789 0 0 0 0
0.056152344 -0.029647827 -0.34008789 0 0 0 0
0.057373047 -0.029724121 -0.34130859 0 0 0 0
0.058441162 -0.029724121 -0.34130859 0 0 0 0
0.059509277 -0.029724121 -0.34130859 0 0 0 0
0.06072998 -0.029815674 -0.34228516 0 0 0 0
0.061798096 -0.029815674 -0.34228516 0 0 0 0
0.062866211 -0.029815674 -0.34228516 0 0 0 0
0.064086914 -0.029907227 -0.34326172 0 0 0 0
0.065185547 -0.029907227 -0.34326172 0 0 0 0
0.06640625 -0.029983521 -0.34423828 0 0 0 0
0.067504883 -0.029983521 -0.34423828 0 0 0 0
0.06854248 -0.029983521 -0.34423828 0 0 0 0
0.069824219 -0.030075073 -0.34521484 0 0 0 0
0.070922852 -0.030075073 -0.34521484 0 0 0 0
0.07220459 -0.030166626 -0.34619141 0 0 0 0
0.073303223 -0.030166626 -0.34619141 0 0 0 0
0.07434082 -0.030166626 -0.34619141 0 0 0 0
0.075622559 -0.030258179 -0.34716797 0 0 0 0
0.076721191 -0.030258179 -0.34716797 0 0 0 0
0.077819824 -0.030258179 -0.34716797 0 0 0 0
0.079101562 -0.030334473 -0.34814453 0 0 0 0
0.080200195 -0.030334473 -0.34814453 0 0 0 0
0.081298828 -0.030334473 -0.34814453 0 0 0 0
0.082580566 -0.030426025 -0.34912109 0 0 0 0
0.083679199 -0.030426025 -0.34912109 0 0 0 0
0.084777832 -0.030426025 -0.34912109 0 0 0 0
0.086120605 -0.030517578 -0.3503418 0 0 0 0
0.087158203 -0.030517578 -0.3503418 0 0 0 0
0.088500977 -0.030609131 -0.35131836 0 0 0 0
0.089599609 -0.030609131 -0.35131836 0 0 0 0
0.090698242 -0.030609131 -0.35131836 0 0 0 0
0.092041016 -0.030685425 -0.35229492 0 0 0 0
0.093139648 -0.030685425 -0.35229492 0 0 0 0
0.094238281 -0.030685425 -0.35229492 0 0 0 0
0.09564209 -0.030776978 -0.35327148 0 0 0 0
0.096740723 -0.030776978 -0.35327148 0 0 0 0
0.097839355 -0.030776978 -0.35327148 0 0 0 0
0.099182129 -0.03086853 -0.35424805 0 0 0 0
0.10028076 -0.03086853 -0.35424805 0 0 0 0
0.10137939 -0.03086853 -0.35424805 0 0 0 0
0.10247803 -0.03086853 -0.35424805 0 0 0 0
0.10357666 -0.03086853 -0.35424805 0 0 0 0
0.10498047 -0.030960083 -0.35522461 0 0 0 0
0.1060791 -0.030960083 -0.35522461 0 0 0 0
-0.08770752 -0.03314209 -0.36743164 0 0 0 0
-0.086608887 -0.03314209 -0.36743164 0 0 0 0
-0.085449219 -0.03314209 -0.36743164 0 0 0 0
-0.08404541 -0.033050537 -0.36621094 0 0 0 0
-0.082946777 -0.033050537 -0.36621094 0 0 0 0
-0.081787109 -0.033050537 -0.36621094 0 0 0 0
-0.080688477 -0.033050537 -0.36621094 0 0 0 0
-0.079528809 -0.033050537 -0.36621094 0 0 0 0
-0.078369141 -0.033050537 -0.36621094 0 0 0 0
-0.077270508 -0.033050537 -0.36621094 0 0 0 0
-0.07611084 -0.033050537 -0.36621094 0 0 0 0
-0.074951172 -0.033050537 -0.36621094 0 0 0 0
-0.073852539 -0.033050537 -0.36621094 0 0 0 0
-0.072875977 -0.03314209 -0.36743164 0 0 0 0
-0.071777344 -0.03314209 -0.36743164 0 0 0 0
-0.070617676 -0.03314209 -0.36743164 0 0 0 0
-0.069458008 -0.03314209 -0.36743164 0 0 0 0
-0.06829834 -0.03314209 -0.36743164 0 0 0 0
-0.067199707 -0.03314209 -0.36743164 0 0 0 0
-0.066223145 -0.033233643 -0.3684082 0 0 0 0
-0.065063477 -0.033233643 -0.3684082 0 0 0 0
-0.063903809 -0.033233643 -0.3684082 0 0 0 0
-0.062927246 -0.033325195 -0.36938477 0 0 0 0
-0.061828613 -0.033325195 -0.36938477 0 0 0 0
-0.060852051 -0.033416748 -0.37036133 0 0 0 0
-0.059844971 -0.033508301 -0.37133789 0 0 0 0
-0.058868408 -0.033599854 -0.37231445 0 0 0 0
