ply
format ascii 1.0
comment PCL generated
element vertex 1091
property float x
property float y
property float z
property float nx
property float ny
property float nz
property float curvature
element face 0
element camera 0
property float view_px
property float view_py
property float view_pz
property float x_axisx
property float x_axisy
property float x_axisz
property float y_axisx
property float y_axisy
property float y_axisz
property float z_axisx
property float z_axisy
property float z_axisz
property float focal
property float scalex
property float scaley
property float centerx
property float centery
property int viewportx
property int viewporty
property float k1
property float k2
end_header
0.065734863 0.10925293 -0.37036133 0 0 0 0
0.066833496 0.10925293 -0.37036133 0 0 0 0
0.067993164 0.10925293 -0.37036133 0 0 0 0
0.069152832 0.10925293 -0.37036133 0 0 0 0
0.0703125 0.10925293 -0.37036133 0 0 0 0
0.071472168 0.10925293 -0.37036133 0 0 0 0
0.072631836 0.10925293 -0.37036133 0 0 0 0
-0.037353516 0.11364746 -0.3894043 0 0 0 0
-0.036132812 0.11364746 -0.3894043 0 0 0 0
-0.034942627 0.11364746 -0.3894043 0 0 0 0
-0.033721924 0.11364746 -0.3894043 0 0 0 0
-0.032592773 0.11395264 -0.39038086 0 0 0 0
-0.03137207 0.11395264 -0.39038086 0 0 0 0
-0.030181885 0.11395264 -0.39038086 0 0 0 0
0.0085296631 0.11248779 -0.38549805 0 0 0 0
0.009727478 0.11248779 -0.38549805 0 0 0 0
0.010925293 0.11248779 -0.38549805 0 0 0 0
0.012123108 0.11248779 -0.38549805 0 0 0 0
0.013320923 0.11248779 -0.38549805 0 0 0 0
0.014518738 0.11248779 -0.38549805 0 0 0 0
0.015716553 0.11248779 -0.38549805 0 0 0 0
0.016906738 0.11248779 -0.38549805 0 0 0 0
0.018112183 0.11248779 -0.38549805 0 0 0 0
0.019348145 0.11279297 -0.38647461 0 0 0 0
0.020553589 0.11279297 -0.38647461 0 0 0 0
0.021759033 0.11279297 -0.38647461 0 0 0 0
0.023010254 0.11309814 -0.38745117 0 0 0 0
0.024215698 0.11309814 -0.38745117 0 0 0 0
0.025482178 0.11340332 -0.38842773 0 0 0 0
0.026702881 0.11340332 -0.38842773 0 0 0 0
0.02796936 0.11364746 -0.3894043 0 0 0 0
0.029190063 0.11364746 -0.3894043 0 0 0 0
0.030395508 0.11364746 -0.3894043 0 0 0 0
0.031677246 0.11395264 -0.39038086 0 0 0 0
0.038726807 0.10986328 -0.37646484 0 0 0 0
0.040008545 0.11016846 -0.37744141 0 0 0 0
0.041168213 0.11016846 -0.37744141 0 0 0 0
0.042449951 0.11047363 -0.37841797 0 0 0 0
0.043640137 0.11047363 -0.37841797 0 0 0 0
0.044799805 0.11047363 -0.37841797 0 0 0 0
0.04598999 0.11047363 -0.37841797 0 0 0 0
0.047149658 0.11047363 -0.37841797 0 0 0 0
0.048339844 0.11047363 -0.37841797 0 0 0 0
0.049530029 0.11047363 -0.37841797 0 0 0 0
0.050567627 0.11016846 -0.37744141 0 0 0 0
0.051330566 0.10925293 -0.37426758 0 0 0 0
0.052185059 0.10870361 -0.37231445 0 0 0 0
0.053344727 0.10870361 -0.37231445 0 0 0 0
0.054351807 0.10839844 -0.37133789 0 0 0 0
0.055511475 0.10839844 -0.37133789 0 0 0 0
0.056518555 0.10809326 -0.37036133 0 0 0 0
0.057678223 0.10809326 -0.37036133 0 0 0 0
0.058837891 0.10809326 -0.37036133 0 0 0 0
0.059967041 0.10809326 -0.37036133 0 0 0 0
0.060974121 0.10778809 -0.36938477 0 0 0 0
0.062103271 0.10778809 -0.36938477 0 0 0 0
0.063232422 0.10778809 -0.36938477 0 0 0 0
0.06439209 0.10778809 -0.36938477 0 0 0 0
0.065551758 0.10778809 -0.36938477 0 0 0 0
0.066833496 0.10809326 -0.37036133 0 0 0 0
0.067993164 0.10809326 -0.37036133 0 0 0 0
0.069152832 0.10809326 -0.37036133 0 0 0 0
0.0703125 0.10809326 -0.37036133 0 0 0 0
0.071472168 0.10809326 -0.37036133 0 0 0 0
0.07244873 0.10778809 -0.36938477 0 0 0 0
0.073791504 0.10809326 -0.37036133 0 0 0 0
-0.038574219 0.11248779 -0.3894043 0 0 0 0
-0.037353516 0.11248779 -0.3894043 0 0 0 0
-0.036132812 0.11248779 -0.3894043 0 0 0 0
-0.034942627 0.11248779 -0.3894043 0 0 0 0
-0.033721924 0.11248779 -0.3894043 0 0 0 0
-0.032501221 0.11248779 -0.3894043 0 0 0 0
-0.031311035 0.11248779 -0.3894043 0 0 0 0
-0.030181885 0.11273193 -0.39038086 0 0 0 0
-0.028961182 0.11273193 -0.39038086 0 0 0 0
-0.027755737 0.11273193 -0.39038086 0 0 0 0
0.0049095154 0.11071777 -0.38330078 0 0 0 0
0.0061035156 0.11071777 -0.38330078 0 0 0 0
0.0072937012 0.11071777 -0.38330078 0 0 0 0
0.0085067749 0.11102295 -0.38427734 0 0 0 0
0.0096969604 0.11102295 -0.38427734 0 0 0 0
0.010894775 0.11102295 -0.38427734 0 0 0 0
0.012084961 0.11102295 -0.38427734 0 0 0 0
0.013282776 0.11102295 -0.38427734 0 0 0 0
0.014480591 0.11102295 -0.38427734 0 0 0 0
0.015670776 0.11102295 -0.38427734 0 0 0 0
0.016860962 0.11102295 -0.38427734 0 0 0 0
0.018112183 0.11132812 -0.38549805 0 0 0 0
0.019302368 0.11132812 -0.38549805 0 0 0 0
0.020507812 0.11132812 -0.38549805 0 0 0 0
0.021759033 0.11157227 -0.38647461 0 0 0 0
0.022949219 0.11157227 -0.38647461 0 0 0 0
0.024215698 0.11187744 -0.38745117 0 0 0 0
0.025421143 0.11187744 -0.38745117 0 0 0 0
0.026702881 0.11218262 -0.38842773 0 0 0 0
0.027908325 0.11218262 -0.38842773 0 0 0 0
0.029190063 0.11248779 -0.3894043 0 0 0 0
0.030395508 0.11248779 -0.3894043 0 0 0 0
0.031677246 0.11273193 -0.39038086 0 0 0 0
0.037445068 0.10839844 -0.37524414 0 0 0 0
0.038635254 0.10839844 -0.37524414 0 0 0 0
0.039886475 0.10870361 -0.37646484 0 0 0 0
0.041168213 0.10900879 -0.37744141 0 0 0 0
0.042358398 0.10900879 -0.37744141 0 0 0 0
0.043640137 0.10925293 -0.37841797 0 0 0 0
0.044799805 0.10925293 -0.37841797 0 0 0 0
0.04598999 0.10925293 -0.37841797 0 0 0 0
0.047149658 0.10925293 -0.37841797 0 0 0 0
0.048217773 0.10900879 -0.37744141 0 0 0 0
0.049377441 0.10900879 -0.37744141 0 0 0 0
0.050415039 0.10870361 -0.37646484 0 0 0 0
0.051177979 0.10784912 -0.37329102 0 0 0 0
0.052185059 0.10754395 -0.37231445 0 0 0 0
0.053222656 0.10723877 -0.37133789 0 0 0 0
0.054351807 0.10723877 -0.37133789 0 0 0 0
0.055358887 0.10693359 -0.37036133 0 0 0 0
0.056518555 0.10693359 -0.37036133 0 0 0 0
0.057525635 0.10668945 -0.36938477 0 0 0 0
0.058654785 0.10668945 -0.36938477 0 0 0 0
0.059814453 0.10668945 -0.36938477 0 0 0 0
0.060974121 0.10668945 -0.36938477 0 0 0 0
0.062103271 0.10668945 -0.36938477 0 0 0 0
0.063232422 0.10668945 -0.36938477 0 0 0 0
0.06439209 0.10668945 -0.36938477 0 0 0 0
0.065551758 0.10668945 -0.36938477 0 0 0 0
0.066711426 0.10668945 -0.36938477 0 0 0 0
0.067810059 0.10668945 -0.36938477 0 0 0 0
0.068969727 0.10668945 -0.36938477 0 0 0 0
0.070129395 0.10668945 -0.36938477 0 0 0 0
0.071289062 0.10668945 -0.36938477 0 0 0 0
0.07244873 0.10668945 -0.36938477 0 0 0 0
0.073547363 0.10668945 -0.36938477 0 0 0 0
-0.038574219 0.11126709 -0.3894043 0 0 0 0
-0.037353516 0.11126709 -0.3894043 0 0 0 0
-0.036132812 0.11126709 -0.3894043 0 0 0 0
-0.034942627 0.11126709 -0.3894043 0 0 0 0
-0.033721924 0.11126709 -0.3894043 0 0 0 0
-0.032501221 0.11126709 -0.3894043 0 0 0 0
-0.031311035 0.11126709 -0.3894043 0 0 0 0
-0.030181885 0.11157227 -0.39038086 0 0 0 0
-0.028961182 0.11157227 -0.39038086 0 0 0 0
-0.027755737 0.11157227 -0.39038086 0 0 0 0
-0.026611328 0.11181641 -0.39135742 0 0 0 0
-0.025390625 0.11181641 -0.39135742 0 0 0 0
0.0025291443 0.10955811 -0.38330078 0 0 0 0
0.0037193298 0.10955811 -0.38330078 0 0 0 0
0.0049095154 0.10955811 -0.38330078 0 0 0 0
0.0061035156 0.10955811 -0.38330078 0 0 0 0
0.0072937012 0.10955811 -0.38330078 0 0 0 0
0.0084838867 0.10955811 -0.38330078 0 0 0 0
0.0096740723 0.10955811 -0.38330078 0 0 0 0
0.010864258 0.10955811 -0.38330078 0 0 0 0
0.012054443 0.10955811 -0.38330078 0 0 0 0
0.013252258 0.10955811 -0.38330078 0 0 0 0
0.014442444 0.10955811 -0.38330078 0 0 0 0
0.015625 0.10955811 -0.38330078 0 0 0 0
0.016860962 0.10980225 -0.38427734 0 0 0 0
0.018051147 0.10980225 -0.38427734 0 0 0 0
0.019256592 0.10980225 -0.38427734 0 0 0 0
0.020507812 0.11010742 -0.38549805 0 0 0 0
0.021697998 0.11010742 -0.38549805 0 0 0 0
0.022949219 0.1104126 -0.38647461 0 0 0 0
0.024154663 0.1104126 -0.38647461 0 0 0 0
0.025421143 0.11065674 -0.38745117 0 0 0 0
0.026626587 0.11065674 -0.38745117 0 0 0 0
0.027908325 0.11096191 -0.38842773 0 0 0 0
0.02911377 0.11096191 -0.38842773 0 0 0 0
0.030395508 0.11126709 -0.3894043 0 0 0 0
0.031585693 0.11126709 -0.3894043 0 0 0 0
0.032897949 0.11157227 -0.39038086 0 0 0 0
0.036102295 0.10668945 -0.37329102 0 0 0 0
0.037353516 0.10693359 -0.37426758 0 0 0 0
0.038635254 0.10723877 -0.37524414 0 0 0 0
0.039794922 0.10723877 -0.37524414 0 0 0 0
0.04107666 0.10754395 -0.37646484 0 0 0 0
0.042358398 0.10778809 -0.37744141 0 0 0 0
0.043518066 0.10778809 -0.37744141 0 0 0 0
0.044708252 0.10778809 -0.37744141 0 0 0 0
0.04586792 0.10778809 -0.37744141 0 0 0 0
0.047027588 0.10778809 -0.37744141 0 0 0 0
0.048095703 0.10754395 -0.37646484 0 0 0 0
0.049255371 0.10754395 -0.37646484 0 0 0 0
0.050292969 0.10723877 -0.37524414 0 0 0 0
0.051177979 0.10668945 -0.37329102 0 0 0 0
0.052185059 0.10638428 -0.37231445 0 0 0 0
0.053222656 0.1060791 -0.37133789 0 0 0 0
0.054351807 0.1060791 -0.37133789 0 0 0 0
0.055358887 0.10583496 -0.37036133 0 0 0 0
0.056365967 0.10552979 -0.36938477 0 0 0 0
0.057525635 0.10552979 -0.36938477 0 0 0 0
0.058654785 0.10552979 -0.36938477 0 0 0 0
0.059661865 0.10522461 -0.3684082 0 0 0 0
0.060791016 0.10522461 -0.3684082 0 0 0 0
0.061950684 0.10522461 -0.3684082 0 0 0 0
0.063049316 0.10522461 -0.3684082 0 0 0 0
0.064208984 0.10522461 -0.3684082 0 0 0 0
0.065368652 0.10522461 -0.3684082 0 0 0 0
0.06652832 0.10522461 -0.3684082 0 0 0 0
0.067626953 0.10522461 -0.3684082 0 0 0 0
0.068786621 0.10522461 -0.3684082 0 0 0 0
0.069946289 0.10522461 -0.3684082 0 0 0 0
0.071289062 0.10552979 -0.36938477 0 0 0 0
0.07244873 0.10552979 -0.36938477 0 0 0 0
0.073547363 0.10552979 -0.36938477 0 0 0 0
0.074707031 0.10552979 -0.36938477 0 0 0 0
-0.038574219 0.11004639 -0.3894043 0 0 0 0
-0.037353516 0.11004639 -0.3894043 0 0 0 0
-0.036132812 0.11004639 -0.3894043 0 0 0 0
-0.034942627 0.11004639 -0.3894043 0 0 0 0
-0.033721924 0.11004639 -0.3894043 0 0 0 0
-0.032501221 0.11004639 -0.3894043 0 0 0 0
-0.031311035 0.11004639 -0.3894043 0 0 0 0
-0.030181885 0.11035156 -0.39038086 0 0 0 0
-0.028961182 0.11035156 -0.39038086 0 0 0 0
-0.027755737 0.11035156 -0.39038086 0 0 0 0
-0.026611328 0.1105957 -0.39135742 0 0 0 0
-0.025390625 0.1105957 -0.39135742 0 0 0 0
-0.024230957 0.11090088 -0.39233398 0 0 0 0
-0.023010254 0.11090088 -0.39233398 0 0 0 0
-0.021789551 0.11090088 -0.39233398 0 0 0 0
-0.016876221 0.1105957 -0.39135742 0 0 0 0
-0.015655518 0.1105957 -0.39135742 0 0 0 0
-0.014442444 0.1105957 -0.39135742 0 0 0 0
-0.013191223 0.11035156 -0.39038086 0 0 0 0
-0.011978149 0.11035156 -0.39038086 0 0 0 0
-0.010765076 0.11035156 -0.39038086 0 0 0 0
-0.009552002 0.11035156 -0.39038086 0 0 0 0
-0.00831604 0.11004639 -0.3894043 0 0 0 0
-0.0071105957 0.11004639 -0.3894043 0 0 0 0
-0.0046424866 0.10888672 -0.38549805 0 0 0 0
-0.0034446716 0.10888672 -0.38549805 0 0 0 0
-0.0022411346 0.10864258 -0.38427734 0 0 0 0
-0.0010471344 0.10864258 -0.38427734 0 0 0 0
0.00014674664 0.10864258 -0.38427734 0 0 0 0
0.0013370514 0.1083374 -0.38330078 0 0 0 0
0.0025291443 0.1083374 -0.38330078 0 0 0 0
0.0037097931 0.10803223 -0.38232422 0 0 0 0
0.0048980713 0.10803223 -0.38232422 0 0 0 0
0.0060844421 0.10803223 -0.38232422 0 0 0 0
0.0072746277 0.10803223 -0.38232422 0 0 0 0
0.0084609985 0.10803223 -0.38232422 0 0 0 0
0.0096511841 0.10803223 -0.38232422 0 0 0 0
0.01083374 0.10803223 -0.38232422 0 0 0 0
0.012023926 0.10803223 -0.38232422 0 0 0 0
0.013214111 0.10803223 -0.38232422 0 0 0 0
0.014404297 0.10803223 -0.38232422 0 0 0 0
0.015586853 0.10803223 -0.38232422 0 0 0 0
0.016769409 0.10803223 -0.38232422 0 0 0 0
0.018005371 0.1083374 -0.38330078 0 0 0 0
0.019195557 0.1083374 -0.38330078 0 0 0 0
0.020446777 0.10864258 -0.38427734 0 0 0 0
0.021636963 0.10864258 -0.38427734 0 0 0 0
0.022888184 0.10888672 -0.38549805 0 0 0 0
0.024093628 0.10888672 -0.38549805 0 0 0 0
0.025360107 0.10919189 -0.38647461 0 0 0 0
0.026565552 0.10919189 -0.38647461 0 0 0 0
0.027832031 0.10949707 -0.38745117 0 0 0 0
0.029037476 0.10949707 -0.38745117 0 0 0 0
0.030319214 0.10974121 -0.38842773 0 0 0 0
0.031585693 0.11004639 -0.3894043 0 0 0 0
0.032806396 0.11004639 -0.3894043 0 0 0 0
0.034759521 0.10491943 -0.37133789 0 0 0 0
0.036010742 0.10522461 -0.37231445 0 0 0 0
0.037261963 0.10552979 -0.37329102 0 0 0 0
0.038421631 0.10552979 -0.37329102 0 0 0 0
0.039672852 0.10577393 -0.37426758 0 0 0 0
0.04107666 0.10638428 -0.37646484 0 0 0 0
0.042236328 0.10638428 -0.37646484 0 0 0 0
0.043518066 0.10662842 -0.37744141 0 0 0 0
0.044708252 0.10662842 -0.37744141 0 0 0 0
0.04574585 0.10638428 -0.37646484 0 0 0 0
0.046905518 0.10638428 -0.37646484 0 0 0 0
0.047943115 0.1060791 -0.37524414 0 0 0 0
0.049133301 0.1060791 -0.37524414 0 0 0 0
0.050140381 0.10577393 -0.37426758 0 0 0 0
0.051177979 0.10552979 -0.37329102 0 0 0 0
0.052185059 0.10522461 -0.37231445 0 0 0 0
0.053222656 0.10491943 -0.37133789 0 0 0 0
0.054229736 0.10467529 -0.37036133 0 0 0 0
0.055358887 0.10467529 -0.37036133 0 0 0 0
0.056365967 0.10437012 -0.36938477 0 0 0 0
0.057373047 0.10406494 -0.3684082 0 0 0 0
0.058502197 0.10406494 -0.3684082 0 0 0 0
0.059661865 0.10406494 -0.3684082 0 0 0 0
0.060638428 0.1038208 -0.36743164 0 0 0 0
0.061767578 0.1038208 -0.36743164 0 0 0 0
0.062866211 0.1038208 -0.36743164 0 0 0 0
0.064025879 0.1038208 -0.36743164 0 0 0 0
0.065368652 0.10406494 -0.3684082 0 0 0 0
0.06652832 0.10406494 -0.3684082 0 0 0 0
0.067626953 0.10406494 -0.3684082 0 0 0 0
0.068786621 0.10406494 -0.3684082 0 0 0 0
0.069946289 0.10406494 -0.3684082 0 0 0 0
0.071105957 0.10406494 -0.3684082 0 0 0 0
0.07220459 0.10406494 -0.3684082 0 0 0 0
0.073364258 0.10406494 -0.3684082 0 0 0 0
0.074707031 0.10437012 -0.36938477 0 0 0 0
0.076049805 0.10467529 -0.37036133 0 0 0 0
-0.038574219 0.10882568 -0.3894043 0 0 0 0
-0.037353516 0.10882568 -0.3894043 0 0 0 0
-0.036132812 0.10882568 -0.3894043 0 0 0 0
-0.034942627 0.10882568 -0.3894043 0 0 0 0
-0.033721924 0.10882568 -0.3894043 0 0 0 0
-0.032501221 0.10882568 -0.3894043 0 0 0 0
-0.031311035 0.10882568 -0.3894043 0 0 0 0
-0.030181885 0.10913086 -0.39038086 0 0 0 0
-0.028961182 0.10913086 -0.39038086 0 0 0 0
-0.027755737 0.10913086 -0.39038086 0 0 0 0
-0.026611328 0.109375 -0.39135742 0 0 0 0
-0.025390625 0.109375 -0.39135742 0 0 0 0
-0.024230957 0.10968018 -0.39233398 0 0 0 0
-0.023010254 0.10968018 -0.39233398 0 0 0 0
-0.021789551 0.10968018 -0.39233398 0 0 0 0
-0.020568848 0.10968018 -0.39233398 0 0 0 0
-0.019348145 0.10968018 -0.39233398 0 0 0 0
-0.018081665 0.109375 -0.39135742 0 0 0 0
-0.016876221 0.109375 -0.39135742 0 0 0 0
-0.015655518 0.109375 -0.39135742 0 0 0 0
-0.014442444 0.109375 -0.39135742 0 0 0 0
-0.013191223 0.10913086 -0.39038086 0 0 0 0
-0.011978149 0.10913086 -0.39038086 0 0 0 0
-0.010765076 0.10913086 -0.39038086 0 0 0 0
-0.0095291138 0.10882568 -0.3894043 0 0 0 0
-0.00831604 0.10882568 -0.3894043 0 0 0 0
-0.0070915222 0.10858154 -0.38842773 0 0 0 0
-0.0058708191 0.10827637 -0.38745117 0 0 0 0
-0.0046539307 0.10797119 -0.38647461 0 0 0 0
-0.0034542084 0.10797119 -0.38647461 0 0 0 0
-0.0022468567 0.10772705 -0.38549805 0 0 0 0
-0.0010471344 0.10742188 -0.38427734 0 0 0 0
0.00014674664 0.10742188 -0.38427734 0 0 0 0
0.0013370514 0.10717773 -0.38330078 0 0 0 0
0.0025291443 0.10717773 -0.38330078 0 0 0 0
0.0037097931 0.10687256 -0.38232422 0 0 0 0
0.0048980713 0.10687256 -0.38232422 0 0 0 0
0.0060844421 0.10687256 -0.38232422 0 0 0 0
0.0072746277 0.10687256 -0.38232422 0 0 0 0
0.0084609985 0.10687256 -0.38232422 0 0 0 0
0.0096206665 0.10656738 -0.38134766 0 0 0 0
0.010810852 0.10656738 -0.38134766 0 0 0 0
0.011993408 0.10656738 -0.38134766 0 0 0 0
0.013175964 0.10656738 -0.38134766 0 0 0 0
0.01436615 0.10656738 -0.38134766 0 0 0 0
0.015548706 0.10656738 -0.38134766 0 0 0 0
0.016723633 0.10656738 -0.38134766 0 0 0 0
0.017959595 0.10687256 -0.38232422 0 0 0 0
0.01914978 0.10687256 -0.38232422 0 0 0 0
0.020339966 0.10687256 -0.38232422 0 0 0 0
0.021591187 0.10717773 -0.38330078 0 0 0 0
0.022781372 0.10717773 -0.38330078 0 0 0 0
0.024032593 0.10742188 -0.38427734 0 0 0 0
0.025283813 0.10772705 -0.38549805 0 0 0 0
0.026489258 0.10772705 -0.38549805 0 0 0 0
0.027755737 0.10797119 -0.38647461 0 0 0 0
0.028961182 0.10797119 -0.38647461 0 0 0 0
0.03024292 0.10827637 -0.38745117 0 0 0 0
0.031524658 0.10858154 -0.38842773 0 0 0 0
0.034759521 0.10375977 -0.37133789 0 0 0 0
0.035888672 0.10375977 -0.37133789 0 0 0 0
0.03717041 0.10406494 -0.37231445 0 0 0 0
0.038299561 0.10406494 -0.37231445 0 0 0 0
0.039581299 0.10437012 -0.37329102 0 0 0 0
0.04095459 0.10491943 -0.37524414 0 0 0 0
0.042236328 0.10516357 -0.37646484 0 0 0 0
0.043395996 0.10516357 -0.37646484 0 0 0 0
0.044586182 0.10516357 -0.37646484 0 0 0 0
0.045623779 0.10491943 -0.37524414 0 0 0 0
0.046783447 0.10491943 -0.37524414 0 0 0 0
0.047821045 0.10461426 -0.37426758 0 0 0 0
0.048980713 0.10461426 -0.37426758 0 0 0 0
0.050018311 0.10437012 -0.37329102 0 0 0 0
0.051055908 0.10406494 -0.37231445 0 0 0 0
0.052185059 0.10406494 -0.37231445 0 0 0 0
0.053222656 0.10375977 -0.37133789 0 0 0 0
0.054229736 0.10351562 -0.37036133 0 0 0 0
0.055206299 0.10321045 -0.36938477 0 0 0 0
0.056213379 0.10296631 -0.3684082 0 0 0 0
0.057373047 0.10296631 -0.3684082 0 0 0 0
0.058349609 0.10266113 -0.36743164 0 0 0 0
0.05947876 0.10266113 -0.36743164 0 0 0 0
0.060638428 0.10266113 -0.36743164 0 0 0 0
0.061767578 0.10266113 -0.36743164 0 0 0 0
0.062866211 0.10266113 -0.36743164 0 0 0 0
0.064025879 0.10266113 -0.36743164 0 0 0 0
0.065185547 0.10266113 -0.36743164 0 0 0 0
0.066345215 0.10266113 -0.36743164 0 0 0 0
0.067443848 0.10266113 -0.36743164 0 0 0 0
0.068603516 0.10266113 -0.36743164 0 0 0 0
0.069763184 0.10266113 -0.36743164 0 0 0 0
0.071105957 0.10296631 -0.3684082 0 0 0 0
0.07220459 0.10296631 -0.3684082 0 0 0 0
0.073364258 0.10296631 -0.3684082 0 0 0 0
0.074523926 0.10296631 -0.3684082 0 0 0 0
0.075866699 0.10321045 -0.36938477 0 0 0 0
-0.038574219 0.10760498 -0.3894043 0 0 0 0
-0.037353516 0.10760498 -0.3894043 0 0 0 0
-0.036132812 0.10760498 -0.3894043 0 0 0 0
-0.034942627 0.10760498 -0.3894043 0 0 0 0
-0.033721924 0.10760498 -0.3894043 0 0 0 0
-0.032501221 0.10760498 -0.3894043 0 0 0 0
-0.031311035 0.10760498 -0.3894043 0 0 0 0
-0.030181885 0.10791016 -0.39038086 0 0 0 0
-0.028961182 0.10791016 -0.39038086 0 0 0 0
-0.027755737 0.10791016 -0.39038086 0 0 0 0
-0.026611328 0.1081543 -0.39135742 0 0 0 0
-0.025390625 0.1081543 -0.39135742 0 0 0 0
-0.024230957 0.10845947 -0.39233398 0 0 0 0
-0.023010254 0.10845947 -0.39233398 0 0 0 0
-0.021789551 0.10845947 -0.39233398 0 0 0 0
-0.020568848 0.10845947 -0.39233398 0 0 0 0
-0.019348145 0.10845947 -0.39233398 0 0 0 0
-0.018081665 0.1081543 -0.39135742 0 0 0 0
-0.016876221 0.1081543 -0.39135742 0 0 0 0
-0.015655518 0.1081543 -0.39135742 0 0 0 0
-0.014442444 0.1081543 -0.39135742 0 0 0 0
-0.013191223 0.10791016 -0.39038086 0 0 0 0
-0.011978149 0.10791016 -0.39038086 0 0 0 0
-0.010765076 0.10791016 -0.39038086 0 0 0 0
-0.0095291138 0.10760498 -0.3894043 0 0 0 0
-0.00831604 0.10760498 -0.3894043 0 0 0 0
-0.0070915222 0.10736084 -0.38842773 0 0 0 0
-0.0058708191 0.10705566 -0.38745117 0 0 0 0
-0.0046539307 0.10681152 -0.38647461 0 0 0 0
-0.0034542084 0.10681152 -0.38647461 0 0 0 0
-0.0022468567 0.10650635 -0.38549805 0 0 0 0
-0.0010471344 0.10626221 -0.38427734 0 0 0 0
0.0001462698 0.10595703 -0.38330078 0 0 0 0
0.0013370514 0.10595703 -0.38330078 0 0 0 0
0.0025215149 0.10571289 -0.38232422 0 0 0 0
0.0037097931 0.10571289 -0.38232422 0 0 0 0
0.0048980713 0.10571289 -0.38232422 0 0 0 0
0.0060691833 0.10540771 -0.38134766 0 0 0 0
0.0072555542 0.10540771 -0.38134766 0 0 0 0
0.0084381104 0.10540771 -0.38134766 0 0 0 0
0.0096206665 0.10540771 -0.38134766 0 0 0 0
0.010810852 0.10540771 -0.38134766 0 0 0 0
0.011993408 0.10540771 -0.38134766 0 0 0 0
0.013145447 0.10510254 -0.38037109 0 0 0 0
0.014328003 0.10510254 -0.38037109 0 0 0 0
0.015510559 0.10510254 -0.38037109 0 0 0 0
0.016723633 0.10540771 -0.38134766 0 0 0 0
0.017913818 0.10540771 -0.38134766 0 0 0 0
0.019104004 0.10540771 -0.38134766 0 0 0 0
0.020294189 0.10540771 -0.38134766 0 0 0 0
0.021530151 0.10571289 -0.38232422 0 0 0 0
0.022720337 0.10571289 -0.38232422 0 0 0 0
0.023971558 0.10595703 -0.38330078 0 0 0 0
0.025222778 0.10626221 -0.38427734 0 0 0 0
0.026412964 0.10626221 -0.38427734 0 0 0 0
0.027679443 0.10650635 -0.38549805 0 0 0 0
0.028884888 0.10650635 -0.38549805 0 0 0 0
0.030075073 0.10650635 -0.38549805 0 0 0 0
0.031524658 0.10736084 -0.38842773 0 0 0 0
0.034667969 0.10235596 -0.37036133 0 0 0 0
0.035797119 0.10235596 -0.37036133 0 0 0 0
0.036956787 0.10235596 -0.37036133 0 0 0 0
0.038208008 0.10266113 -0.37133789 0 0 0 0
0.039459229 0.10290527 -0.37231445 0 0 0 0
0.04095459 0.10375977 -0.37524414 0 0 0 0
0.042114258 0.10375977 -0.37524414 0 0 0 0
0.043395996 0.10400391 -0.37646484 0 0 0 0
0.044586182 0.10400391 -0.37646484 0 0 0 0
0.045623779 0.10375977 -0.37524414 0 0 0 0
0.046661377 0.10345459 -0.37426758 0 0 0 0
0.047698975 0.10321045 -0.37329102 0 0 0 0
0.048858643 0.10321045 -0.37329102 0 0 0 0
0.050018311 0.10321045 -0.37329102 0 0 0 0
0.051055908 0.10290527 -0.37231445 0 0 0 0
0.052062988 0.10266113 -0.37133789 0 0 0 0
0.053070068 0.10235596 -0.37036133 0 0 0 0
0.054229736 0.10235596 -0.37036133 0 0 0 0
0.055206299 0.10205078 -0.36938477 0 0 0 0
0.056213379 0.10180664 -0.3684082 0 0 0 0
0.057189941 0.10150146 -0.36743164 0 0 0 0
0.058349609 0.10150146 -0.36743164 0 0 0 0
0.059326172 0.10125732 -0.36621094 0 0 0 0
0.060455322 0.10125732 -0.36621094 0 0 0 0
0.06161499 0.10125732 -0.36621094 0 0 0 0
0.062744141 0.10125732 -0.36621094 0 0 0 0
0.064025879 0.10150146 -0.36743164 0 0 0 0
0.065185547 0.10150146 -0.36743164 0 0 0 0
0.066345215 0.10150146 -0.36743164 0 0 0 0
0.067443848 0.10150146 -0.36743164 0 0 0 0
0.068603516 0.10150146 -0.36743164 0 0 0 0
0.069763184 0.10150146 -0.36743164 0 0 0 0
0.070861816 0.10150146 -0.36743164 0 0 0 0
0.07220459 0.10180664 -0.3684082 0 0 0 0
0.073364258 0.10180664 -0.3684082 0 0 0 0
0.074523926 0.10180664 -0.3684082 0 0 0 0
0.075683594 0.10180664 -0.3684082 0 0 0 0
0.077026367 0.10205078 -0.36938477 0 0 0 0
-0.038574219 0.10644531 -0.3894043 0 0 0 0
-0.037353516 0.10644531 -0.3894043 0 0 0 0
-0.036132812 0.10644531 -0.3894043 0 0 0 0
-0.034942627 0.10644531 -0.3894043 0 0 0 0
-0.033721924 0.10644531 -0.3894043 0 0 0 0
-0.032501221 0.10644531 -0.3894043 0 0 0 0
-0.031311035 0.10644531 -0.3894043 0 0 0 0
-0.030181885 0.10668945 -0.39038086 0 0 0 0
-0.028961182 0.10668945 -0.39038086 0 0 0 0
-0.027816772 0.10699463 -0.39135742 0 0 0 0
-0.026611328 0.10699463 -0.39135742 0 0 0 0
-0.025390625 0.10699463 -0.39135742 0 0 0 0
-0.024230957 0.10723877 -0.39233398 0 0 0 0
-0.023010254 0.10723877 -0.39233398 0 0 0 0
-0.021789551 0.10723877 -0.39233398 0 0 0 0
-0.020568848 0.10723877 -0.39233398 0 0 0 0
-0.019348145 0.10723877 -0.39233398 0 0 0 0
-0.0181427 0.10723877 -0.39233398 0 0 0 0
-0.016876221 0.10699463 -0.39135742 0 0 0 0
-0.015655518 0.10699463 -0.39135742 0 0 0 0
-0.014442444 0.10699463 -0.39135742 0 0 0 0
-0.013191223 0.10668945 -0.39038086 0 0 0 0
-0.011978149 0.10668945 -0.39038086 0 0 0 0
-0.010765076 0.10668945 -0.39038086 0 0 0 0
-0.0095291138 0.10644531 -0.3894043 0 0 0 0
-0.00831604 0.10644531 -0.3894043 0 0 0 0
-0.0070915222 0.10614014 -0.38842773 0 0 0 0
-0.0058708191 0.105896 -0.38745117 0 0 0 0
-0.0046539307 0.10559082 -0.38647461 0 0 0 0
-0.0034542084 0.10559082 -0.38647461 0 0 0 0
-0.0022468567 0.10534668 -0.38549805 0 0 0 0
-0.0010471344 0.1050415 -0.38427734 0 0 0 0
0.0001462698 0.10479736 -0.38330078 0 0 0 0
0.0013370514 0.10479736 -0.38330078 0 0 0 0
0.0025215149 0.10449219 -0.38232422 0 0 0 0
0.0037097931 0.10449219 -0.38232422 0 0 0 0
0.0048828125 0.10424805 -0.38134766 0 0 0 0
0.0060691833 0.10424805 -0.38134766 0 0 0 0
0.0072555542 0.10424805 -0.38134766 0 0 0 0
0.0084152222 0.10394287 -0.38037109 0 0 0 0
0.0095977783 0.10394287 -0.38037109 0 0 0 0
0.010780334 0.10394287 -0.38037109 0 0 0 0
0.011962891 0.10394287 -0.38037109 0 0 0 0
0.013145447 0.10394287 -0.38037109 0 0 0 0
0.014328003 0.10394287 -0.38037109 0 0 0 0
0.015510559 0.10394287 -0.38037109 0 0 0 0
0.016693115 0.10394287 -0.38037109 0 0 0 0
0.017868042 0.10394287 -0.38037109 0 0 0 0
0.019058228 0.10394287 -0.38037109 0 0 0 0
0.020294189 0.10424805 -0.38134766 0 0 0 0
0.021469116 0.10424805 -0.38134766 0 0 0 0
0.022720337 0.10449219 -0.38232422 0 0 0 0
0.023910522 0.10449219 -0.38232422 0 0 0 0
0.025161743 0.10479736 -0.38330078 0 0 0 0
0.026351929 0.10479736 -0.38330078 0 0 0 0
0.027542114 0.10479736 -0.38330078 0 0 0 0
0.0287323 0.10479736 -0.38330078 0 0 0 0
0.029922485 0.10479736 -0.38330078 0 0 0 0
0.033416748 0.10095215 -0.36938477 0 0 0 0
0.034545898 0.10095215 -0.36938477 0 0 0 0
0.035705566 0.10095215 -0.36938477 0 0 0 0
0.036865234 0.10095215 -0.36938477 0 0 0 0
0.037994385 0.10095215 -0.36938477 0 0 0 0
0.03894043 0.10040283 -0.36743164 0 0 0 0
0.039855957 0.099853516 -0.36523438 0 0 0 0
0.040985107 0.099853516 -0.36523438 0 0 0 0
0.042144775 0.099853516 -0.36523438 0 0 0 0
0.045501709 0.10229492 -0.37426758 0 0 0 0
0.046417236 0.10174561 -0.37231445 0 0 0 0
0.047576904 0.10174561 -0.37231445 0 0 0 0
0.048736572 0.10174561 -0.37231445 0 0 0 0
0.04989624 0.10174561 -0.37231445 0 0 0 0
0.05090332 0.10150146 -0.37133789 0 0 0 0
0.052062988 0.10150146 -0.37133789 0 0 0 0
0.053070068 0.10119629 -0.37036133 0 0 0 0
0.054077148 0.10095215 -0.36938477 0 0 0 0
0.055084229 0.10064697 -0.3684082 0 0 0 0
0.056060791 0.10040283 -0.36743164 0 0 0 0
0.057189941 0.10040283 -0.36743164 0 0 0 0
0.058197021 0.10009766 -0.36621094 0 0 0 0
0.059326172 0.10009766 -0.36621094 0 0 0 0
0.060455322 0.10009766 -0.36621094 0 0 0 0
0.06161499 0.10009766 -0.36621094 0 0 0 0
0.062744141 0.10009766 -0.36621094 0 0 0 0
0.063842773 0.10009766 -0.36621094 0 0 0 0
0.065002441 0.10009766 -0.36621094 0 0 0 0
0.066162109 0.10009766 -0.36621094 0 0 0 0
0.067260742 0.10009766 -0.36621094 0 0 0 0
0.068603516 0.10040283 -0.36743164 0 0 0 0
0.069763184 0.10040283 -0.36743164 0 0 0 0
0.070861816 0.10040283 -0.36743164 0 0 0 0
0.072021484 0.10040283 -0.36743164 0 0 0 0
0.073364258 0.10064697 -0.3684082 0 0 0 0
0.074523926 0.10064697 -0.3684082 0 0 0 0
0.075683594 0.10064697 -0.3684082 0 0 0 0
0.077026367 0.10095215 -0.36938477 0 0 0 0
-0.038574219 0.10522461 -0.3894043 0 0 0 0
-0.037353516 0.10522461 -0.3894043 0 0 0 0
-0.036132812 0.10522461 -0.3894043 0 0 0 0
-0.034942627 0.10522461 -0.3894043 0 0 0 0
-0.033721924 0.10522461 -0.3894043 0 0 0 0
-0.032592773 0.10546875 -0.39038086 0 0 0 0
-0.03137207 0.10546875 -0.39038086 0 0 0 0
-0.030181885 0.10546875 -0.39038086 0 0 0 0
-0.028961182 0.10546875 -0.39038086 0 0 0 0
-0.027816772 0.10577393 -0.39135742 0 0 0 0
-0.026611328 0.10577393 -0.39135742 0 0 0 0
-0.025390625 0.10577393 -0.39135742 0 0 0 0
-0.024230957 0.10601807 -0.39233398 0 0 0 0
-0.023010254 0.10601807 -0.39233398 0 0 0 0
-0.021789551 0.10601807 -0.39233398 0 0 0 0
-0.020568848 0.10601807 -0.39233398 0 0 0 0
-0.019348145 0.10601807 -0.39233398 0 0 0 0
-0.0181427 0.10601807 -0.39233398 0 0 0 0
-0.016876221 0.10577393 -0.39135742 0 0 0 0
-0.015655518 0.10577393 -0.39135742 0 0 0 0
-0.014442444 0.10577393 -0.39135742 0 0 0 0
-0.013191223 0.10546875 -0.39038086 0 0 0 0
-0.011978149 0.10546875 -0.39038086 0 0 0 0
-0.010765076 0.10546875 -0.39038086 0 0 0 0
-0.0095291138 0.10522461 -0.3894043 0 0 0 0
-0.00831604 0.10522461 -0.3894043 0 0 0 0
-0.0070915222 0.10491943 -0.38842773 0 0 0 0
-0.0058708191 0.10467529 -0.38745117 0 0 0 0
-0.0046539307 0.10437012 -0.38647461 0 0 0 0
-0.0034542084 0.10437012 -0.38647461 0 0 0 0
-0.0022468567 0.10412598 -0.38549805 0 0 0 0
-0.0010471344 0.1038208 -0.38427734 0 0 0 0
0.0001462698 0.10357666 -0.38330078 0 0 0 0
0.0013341904 0.10333252 -0.38232422 0 0 0 0
0.0025215149 0.10333252 -0.38232422 0 0 0 0
0.0037002563 0.10302734 -0.38134766 0 0 0 0
0.0048828125 0.10302734 -0.38134766 0 0 0 0
0.0060539246 0.1027832 -0.38037109 0 0 0 0
0.0072364807 0.1027832 -0.38037109 0 0 0 0
0.0084152222 0.1027832 -0.38037109 0 0 0 0
0.0095977783 0.1027832 -0.38037109 0 0 0 0
0.010749817 0.10247803 -0.37939453 0 0 0 0
0.011932373 0.10247803 -0.37939453 0 0 0 0
0.0131073 0.10247803 -0.37939453 0 0 0 0
0.014289856 0.10247803 -0.37939453 0 0 0 0
0.015464783 0.10247803 -0.37939453 0 0 0 0
0.016647339 0.10247803 -0.37939453 0 0 0 0
0.017868042 0.1027832 -0.38037109 0 0 0 0
0.019058228 0.1027832 -0.38037109 0 0 0 0
0.020233154 0.1027832 -0.38037109 0 0 0 0
0.021469116 0.10302734 -0.38134766 0 0 0 0
0.022659302 0.10302734 -0.38134766 0 0 0 0
0.023849487 0.10302734 -0.38134766 0 0 0 0
0.025100708 0.10333252 -0.38232422 0 0 0 0
0.026275635 0.10333252 -0.38232422 0 0 0 0
0.02746582 0.10333252 -0.38232422 0 0 0 0
0.028656006 0.10333252 -0.38232422 0 0 0 0
0.029846191 0.10333252 -0.38232422 0 0 0 0
0.03086853 0.1027832 -0.38037109 0 0 0 0
0.033416748 0.09979248 -0.36938477 0 0 0 0
0.034545898 0.09979248 -0.36938477 0 0 0 0
0.035614014 0.099487305 -0.3684082 0 0 0 0
0.036743164 0.099487305 -0.3684082 0 0 0 0
0.037811279 0.099243164 -0.36743164 0 0 0 0
0.038818359 0.098937988 -0.36621094 0 0 0 0
0.039855957 0.098693848 -0.36523438 0 0 0 0
0.040985107 0.098693848 -0.36523438 0 0 0 0
0.042144775 0.098693848 -0.36523438 0 0 0 0
0.043395996 0.098937988 -0.36621094 0 0 0 0
0.045013428 0.10003662 -0.37036133 0 0 0 0
0.046295166 0.1003418 -0.37133789 0 0 0 0
0.047454834 0.1003418 -0.37133789 0 0 0 0
0.048583984 0.1003418 -0.37133789 0 0 0 0
0.049743652 0.1003418 -0.37133789 0 0 0 0
0.05090332 0.1003418 -0.37133789 0 0 0 0
0.052062988 0.1003418 -0.37133789 0 0 0 0
0.053070068 0.10003662 -0.37036133 0 0 0 0
0.054077148 0.09979248 -0.36938477 0 0 0 0
0.055084229 0.099487305 -0.3684082 0 0 0 0
0.056060791 0.099243164 -0.36743164 0 0 0 0
0.057037354 0.098937988 -0.36621094 0 0 0 0
0.058197021 0.098937988 -0.36621094 0 0 0 0
0.059326172 0.098937988 -0.36621094 0 0 0 0
0.060455322 0.098937988 -0.36621094 0 0 0 0
0.06161499 0.098937988 -0.36621094 0 0 0 0
0.062744141 0.098937988 -0.36621094 0 0 0 0
0.063842773 0.098937988 -0.36621094 0 0 0 0
0.065002441 0.098937988 -0.36621094 0 0 0 0
0.066162109 0.098937988 -0.36621094 0 0 0 0
0.067260742 0.098937988 -0.36621094 0 0 0 0
0.06842041 0.098937988 -0.36621094 0 0 0 0
0.069580078 0.098937988 -0.36621094 0 0 0 0
0.070861816 0.099243164 -0.36743164 0 0 0 0
0.072021484 0.099243164 -0.36743164 0 0 0 0
0.073364258 0.099487305 -0.3684082 0 0 0 0
0.074523926 0.099487305 -0.3684082 0 0 0 0
0.075683594 0.099487305 -0.3684082 0 0 0 0
0.077026367 0.09979248 -0.36938477 0 0 0 0
-0.037353516 0.10400391 -0.3894043 0 0 0 0
-0.036224365 0.10424805 -0.39038086 0 0 0 0
-0.03503418 0.10424805 -0.39038086 0 0 0 0
-0.033813477 0.10424805 -0.39038086 0 0 0 0
-0.032592773 0.10424805 -0.39038086 0 0 0 0
-0.03137207 0.10424805 -0.39038086 0 0 0 0
-0.030258179 0.10455322 -0.39135742 0 0 0 0
-0.029037476 0.10455322 -0.39135742 0 0 0 0
-0.027816772 0.10455322 -0.39135742 0 0 0 0
-0.026611328 0.10455322 -0.39135742 0 0 0 0
-0.02545166 0.10479736 -0.39233398 0 0 0 0
-0.024230957 0.10479736 -0.39233398 0 0 0 0
-0.023010254 0.10479736 -0.39233398 0 0 0 0
-0.021789551 0.10479736 -0.39233398 0 0 0 0
-0.020568848 0.10479736 -0.39233398 0 0 0 0
-0.019348145 0.10479736 -0.39233398 0 0 0 0
-0.0181427 0.10479736 -0.39233398 0 0 0 0
-0.016921997 0.10479736 -0.39233398 0 0 0 0
-0.015655518 0.10455322 -0.39135742 0 0 0 0
-0.014442444 0.10455322 -0.39135742 0 0 0 0
-0.01322937 0.10455322 -0.39135742 0 0 0 0
-0.011978149 0.10424805 -0.39038086 0 0 0 0
-0.010765076 0.10424805 -0.39038086 0 0 0 0
-0.0095291138 0.10400391 -0.3894043 0 0 0 0
-0.00831604 0.10400391 -0.3894043 0 0 0 0
-0.0070915222 0.10369873 -0.38842773 0 0 0 0
-0.0058708191 0.10345459 -0.38745117 0 0 0 0
-0.0046653748 0.10345459 -0.38745117 0 0 0 0
-0.0034542084 0.10321045 -0.38647461 0 0 0 0
-0.0022468567 0.10290527 -0.38549805 0 0 0 0
-0.0010471344 0.10266113 -0.38427734 0 0 0 0
0.0001462698 0.10241699 -0.38330078 0 0 0 0
0.0013341904 0.10211182 -0.38232422 0 0 0 0
0.0025215149 0.10211182 -0.38232422 0 0 0 0
0.0037002563 0.10186768 -0.38134766 0 0 0 0
0.0048713684 0.1015625 -0.38037109 0 0 0 0
0.0060539246 0.1015625 -0.38037109 0 0 0 0
0.0072364807 0.1015625 -0.38037109 0 0 0 0
0.008392334 0.10131836 -0.37939453 0 0 0 0
0.0095748901 0.10131836 -0.37939453 0 0 0 0
0.010749817 0.10131836 -0.37939453 0 0 0 0
0.011932373 0.10131836 -0.37939453 0 0 0 0
0.0131073 0.10131836 -0.37939453 0 0 0 0
0.014289856 0.10131836 -0.37939453 0 0 0 0
0.015464783 0.10131836 -0.37939453 0 0 0 0
0.016647339 0.10131836 -0.37939453 0 0 0 0
0.017822266 0.10131836 -0.37939453 0 0 0 0
0.018997192 0.10131836 -0.37939453 0 0 0 0
0.020233154 0.1015625 -0.38037109 0 0 0 0
0.021408081 0.1015625 -0.38037109 0 0 0 0
0.022598267 0.1015625 -0.38037109 0 0 0 0
0.023849487 0.10186768 -0.38134766 0 0 0 0
0.025024414 0.10186768 -0.38134766 0 0 0 0
0.0262146 0.10186768 -0.38134766 0 0 0 0
0.027404785 0.10186768 -0.38134766 0 0 0 0
0.028579712 0.10186768 -0.38134766 0 0 0 0
0.029693604 0.1015625 -0.38037109 0 0 0 0
0.030792236 0.10131836 -0.37939453 0 0 0 0
0.032348633 0.098876953 -0.37036133 0 0 0 0
0.033416748 0.098632812 -0.36938477 0 0 0 0
0.034545898 0.098632812 -0.36938477 0 0 0 0
0.035614014 0.098388672 -0.3684082 0 0 0 0
0.036651611 0.098083496 -0.36743164 0 0 0 0
0.037811279 0.098083496 -0.36743164 0 0 0 0
0.038818359 0.097839355 -0.36621094 0 0 0 0
0.039855957 0.09753418 -0.36523438 0 0 0 0
0.040985107 0.09753418 -0.36523438 0 0 0 0
0.042144775 0.09753418 -0.36523438 0 0 0 0
0.043395996 0.097839355 -0.36621094 0 0 0 0
0.044647217 0.098083496 -0.36743164 0 0 0 0
0.046173096 0.098876953 -0.37036133 0 0 0 0
0.047454834 0.099182129 -0.37133789 0 0 0 0
0.048583984 0.099182129 -0.37133789 0 0 0 0
0.049743652 0.099182129 -0.37133789 0 0 0 0
0.05090332 0.099182129 -0.37133789 0 0 0 0
0.0519104 0.098876953 -0.37036133 0 0 0 0
0.053070068 0.098876953 -0.37036133 0 0 0 0
0.054077148 0.098632812 -0.36938477 0 0 0 0
0.055084229 0.098388672 -0.3684082 0 0 0 0
0.056060791 0.098083496 -0.36743164 0 0 0 0
0.057037354 0.097839355 -0.36621094 0 0 0 0
0.058197021 0.097839355 -0.36621094 0 0 0 0
0.059173584 0.09753418 -0.36523438 0 0 0 0
0.060302734 0.09753418 -0.36523438 0 0 0 0
0.06161499 0.097839355 -0.36621094 0 0 0 0
0.062744141 0.097839355 -0.36621094 0 0 0 0
0.063842773 0.097839355 -0.36621094 0 0 0 0
0.065002441 0.097839355 -0.36621094 0 0 0 0
0.066162109 0.097839355 -0.36621094 0 0 0 0
0.067260742 0.097839355 -0.36621094 0 0 0 0
0.06842041 0.097839355 -0.36621094 0 0 0 0
0.069580078 0.097839355 -0.36621094 0 0 0 0
0.070861816 0.098083496 -0.36743164 0 0 0 0
0.072021484 0.098083496 -0.36743164 0 0 0 0
0.073181152 0.098083496 -0.36743164 0 0 0 0
0.074523926 0.098388672 -0.3684082 0 0 0 0
0.075683594 0.098388672 -0.3684082 0 0 0 0
0.077026367 0.098632812 -0.36938477 0 0 0 0
0.078369141 0.098876953 -0.37036133 0 0 0 0
-0.037536621 0.10333252 -0.39135742 0 0 0 0
-0.036315918 0.10333252 -0.39135742 0 0 0 0
-0.035125732 0.10333252 -0.39135742 0 0 0 0
-0.033905029 0.10333252 -0.39135742 0 0 0 0
-0.032684326 0.10333252 -0.39135742 0 0 0 0
-0.031463623 0.10333252 -0.39135742 0 0 0 0
-0.030258179 0.10333252 -0.39135742 0 0 0 0
-0.029037476 0.10333252 -0.39135742 0 0 0 0
-0.027893066 0.10357666 -0.39233398 0 0 0 0
-0.026672363 0.10357666 -0.39233398 0 0 0 0
-0.02545166 0.10357666 -0.39233398 0 0 0 0
-0.024230957 0.10357666 -0.39233398 0 0 0 0
-0.023010254 0.10357666 -0.39233398 0 0 0 0
-0.021850586 0.1038208 -0.39331055 0 0 0 0
-0.020629883 0.1038208 -0.39331055 0 0 0 0
-0.019348145 0.10357666 -0.39233398 0 0 0 0
-0.0181427 0.10357666 -0.39233398 0 0 0 0
-0.016921997 0.10357666 -0.39233398 0 0 0 0
-0.015701294 0.10357666 -0.39233398 0 0 0 0
-0.014442444 0.10333252 -0.39135742 0 0 0 0
-0.01322937 0.10333252 -0.39135742 0 0 0 0
-0.012008667 0.10333252 -0.39135742 0 0 0 0
-0.010765076 0.10302734 -0.39038086 0 0 0 0
-0.009552002 0.10302734 -0.39038086 0 0 0 0
-0.00831604 0.1027832 -0.3894043 0 0 0 0
-0.0070915222 0.10253906 -0.38842773 0 0 0 0
-0.0058860779 0.10253906 -0.38842773 0 0 0 0
-0.0046653748 0.10223389 -0.38745117 0 0 0 0
-0.0034542084 0.10198975 -0.38647461 0 0 0 0
-0.0022468567 0.10174561 -0.38549805 0 0 0 0
-0.0010471344 0.10144043 -0.38427734 0 0 0 0
0.0001462698 0.10119629 -0.38330078 0 0 0 0
0.0013341904 0.10095215 -0.38232422 0 0 0 0
0.0025157928 0.10064697 -0.38134766 0 0 0 0
0.0037002563 0.10064697 -0.38134766 0 0 0 0
0.0048713684 0.10040283 -0.38037109 0 0 0 0
0.0060539246 0.10040283 -0.38037109 0 0 0 0
0.0072174072 0.10015869 -0.37939453 0 0 0 0
0.008392334 0.10015869 -0.37939453 0 0 0 0
0.0095748901 0.10015869 -0.37939453 0 0 0 0
0.010749817 0.10015869 -0.37939453 0 0 0 0
0.011932373 0.10015869 -0.37939453 0 0 0 0
0.0131073 0.10015869 -0.37939453 0 0 0 0
0.014289856 0.10015869 -0.37939453 0 0 0 0
0.015464783 0.10015869 -0.37939453 0 0 0 0
0.016647339 0.10015869 -0.37939453 0 0 0 0
0.017822266 0.10015869 -0.37939453 0 0 0 0
0.018997192 0.10015869 -0.37939453 0 0 0 0
0.020187378 0.10015869 -0.37939453 0 0 0 0
0.021408081 0.10040283 -0.38037109 0 0 0 0
0.022598267 0.10040283 -0.38037109 0 0 0 0
0.023773193 0.10040283 -0.38037109 0 0 0 0
0.024963379 0.10040283 -0.38037109 0 0 0 0
0.026138306 0.10040283 -0.38037109 0 0 0 0
0.027328491 0.10040283 -0.38037109 0 0 0 0
0.028503418 0.10040283 -0.38037109 0 0 0 0
0.02961731 0.10015869 -0.37939453 0 0 0 0
0.030715942 0.099853516 -0.37841797 0 0 0 0
0.031524658 0.098815918 -0.37426758 0 0 0 0
0.032440186 0.098022461 -0.37133789 0 0 0 0
0.033508301 0.09777832 -0.37036133 0 0 0 0
0.034545898 0.097473145 -0.36938477 0 0 0 0
0.035614014 0.097229004 -0.3684082 0 0 0 0
0.036651611 0.096984863 -0.36743164 0 0 0 0
0.037689209 0.096679688 -0.36621094 0 0 0 0
0.038726807 0.096435547 -0.36523438 0 0 0 0
0.039855957 0.096435547 -0.36523438 0 0 0 0
0.040985107 0.096435547 -0.36523438 0 0 0 0
0.042144775 0.096435547 -0.36523438 0 0 0 0
0.043395996 0.096679688 -0.36621094 0 0 0 0
0.044647217 0.096984863 -0.36743164 0 0 0 0
0.046051025 0.097473145 -0.36938477 0 0 0 0
0.047302246 0.09777832 -0.37036133 0 0 0 0
0.048583984 0.098022461 -0.37133789 0 0 0 0
0.049743652 0.098022461 -0.37133789 0 0 0 0
0.05078125 0.09777832 -0.37036133 0 0 0 0
0.0519104 0.09777832 -0.37036133 0 0 0 0
0.05291748 0.097473145 -0.36938477 0 0 0 0
0.053924561 0.097229004 -0.3684082 0 0 0 0
0.054931641 0.096984863 -0.36743164 0 0 0 0
0.055908203 0.096679688 -0.36621094 0 0 0 0
0.057037354 0.096679688 -0.36621094 0 0 0 0
0.058013916 0.096435547 -0.36523438 0 0 0 0
0.059173584 0.096435547 -0.36523438 0 0 0 0
0.060302734 0.096435547 -0.36523438 0 0 0 0
0.061431885 0.096435547 -0.36523438 0 0 0 0
0.062744141 0.096679688 -0.36621094 0 0 0 0
0.063842773 0.096679688 -0.36621094 0 0 0 0
0.065002441 0.096679688 -0.36621094 0 0 0 0
0.066162109 0.096679688 -0.36621094 0 0 0 0
0.067260742 0.096679688 -0.36621094 0 0 0 0
0.06842041 0.096679688 -0.36621094 0 0 0 0
0.069580078 0.096679688 -0.36621094 0 0 0 0
0.070861816 0.096984863 -0.36743164 0 0 0 0
0.072021484 0.096984863 -0.36743164 0 0 0 0
0.073364258 0.097229004 -0.3684082 0 0 0 0
0.074523926 0.097229004 -0.3684082 0 0 0 0
0.075866699 0.097473145 -0.36938477 0 0 0 0
0.077026367 0.097473145 -0.36938477 0 0 0 0
0.078186035 0.097473145 -0.36938477 0 0 0 0
-0.039245605 0.10339355 -0.39648438 0 0 0 0
-0.037841797 0.10290527 -0.39453125 0 0 0 0
-0.036407471 0.10235596 -0.39233398 0 0 0 0
-0.035186768 0.10235596 -0.39233398 0 0 0 0
-0.033996582 0.10235596 -0.39233398 0 0 0 0
-0.032775879 0.10235596 -0.39233398 0 0 0 0
-0.031555176 0.10235596 -0.39233398 0 0 0 0
-0.030334473 0.10235596 -0.39233398 0 0 0 0
-0.02911377 0.10235596 -0.39233398 0 0 0 0
-0.027893066 0.10235596 -0.39233398 0 0 0 0
-0.026672363 0.10235596 -0.39233398 0 0 0 0
-0.025512695 0.1026001 -0.39331055 0 0 0 0
-0.024291992 0.1026001 -0.39331055 0 0 0 0
-0.023071289 0.1026001 -0.39331055 0 0 0 0
-0.021850586 0.1026001 -0.39331055 0 0 0 0
-0.020629883 0.1026001 -0.39331055 0 0 0 0
-0.01940918 0.1026001 -0.39331055 0 0 0 0
-0.018188477 0.1026001 -0.39331055 0 0 0 0
-0.016952515 0.1026001 -0.39331055 0 0 0 0
-0.015701294 0.10235596 -0.39233398 0 0 0 0
-0.014480591 0.10235596 -0.39233398 0 0 0 0
-0.01322937 0.10211182 -0.39135742 0 0 0 0
-0.012008667 0.10211182 -0.39135742 0 0 0 0
-0.010765076 0.10180664 -0.39038086 0 0 0 0
-0.009552002 0.10180664 -0.39038086 0 0 0 0
-0.00831604 0.1015625 -0.3894043 0 0 0 0
-0.0071105957 0.1015625 -0.3894043 0 0 0 0
-0.0058860779 0.10131836 -0.38842773 0 0 0 0
-0.0046653748 0.10107422 -0.38745117 0 0 0 0
-0.0034542084 0.10076904 -0.38647461 0 0 0 0
-0.0022468567 0.1005249 -0.38549805 0 0 0 0
-0.0010471344 0.10028076 -0.38427734 0 0 0 0
0.0001462698 0.099975586 -0.38330078 0 0 0 0
0.0013341904 0.099731445 -0.38232422 0 0 0 0
0.0025157928 0.099487305 -0.38134766 0 0 0 0
0.0037002563 0.099487305 -0.38134766 0 0 0 0
0.0048713684 0.099243164 -0.38037109 0 0 0 0
0.0060539246 0.099243164 -0.38037109 0 0 0 0
0.0072174072 0.098937988 -0.37939453 0 0 0 0
0.008392334 0.098937988 -0.37939453 0 0 0 0
0.0095748901 0.098937988 -0.37939453 0 0 0 0
0.010749817 0.098937988 -0.37939453 0 0 0 0
0.011901855 0.098693848 -0.37841797 0 0 0 0
0.013076782 0.098693848 -0.37841797 0 0 0 0
0.014251709 0.098693848 -0.37841797 0 0 0 0
0.015426636 0.098693848 -0.37841797 0 0 0 0
0.016647339 0.098937988 -0.37939453 0 0 0 0
0.017822266 0.098937988 -0.37939453 0 0 0 0
0.018997192 0.098937988 -0.37939453 0 0 0 0
0.020187378 0.098937988 -0.37939453 0 0 0 0
0.021408081 0.099243164 -0.38037109 0 0 0 0
0.022598267 0.099243164 -0.38037109 0 0 0 0
0.023773193 0.099243164 -0.38037109 0 0 0 0
0.024963379 0.099243164 -0.38037109 0 0 0 0
0.026138306 0.099243164 -0.38037109 0 0 0 0
0.027328491 0.099243164 -0.38037109 0 0 0 0
0.028427124 0.098937988 -0.37939453 0 0 0 0
0.029541016 0.098693848 -0.37841797 0 0 0 0
0.03062439 0.098449707 -0.37744141 0 0 0 0
0.031524658 0.09765625 -0.37426758 0 0 0 0
0.032531738 0.097106934 -0.37231445 0 0 0 0
0.033508301 0.096618652 -0.37036133 0 0 0 0
0.034545898 0.096313477 -0.36938477 0 0 0 0
0.035614014 0.096069336 -0.3684082 0 0 0 0
0.036651611 0.095825195 -0.36743164 0 0 0 0
0.037689209 0.095581055 -0.36621094 0 0 0 0
0.038726807 0.095275879 -0.36523438 0 0 0 0
0.039855957 0.095275879 -0.36523438 0 0 0 0
0.040985107 0.095275879 -0.36523438 0 0 0 0
0.042144775 0.095275879 -0.36523438 0 0 0 0
0.043395996 0.095581055 -0.36621094 0 0 0 0
0.044647217 0.095825195 -0.36743164 0 0 0 0
0.046051025 0.096313477 -0.36938477 0 0 0 0
0.047302246 0.096618652 -0.37036133 0 0 0 0
0.048461914 0.096618652 -0.37036133 0 0 0 0
0.049743652 0.096862793 -0.37133789 0 0 0 0
0.05078125 0.096618652 -0.37036133 0 0 0 0
0.0519104 0.096618652 -0.37036133 0 0 0 0
0.05291748 0.096313477 -0.36938477 0 0 0 0
0.053924561 0.096069336 -0.3684082 0 0 0 0
0.054931641 0.095825195 -0.36743164 0 0 0 0
0.055908203 0.095581055 -0.36621094 0 0 0 0
0.057037354 0.095581055 -0.36621094 0 0 0 0
0.058013916 0.095275879 -0.36523438 0 0 0 0
0.059173584 0.095275879 -0.36523438 0 0 0 0
0.060302734 0.095275879 -0.36523438 0 0 0 0
0.061431885 0.095275879 -0.36523438 0 0 0 0
0.062744141 0.095581055 -0.36621094 0 0 0 0
0.063842773 0.095581055 -0.36621094 0 0 0 0
0.065002441 0.095581055 -0.36621094 0 0 0 0
0.066162109 0.095581055 -0.36621094 0 0 0 0
0.067260742 0.095581055 -0.36621094 0 0 0 0
0.06842041 0.095581055 -0.36621094 0 0 0 0
0.069580078 0.095581055 -0.36621094 0 0 0 0
0.070861816 0.095825195 -0.36743164 0 0 0 0
0.072021484 0.095825195 -0.36743164 0 0 0 0
0.073364258 0.096069336 -0.3684082 0 0 0 0
0.074523926 0.096069336 -0.3684082 0 0 0 0
0.075866699 0.096313477 -0.36938477 0 0 0 0
0.077026367 0.096313477 -0.36938477 0 0 0 0
0.078186035 0.096313477 -0.36938477 0 0 0 0
-0.039245605 0.10217285 -0.39648438 0 0 0 0
-0.03793335 0.10192871 -0.39550781 0 0 0 0
-0.036621094 0.10168457 -0.39453125 0 0 0 0
-0.03527832 0.10137939 -0.39331055 0 0 0 0
-0.034057617 0.10137939 -0.39331055 0 0 0 0
-0.032836914 0.10137939 -0.39331055 0 0 0 0
-0.031616211 0.10137939 -0.39331055 0 0 0 0
-0.030410767 0.10137939 -0.39331055 0 0 0 0
-0.029190063 0.10137939 -0.39331055 0 0 0 0
-0.02796936 0.10137939 -0.39331055 0 0 0 0
-0.026733398 0.10137939 -0.39331055 0 0 0 0
-0.025512695 0.10137939 -0.39331055 0 0 0 0
-0.024291992 0.10137939 -0.39331055 0 0 0 0
-0.023132324 0.10168457 -0.39453125 0 0 0 0
-0.021911621 0.10168457 -0.39453125 0 0 0 0
-0.020675659 0.10168457 -0.39453125 0 0 0 0
-0.019454956 0.10168457 -0.39453125 0 0 0 0
-0.018188477 0.10137939 -0.39331055 0 0 0 0
-0.016952515 0.10137939 -0.39331055 0 0 0 0
-0.015731812 0.10137939 -0.39331055 0 0 0 0
-0.014480591 0.10113525 -0.39233398 0 0 0 0
-0.013259888 0.10113525 -0.39233398 0 0 0 0
-0.012008667 0.10089111 -0.39135742 0 0 0 0
-0.010795593 0.10089111 -0.39135742 0 0 0 0
-0.009552002 0.10064697 -0.39038086 0 0 0 0
-0.0083389282 0.10064697 -0.39038086 0 0 0 0
-0.0071105957 0.1003418 -0.3894043 0 0 0 0
-0.0058860779 0.10009766 -0.38842773 0 0 0 0
-0.0046653748 0.099853516 -0.38745117 0 0 0 0
-0.0034542084 0.099609375 -0.38647461 0 0 0 0
-0.0022468567 0.099304199 -0.38549805 0 0 0 0
-0.0010471344 0.099060059 -0.38427734 0 0 0 0
0.0001462698 0.098815918 -0.38330078 0 0 0 0
0.0013341904 0.098571777 -0.38232422 0 0 0 0
0.0025157928 0.098266602 -0.38134766 0 0 0 0
0.0037002563 0.098266602 -0.38134766 0 0 0 0
0.0048713684 0.098022461 -0.38037109 0 0 0 0
0.0060386658 0.09777832 -0.37939453 0 0 0 0
0.0072174072 0.09777832 -0.37939453 0 0 0 0
0.008392334 0.09777832 -0.37939453 0 0 0 0
0.0095748901 0.09777832 -0.37939453 0 0 0 0
0.010726929 0.09753418 -0.37841797 0 0 0 0
0.011901855 0.09753418 -0.37841797 0 0 0 0
0.013076782 0.09753418 -0.37841797 0 0 0 0
0.014251709 0.09753418 -0.37841797 0 0 0 0
0.015426636 0.09753418 -0.37841797 0 0 0 0
0.016601562 0.09753418 -0.37841797 0 0 0 0
0.017822266 0.09777832 -0.37939453 0 0 0 0
0.018997192 0.09777832 -0.37939453 0 0 0 0
0.020187378 0.09777832 -0.37939453 0 0 0 0
0.021362305 0.09777832 -0.37939453 0 0 0 0
0.022598267 0.098022461 -0.38037109 0 0 0 0
0.023773193 0.098022461 -0.38037109 0 0 0 0
0.024963379 0.098022461 -0.38037109 0 0 0 0
0.026138306 0.098022461 -0.38037109 0 0 0 0
0.027252197 0.09777832 -0.37939453 0 0 0 0
0.02835083 0.09753418 -0.37841797 0 0 0 0
0.029449463 0.097290039 -0.37744141 0 0 0 0
0.030548096 0.096984863 -0.37646484 0 0 0 0
0.031524658 0.096496582 -0.37426758 0 0 0 0
0.032531738 0.095947266 -0.37231445 0 0 0 0
0.033599854 0.095703125 -0.37133789 0 0 0 0
0.034667969 0.095458984 -0.37036133 0 0 0 0
0.035705566 0.095214844 -0.36938477 0 0 0 0
0.036651611 0.094665527 -0.36743164 0 0 0 0
0.037689209 0.094421387 -0.36621094 0 0 0 0
0.038818359 0.094421387 -0.36621094 0 0 0 0
0.039855957 0.094177246 -0.36523438 0 0 0 0
0.040985107 0.094177246 -0.36523438 0 0 0 0
0.042236328 0.094421387 -0.36621094 0 0 0 0
0.043395996 0.094421387 -0.36621094 0 0 0 0
0.044769287 0.094909668 -0.3684082 0 0 0 0
0.046051025 0.095214844 -0.36938477 0 0 0 0
0.047302246 0.095458984 -0.37036133 0 0 0 0
0.048583984 0.095703125 -0.37133789 0 0 0 0
0.049743652 0.095703125 -0.37133789 0 0 0 0
0.05078125 0.095458984 -0.37036133 0 0 0 0
0.0519104 0.095458984 -0.37036133 0 0 0 0
0.05291748 0.095214844 -0.36938477 0 0 0 0
0.053924561 0.094909668 -0.3684082 0 0 0 0
0.054931641 0.094665527 -0.36743164 0 0 0 0
0.055908203 0.094421387 -0.36621094 0 0 0 0
0.057037354 0.094421387 -0.36621094 0 0 0 0
0.058013916 0.094177246 -0.36523438 0 0 0 0
0.059173584 0.094177246 -0.36523438 0 0 0 0
0.060302734 0.094177246 -0.36523438 0 0 0 0
0.06161499 0.094421387 -0.36621094 0 0 0 0
0.062744141 0.094421387 -0.36621094 0 0 0 0
0.063842773 0.094421387 -0.36621094 0 0 0 0
0.065002441 0.094421387 -0.36621094 0 0 0 0
0.066162109 0.094421387 -0.36621094 0 0 0 0
0.067260742 0.094421387 -0.36621094 0 0 0 0
0.06842041 0.094421387 -0.36621094 0 0 0 0
0.069580078 0.094421387 -0.36621094 0 0 0 0
0.070861816 0.094665527 -0.36743164 0 0 0 0
0.072021484 0.094665527 -0.36743164 0 0 0 0
0.073364258 0.094909668 -0.3684082 0 0 0 0
0.074523926 0.094909668 -0.3684082 0 0 0 0
0.075866699 0.095214844 -0.36938477 0 0 0 0
0.077026367 0.095214844 -0.36938477 0 0 0 0
0.078369141 0.095458984 -0.37036133 0 0 0 0
-0.040679932 0.10144043 -0.3984375 0 0 0 0
-0.039367676 0.10119629 -0.39746094 0 0 0 0
-0.038116455 0.10119629 -0.39746094 0 0 0 0
-0.036712646 0.10070801 -0.39550781 0 0 0 0
-0.035461426 0.10070801 -0.39550781 0 0 0 0
