ply
format ascii 1.0
comment PCL generated
element vertex 1095
property float x
property float y
property float z
property float nx
property float ny
property float nz
property float curvature
element face 0
element camera 0
property float view_px
property float view_py
property float view_pz
property float x_axisx
property float x_axisy
property float x_axisz
property float y_axisx
property float y_axisy
property float y_axisz
property float z_axisx
property float z_axisy
property float z_axisz
property float focal
property float scalex
property float scaley
property float centerx
property float centery
property int viewportx
property int viewporty
property float k1
property float k2
end_header
0.097106934 0.051818848 -0.30908203 0 0 0 0
0.09777832 0.05166626 -0.30810547 0 0 0 0
0.098693848 0.05166626 -0.30810547 0 0 0 0
0.099365234 0.051483154 -0.30712891 0 0 0 0
0.10028076 0.051483154 -0.30712891 0 0 0 0
0.10095215 0.051330566 -0.30615234 0 0 0 0
0.10186768 0.051330566 -0.30615234 0 0 0 0
0.10247803 0.051147461 -0.30517578 0 0 0 0
0.10345459 0.051147461 -0.30517578 0 0 0 0
0.10406494 0.050964355 -0.30395508 0 0 0 0
0.10461426 0.050811768 -0.30297852 0 0 0 0
0.10559082 0.050811768 -0.30297852 0 0 0 0
0.10620117 0.050628662 -0.30200195 0 0 0 0
0.1071167 0.050628662 -0.30200195 0 0 0 0
0.10766602 0.050476074 -0.30102539 0 0 0 0
0.10864258 0.050476074 -0.30102539 0 0 0 0
0.10919189 0.050292969 -0.30004883 0 0 0 0
0.11010742 0.050292969 -0.30004883 0 0 0 0
0.11071777 0.050140381 -0.29907227 0 0 0 0
0.1116333 0.050140381 -0.29907227 0 0 0 0
0.11254883 0.050140381 -0.29907227 0 0 0 0
0.11309814 0.049957275 -0.2980957 0 0 0 0
0.11401367 0.049957275 -0.2980957 0 0 0 0
0.11456299 0.049804688 -0.29711914 0 0 0 0
0.11547852 0.049804688 -0.29711914 0 0 0 0
0.11639404 0.049804688 -0.29711914 0 0 0 0
0.11730957 0.049804688 -0.29711914 0 0 0 0
0.11785889 0.049621582 -0.29614258 0 0 0 0
0.11877441 0.049621582 -0.29614258 0 0 0 0
0.11968994 0.049621582 -0.29614258 0 0 0 0
0.12017822 0.049468994 -0.29492188 0 0 0 0
0.12115479 0.049468994 -0.29492188 0 0 0 0
0.12207031 0.049468994 -0.29492188 0 0 0 0
0.12298584 0.049468994 -0.29492188 0 0 0 0
0.12390137 0.049468994 -0.29492188 0 0 0 0
0.12481689 0.049468994 -0.29492188 0 0 0 0
0.12573242 0.049468994 -0.29492188 0 0 0 0
0.12658691 0.049468994 -0.29492188 0 0 0 0
0.12756348 0.049468994 -0.29492188 0 0 0 0
0.12890625 0.049621582 -0.29614258 0 0 0 0
0.12976074 0.049621582 -0.29614258 0 0 0 0
0.1307373 0.049621582 -0.29614258 0 0 0 0
0.025665283 0.061431885 -0.37329102 0 0 0 0
0.026748657 0.061279297 -0.37231445 0 0 0 0
0.027908325 0.061279297 -0.37231445 0 0 0 0
0.028900146 0.060943604 -0.37036133 0 0 0 0
0.030059814 0.060943604 -0.37036133 0 0 0 0
0.03112793 0.060760498 -0.36938477 0 0 0 0
0.032165527 0.06060791 -0.3684082 0 0 0 0
0.033233643 0.060455322 -0.36743164 0 0 0 0
0.034362793 0.060455322 -0.36743164 0 0 0 0
0.035430908 0.060272217 -0.36621094 0 0 0 0
0.036560059 0.060272217 -0.36621094 0 0 0 0
0.037689209 0.060272217 -0.36621094 0 0 0 0
0.038726807 0.060119629 -0.36523438 0 0 0 0
0.039855957 0.060119629 -0.36523438 0 0 0 0
0.040985107 0.060119629 -0.36523438 0 0 0 0
0.042144775 0.060119629 -0.36523438 0 0 0 0
0.043151855 0.059936523 -0.36425781 0 0 0 0
0.044281006 0.059936523 -0.36425781 0 0 0 0
0.045410156 0.059936523 -0.36425781 0 0 0 0
0.046417236 0.059783936 -0.36328125 0 0 0 0
0.047546387 0.059783936 -0.36328125 0 0 0 0
0.048553467 0.05960083 -0.36230469 0 0 0 0
0.0496521 0.05960083 -0.36230469 0 0 0 0
0.05065918 0.059448242 -0.36132812 0 0 0 0
0.051635742 0.059295654 -0.36035156 0 0 0 0
0.052734375 0.059295654 -0.36035156 0 0 0 0
0.053863525 0.059295654 -0.36035156 0 0 0 0
0.054992676 0.059295654 -0.36035156 0 0 0 0
0.056121826 0.059295654 -0.36035156 0 0 0 0
0.095214844 0.050872803 -0.30908203 0 0 0 0
0.096130371 0.050872803 -0.30908203 0 0 0 0
0.097106934 0.050872803 -0.30908203 0 0 0 0
0.09777832 0.050689697 -0.30810547 0 0 0 0
0.098693848 0.050689697 -0.30810547 0 0 0 0
0.099365234 0.050537109 -0.30712891 0 0 0 0
0.10028076 0.050537109 -0.30712891 0 0 0 0
0.10095215 0.050354004 -0.30615234 0 0 0 0
0.10186768 0.050354004 -0.30615234 0 0 0 0
0.10247803 0.050201416 -0.30517578 0 0 0 0
0.10345459 0.050201416 -0.30517578 0 0 0 0
0.10406494 0.050048828 -0.30395508 0 0 0 0
0.10498047 0.050048828 -0.30395508 0 0 0 0
0.10559082 0.049865723 -0.30297852 0 0 0 0
0.10650635 0.049865723 -0.30297852 0 0 0 0
0.1071167 0.049713135 -0.30200195 0 0 0 0
0.10803223 0.049713135 -0.30200195 0 0 0 0
0.10864258 0.049530029 -0.30102539 0 0 0 0
0.10955811 0.049530029 -0.30102539 0 0 0 0
0.11010742 0.049377441 -0.30004883 0 0 0 0
0.11108398 0.049377441 -0.30004883 0 0 0 0
0.1116333 0.049194336 -0.29907227 0 0 0 0
0.11254883 0.049194336 -0.29907227 0 0 0 0
0.11346436 0.049194336 -0.29907227 0 0 0 0
0.11401367 0.049041748 -0.2980957 0 0 0 0
0.1149292 0.049041748 -0.2980957 0 0 0 0
0.11590576 0.049041748 -0.2980957 0 0 0 0
0.11639404 0.04888916 -0.29711914 0 0 0 0
0.11730957 0.04888916 -0.29711914 0 0 0 0
0.11828613 0.04888916 -0.29711914 0 0 0 0
0.11877441 0.048706055 -0.29614258 0 0 0 0
0.11968994 0.048706055 -0.29614258 0 0 0 0
0.12060547 0.048706055 -0.29614258 0 0 0 0
0.121521 0.048706055 -0.29614258 0 0 0 0
0.12243652 0.048706055 -0.29614258 0 0 0 0
0.12298584 0.048553467 -0.29492188 0 0 0 0
0.12390137 0.048553467 -0.29492188 0 0 0 0
0.12524414 0.048706055 -0.29614258 0 0 0 0
0.12609863 0.048706055 -0.29614258 0 0 0 0
0.1270752 0.048706055 -0.29614258 0 0 0 0
0.12792969 0.048706055 -0.29614258 0 0 0 0
0.12890625 0.048706055 -0.29614258 0 0 0 0
0.12976074 0.048706055 -0.29614258 0 0 0 0
0.1307373 0.048706055 -0.29614258 0 0 0 0
0.025665283 0.060272217 -0.37329102 0 0 0 0
0.026824951 0.060272217 -0.37329102 0 0 0 0
0.027908325 0.060119629 -0.37231445 0 0 0 0
0.028991699 0.059936523 -0.37133789 0 0 0 0
0.030059814 0.059783936 -0.37036133 0 0 0 0
0.03112793 0.059631348 -0.36938477 0 0 0 0
0.032165527 0.059448242 -0.3684082 0 0 0 0
0.033325195 0.059448242 -0.3684082 0 0 0 0
0.034362793 0.059295654 -0.36743164 0 0 0 0
0.035522461 0.059295654 -0.36743164 0 0 0 0
0.036560059 0.059143066 -0.36621094 0 0 0 0
0.037689209 0.059143066 -0.36621094 0 0 0 0
0.038818359 0.059143066 -0.36621094 0 0 0 0
0.039978027 0.059143066 -0.36621094 0 0 0 0
0.041107178 0.059143066 -0.36621094 0 0 0 0
0.042144775 0.058959961 -0.36523438 0 0 0 0
0.043273926 0.058959961 -0.36523438 0 0 0 0
0.044403076 0.058959961 -0.36523438 0 0 0 0
0.045410156 0.058807373 -0.36425781 0 0 0 0
0.046539307 0.058807373 -0.36425781 0 0 0 0
0.047546387 0.058654785 -0.36328125 0 0 0 0
0.048675537 0.058654785 -0.36328125 0 0 0 0
0.0496521 0.058502197 -0.36230469 0 0 0 0
0.05078125 0.058502197 -0.36230469 0 0 0 0
0.05178833 0.058319092 -0.36132812 0 0 0 0
0.052886963 0.058319092 -0.36132812 0 0 0 0
0.054016113 0.058319092 -0.36132812 0 0 0 0
0.055145264 0.058319092 -0.36132812 0 0 0 0
0.056274414 0.058319092 -0.36132812 0 0 0 0
0.057373047 0.058319092 -0.36132812 0 0 0 0
0.095214844 0.04989624 -0.30908203 0 0 0 0
0.096130371 0.04989624 -0.30908203 0 0 0 0
0.097106934 0.04989624 -0.30908203 0 0 0 0
0.09777832 0.049743652 -0.30810547 0 0 0 0
0.098693848 0.049743652 -0.30810547 0 0 0 0
0.099365234 0.049560547 -0.30712891 0 0 0 0
0.10028076 0.049560547 -0.30712891 0 0 0 0
0.10095215 0.049407959 -0.30615234 0 0 0 0
0.10186768 0.049407959 -0.30615234 0 0 0 0
0.10284424 0.049407959 -0.30615234 0 0 0 0
0.10345459 0.049255371 -0.30517578 0 0 0 0
0.10406494 0.049102783 -0.30395508 0 0 0 0
0.10498047 0.049102783 -0.30395508 0 0 0 0
0.10595703 0.049102783 -0.30395508 0 0 0 0
0.10650635 0.048919678 -0.30297852 0 0 0 0
0.10748291 0.048919678 -0.30297852 0 0 0 0
0.10803223 0.04876709 -0.30200195 0 0 0 0
0.10900879 0.04876709 -0.30200195 0 0 0 0
0.10955811 0.048614502 -0.30102539 0 0 0 0
0.11047363 0.048614502 -0.30102539 0 0 0 0
0.11108398 0.048431396 -0.30004883 0 0 0 0
0.11199951 0.048431396 -0.30004883 0 0 0 0
0.11254883 0.048278809 -0.29907227 0 0 0 0
0.11346436 0.048278809 -0.29907227 0 0 0 0
0.11437988 0.048278809 -0.29907227 0 0 0 0
0.1149292 0.048126221 -0.2980957 0 0 0 0
0.11590576 0.048126221 -0.2980957 0 0 0 0
0.11682129 0.048126221 -0.2980957 0 0 0 0
0.11730957 0.047943115 -0.29711914 0 0 0 0
0.11828613 0.047943115 -0.29711914 0 0 0 0
0.11920166 0.047943115 -0.29711914 0 0 0 0
0.11968994 0.047790527 -0.29614258 0 0 0 0
0.12060547 0.047790527 -0.29614258 0 0 0 0
0.121521 0.047790527 -0.29614258 0 0 0 0
0.12243652 0.047790527 -0.29614258 0 0 0 0
0.12335205 0.047790527 -0.29614258 0 0 0 0
0.12426758 0.047790527 -0.29614258 0 0 0 0
0.12524414 0.047790527 -0.29614258 0 0 0 0
0.12609863 0.047790527 -0.29614258 0 0 0 0
0.1270752 0.047790527 -0.29614258 0 0 0 0
0.12841797 0.047943115 -0.29711914 0 0 0 0
0.12890625 0.047790527 -0.29614258 0 0 0 0
0.13024902 0.047943115 -0.29711914 0 0 0 0
0.13110352 0.047943115 -0.29711914 0 0 0 0
0.025726318 0.059265137 -0.37426758 0 0 0 0
0.026824951 0.059112549 -0.37329102 0 0 0 0
0.027984619 0.059112549 -0.37329102 0 0 0 0
0.028991699 0.058807373 -0.37133789 0 0 0 0
0.030136108 0.058807373 -0.37133789 0 0 0 0
0.03112793 0.05847168 -0.36938477 0 0 0 0
0.03225708 0.05847168 -0.36938477 0 0 0 0
0.033325195 0.058319092 -0.3684082 0 0 0 0
0.034454346 0.058319092 -0.3684082 0 0 0 0
0.035522461 0.058166504 -0.36743164 0 0 0 0
0.036651611 0.058166504 -0.36743164 0 0 0 0
0.037811279 0.058166504 -0.36743164 0 0 0 0
0.03894043 0.058166504 -0.36743164 0 0 0 0
0.039978027 0.058013916 -0.36621094 0 0 0 0
0.041107178 0.058013916 -0.36621094 0 0 0 0
0.042236328 0.058013916 -0.36621094 0 0 0 0
0.043395996 0.058013916 -0.36621094 0 0 0 0
0.044403076 0.057830811 -0.36523438 0 0 0 0
0.045532227 0.057830811 -0.36523438 0 0 0 0
0.046661377 0.057830811 -0.36523438 0 0 0 0
0.047668457 0.057678223 -0.36425781 0 0 0 0
0.048797607 0.057678223 -0.36425781 0 0 0 0
0.049804688 0.057525635 -0.36328125 0 0 0 0
0.05078125 0.057373047 -0.36230469 0 0 0 0
0.0519104 0.057373047 -0.36230469 0 0 0 0
0.053039551 0.057373047 -0.36230469 0 0 0 0
0.054016113 0.057189941 -0.36132812 0 0 0 0
0.055145264 0.057189941 -0.36132812 0 0 0 0
0.056274414 0.057189941 -0.36132812 0 0 0 0
0.095214844 0.048950195 -0.30908203 0 0 0 0
0.096130371 0.048950195 -0.30908203 0 0 0 0
0.097106934 0.048950195 -0.30908203 0 0 0 0
0.09777832 0.04876709 -0.30810547 0 0 0 0
0.098693848 0.04876709 -0.30810547 0 0 0 0
0.09967041 0.04876709 -0.30810547 0 0 0 0
0.10028076 0.048614502 -0.30712891 0 0 0 0
0.10125732 0.048614502 -0.30712891 0 0 0 0
0.10186768 0.048461914 -0.30615234 0 0 0 0
0.10284424 0.048461914 -0.30615234 0 0 0 0
0.10345459 0.048309326 -0.30517578 0 0 0 0
0.10437012 0.048309326 -0.30517578 0 0 0 0
0.10498047 0.048156738 -0.30395508 0 0 0 0
0.10595703 0.048156738 -0.30395508 0 0 0 0
0.10650635 0.047973633 -0.30297852 0 0 0 0
0.10748291 0.047973633 -0.30297852 0 0 0 0
0.10803223 0.047821045 -0.30200195 0 0 0 0
0.10900879 0.047821045 -0.30200195 0 0 0 0
0.10992432 0.047821045 -0.30200195 0 0 0 0
0.11047363 0.047668457 -0.30102539 0 0 0 0
0.1114502 0.047668457 -0.30102539 0 0 0 0
0.11199951 0.047515869 -0.30004883 0 0 0 0
0.11291504 0.047515869 -0.30004883 0 0 0 0
0.11346436 0.047363281 -0.29907227 0 0 0 0
0.11437988 0.047363281 -0.29907227 0 0 0 0
0.11535645 0.047363281 -0.29907227 0 0 0 0
0.11590576 0.047180176 -0.2980957 0 0 0 0
0.11682129 0.047180176 -0.2980957 0 0 0 0
0.11773682 0.047180176 -0.2980957 0 0 0 0
0.11828613 0.047027588 -0.29711914 0 0 0 0
0.11920166 0.047027588 -0.29711914 0 0 0 0
0.12011719 0.047027588 -0.29711914 0 0 0 0
0.12103271 0.047027588 -0.29711914 0 0 0 0
0.12194824 0.047027588 -0.29711914 0 0 0 0
0.12243652 0.046875 -0.29614258 0 0 0 0
0.12335205 0.046875 -0.29614258 0 0 0 0
0.12426758 0.046875 -0.29614258 0 0 0 0
0.12561035 0.047027588 -0.29711914 0 0 0 0
0.12658691 0.047027588 -0.29711914 0 0 0 0
0.12744141 0.047027588 -0.29711914 0 0 0 0
0.12841797 0.047027588 -0.29711914 0 0 0 0
0.12927246 0.047027588 -0.29711914 0 0 0 0
0.13061523 0.047180176 -0.2980957 0 0 0 0
0.13110352 0.047027588 -0.29711914 0 0 0 0
0.027908325 0.057800293 -0.37231445 0 0 0 0
0.030136108 0.057647705 -0.37133789 0 0 0 0
0.031204224 0.057495117 -0.37036133 0 0 0 0
0.032348633 0.057495117 -0.37036133 0 0 0 0
0.033416748 0.057342529 -0.36938477 0 0 0 0
0.034545898 0.057342529 -0.36938477 0 0 0 0
0.035614014 0.057159424 -0.3684082 0 0 0 0
0.036743164 0.057159424 -0.3684082 0 0 0 0
0.037811279 0.057006836 -0.36743164 0 0 0 0
0.03894043 0.057006836 -0.36743164 0 0 0 0
0.04006958 0.057006836 -0.36743164 0 0 0 0
0.041229248 0.057006836 -0.36743164 0 0 0 0
0.042358398 0.057006836 -0.36743164 0 0 0 0
0.043395996 0.056854248 -0.36621094 0 0 0 0
0.044525146 0.056854248 -0.36621094 0 0 0 0
0.045654297 0.056854248 -0.36621094 0 0 0 0
0.046661377 0.05670166 -0.36523438 0 0 0 0
0.047821045 0.05670166 -0.36523438 0 0 0 0
0.048797607 0.056549072 -0.36425781 0 0 0 0
0.049926758 0.056549072 -0.36425781 0 0 0 0
0.050933838 0.056396484 -0.36328125 0 0 0 0
0.052062988 0.056396484 -0.36328125 0 0 0 0
0.053039551 0.056243896 -0.36230469 0 0 0 0
0.054168701 0.056243896 -0.36230469 0 0 0 0
0.055297852 0.056243896 -0.36230469 0 0 0 0
0.056427002 0.056243896 -0.36230469 0 0 0 0
0.05770874 0.056396484 -0.36328125 0 0 0 0
0.095214844 0.047973633 -0.30908203 0 0 0 0
0.096130371 0.047973633 -0.30908203 0 0 0 0
0.097106934 0.047973633 -0.30908203 0 0 0 0
0.09777832 0.047821045 -0.30810547 0 0 0 0
0.098693848 0.047821045 -0.30810547 0 0 0 0
0.09967041 0.047821045 -0.30810547 0 0 0 0
0.10028076 0.047668457 -0.30712891 0 0 0 0
0.10125732 0.047668457 -0.30712891 0 0 0 0
0.10186768 0.047515869 -0.30615234 0 0 0 0
0.10284424 0.047515869 -0.30615234 0 0 0 0
0.10345459 0.047363281 -0.30517578 0 0 0 0
0.10437012 0.047363281 -0.30517578 0 0 0 0
0.10534668 0.047363281 -0.30517578 0 0 0 0
0.10595703 0.047210693 -0.30395508 0 0 0 0
0.10687256 0.047210693 -0.30395508 0 0 0 0
0.10748291 0.047058105 -0.30297852 0 0 0 0
0.10839844 0.047058105 -0.30297852 0 0 0 0
0.10900879 0.046875 -0.30200195 0 0 0 0
0.10992432 0.046875 -0.30200195 0 0 0 0
0.11047363 0.046722412 -0.30102539 0 0 0 0
0.1114502 0.046722412 -0.30102539 0 0 0 0
0.11236572 0.046722412 -0.30102539 0 0 0 0
0.11291504 0.046569824 -0.30004883 0 0 0 0
0.11383057 0.046569824 -0.30004883 0 0 0 0
0.11437988 0.046417236 -0.29907227 0 0 0 0
0.11535645 0.046417236 -0.29907227 0 0 0 0
0.11627197 0.046417236 -0.29907227 0 0 0 0
0.11682129 0.046264648 -0.2980957 0 0 0 0
0.11773682 0.046264648 -0.2980957 0 0 0 0
0.11865234 0.046264648 -0.2980957 0 0 0 0
0.11956787 0.046264648 -0.2980957 0 0 0 0
0.12011719 0.046112061 -0.29711914 0 0 0 0
0.12103271 0.046112061 -0.29711914 0 0 0 0
0.12194824 0.046112061 -0.29711914 0 0 0 0
0.12286377 0.046112061 -0.29711914 0 0 0 0
0.1237793 0.046112061 -0.29711914 0 0 0 0
0.12469482 0.046112061 -0.29711914 0 0 0 0
0.12561035 0.046112061 -0.29711914 0 0 0 0
0.12658691 0.046112061 -0.29711914 0 0 0 0
0.12792969 0.046264648 -0.2980957 0 0 0 0
0.12878418 0.046264648 -0.2980957 0 0 0 0
0.13012695 0.046417236 -0.29907227 0 0 0 0
0.13110352 0.046417236 -0.29907227 0 0 0 0
0.13208008 0.046417236 -0.29907227 0 0 0 0
0.029144287 0.056793213 -0.37329102 0 0 0 0
0.030471802 0.057098389 -0.37524414 0 0 0 0
0.031463623 0.056793213 -0.37329102 0 0 0 0
0.032348633 0.056335449 -0.37036133 0 0 0 0
0.033508301 0.056335449 -0.37036133 0 0 0 0
0.034545898 0.056182861 -0.36938477 0 0 0 0
0.035705566 0.056182861 -0.36938477 0 0 0 0
0.036865234 0.056182861 -0.36938477 0 0 0 0
0.037902832 0.056030273 -0.3684082 0 0 0 0
0.039031982 0.056030273 -0.3684082 0 0 0 0
0.04019165 0.056030273 -0.3684082 0 0 0 0
0.041229248 0.055877686 -0.36743164 0 0 0 0
0.042358398 0.055877686 -0.36743164 0 0 0 0
0.043518066 0.055877686 -0.36743164 0 0 0 0
0.044647217 0.055877686 -0.36743164 0 0 0 0
0.045654297 0.055725098 -0.36621094 0 0 0 0
0.046813965 0.055725098 -0.36621094 0 0 0 0
0.047821045 0.05557251 -0.36523438 0 0 0 0
0.048950195 0.05557251 -0.36523438 0 0 0 0
0.049926758 0.055419922 -0.36425781 0 0 0 0
0.051086426 0.055419922 -0.36425781 0 0 0 0
0.052062988 0.055267334 -0.36328125 0 0 0 0
0.053192139 0.055267334 -0.36328125 0 0 0 0
0.054321289 0.055267334 -0.36328125 0 0 0 0
0.055450439 0.055267334 -0.36328125 0 0 0 0
0.05657959 0.055267334 -0.36328125 0 0 0 0
0.05770874 0.055267334 -0.36328125 0 0 0 0
0.095214844 0.047027588 -0.30908203 0 0 0 0
0.096130371 0.047027588 -0.30908203 0 0 0 0
0.097106934 0.047027588 -0.30908203 0 0 0 0
0.09777832 0.046875 -0.30810547 0 0 0 0
0.098693848 0.046875 -0.30810547 0 0 0 0
0.09967041 0.046875 -0.30810547 0 0 0 0
0.10028076 0.046722412 -0.30712891 0 0 0 0
0.10125732 0.046722412 -0.30712891 0 0 0 0
0.10186768 0.046569824 -0.30615234 0 0 0 0
0.10284424 0.046569824 -0.30615234 0 0 0 0
0.10375977 0.046569824 -0.30615234 0 0 0 0
0.10437012 0.046417236 -0.30517578 0 0 0 0
0.10534668 0.046417236 -0.30517578 0 0 0 0
0.10595703 0.046264648 -0.30395508 0 0 0 0
0.10687256 0.046264648 -0.30395508 0 0 0 0
0.10784912 0.046264648 -0.30395508 0 0 0 0
0.10839844 0.046112061 -0.30297852 0 0 0 0
0.109375 0.046112061 -0.30297852 0 0 0 0
0.10992432 0.045959473 -0.30200195 0 0 0 0
0.11083984 0.045959473 -0.30200195 0 0 0 0
0.1114502 0.045806885 -0.30102539 0 0 0 0
0.11236572 0.045806885 -0.30102539 0 0 0 0
0.11328125 0.045806885 -0.30102539 0 0 0 0
0.11383057 0.045654297 -0.30004883 0 0 0 0
0.11480713 0.045654297 -0.30004883 0 0 0 0
0.11535645 0.045501709 -0.29907227 0 0 0 0
0.11627197 0.045501709 -0.29907227 0 0 0 0
0.1171875 0.045501709 -0.29907227 0 0 0 0
0.11810303 0.045501709 -0.29907227 0 0 0 0
0.11865234 0.045349121 -0.2980957 0 0 0 0
0.11956787 0.045349121 -0.2980957 0 0 0 0
0.1204834 0.045349121 -0.2980957 0 0 0 0
0.12145996 0.045349121 -0.2980957 0 0 0 0
0.12237549 0.045349121 -0.2980957 0 0 0 0
0.12329102 0.045349121 -0.2980957 0 0 0 0
0.12420654 0.045349121 -0.2980957 0 0 0 0
0.12512207 0.045349121 -0.2980957 0 0 0 0
0.12597656 0.045349121 -0.2980957 0 0 0 0
0.12695312 0.045349121 -0.2980957 0 0 0 0
0.1282959 0.045501709 -0.29907227 0 0 0 0
0.12927246 0.045501709 -0.29907227 0 0 0 0
0.13012695 0.045501709 -0.29907227 0 0 0 0
0.1315918 0.045654297 -0.30004883 0 0 0 0
0.13244629 0.045654297 -0.30004883 0 0 0 0
0.03137207 0.055480957 -0.37231445 0 0 0 0
0.032440186 0.055328369 -0.37133789 0 0 0 0
0.033508301 0.055175781 -0.37036133 0 0 0 0
0.034667969 0.055175781 -0.37036133 0 0 0 0
0.035797119 0.055175781 -0.37036133 0 0 0 0
0.036865234 0.055023193 -0.36938477 0 0 0 0
0.037994385 0.055023193 -0.36938477 0 0 0 0
0.039154053 0.055023193 -0.36938477 0 0 0 0
0.04019165 0.054870605 -0.3684082 0 0 0 0
0.041320801 0.054870605 -0.3684082 0 0 0 0
0.042480469 0.054870605 -0.3684082 0 0 0 0
0.043609619 0.054870605 -0.3684082 0 0 0 0
0.044647217 0.054718018 -0.36743164 0 0 0 0
0.045776367 0.054718018 -0.36743164 0 0 0 0
0.046813965 0.054595947 -0.36621094 0 0 0 0
0.047943115 0.054595947 -0.36621094 0 0 0 0
0.049072266 0.054595947 -0.36621094 0 0 0 0
0.050079346 0.054443359 -0.36523438 0 0 0 0
0.051208496 0.054443359 -0.36523438 0 0 0 0
0.052215576 0.054290771 -0.36425781 0 0 0 0
0.053344727 0.054290771 -0.36425781 0 0 0 0
0.054473877 0.054290771 -0.36425781 0 0 0 0
0.055450439 0.054138184 -0.36328125 0 0 0 0
0.05657959 0.054138184 -0.36328125 0 0 0 0
0.05770874 0.054138184 -0.36328125 0 0 0 0
0.095214844 0.046051025 -0.30908203 0 0 0 0
0.096130371 0.046051025 -0.30908203 0 0 0 0
0.097106934 0.046051025 -0.30908203 0 0 0 0
0.09777832 0.045898438 -0.30810547 0 0 0 0
0.098693848 0.045898438 -0.30810547 0 0 0 0
0.09967041 0.045898438 -0.30810547 0 0 0 0
0.10028076 0.04574585 -0.30712891 0 0 0 0
0.10125732 0.04574585 -0.30712891 0 0 0 0
0.10223389 0.04574585 -0.30712891 0 0 0 0
0.10284424 0.045593262 -0.30615234 0 0 0 0
0.10375977 0.045593262 -0.30615234 0 0 0 0
0.10437012 0.045471191 -0.30517578 0 0 0 0
0.10534668 0.045471191 -0.30517578 0 0 0 0
0.10626221 0.045471191 -0.30517578 0 0 0 0
0.10687256 0.045318604 -0.30395508 0 0 0 0
0.10784912 0.045318604 -0.30395508 0 0 0 0
0.10839844 0.045166016 -0.30297852 0 0 0 0
0.109375 0.045166016 -0.30297852 0 0 0 0
0.11029053 0.045166016 -0.30297852 0 0 0 0
0.11083984 0.045013428 -0.30200195 0 0 0 0
0.11181641 0.045013428 -0.30200195 0 0 0 0
0.11236572 0.04486084 -0.30102539 0 0 0 0
0.11328125 0.04486084 -0.30102539 0 0 0 0
0.11425781 0.04486084 -0.30102539 0 0 0 0
0.11480713 0.044708252 -0.30004883 0 0 0 0
0.11572266 0.044708252 -0.30004883 0 0 0 0
0.11663818 0.044708252 -0.30004883 0 0 0 0
0.1171875 0.044555664 -0.29907227 0 0 0 0
0.11810303 0.044555664 -0.29907227 0 0 0 0
0.11907959 0.044555664 -0.29907227 0 0 0 0
0.11956787 0.044403076 -0.2980957 0 0 0 0
0.1204834 0.044403076 -0.2980957 0 0 0 0
0.12145996 0.044403076 -0.2980957 0 0 0 0
0.12237549 0.044403076 -0.2980957 0 0 0 0
0.12329102 0.044403076 -0.2980957 0 0 0 0
0.12420654 0.044403076 -0.2980957 0 0 0 0
0.12512207 0.044403076 -0.2980957 0 0 0 0
0.12646484 0.044555664 -0.29907227 0 0 0 0
0.12744141 0.044555664 -0.29907227 0 0 0 0
0.1282959 0.044555664 -0.29907227 0 0 0 0
0.12963867 0.044708252 -0.30004883 0 0 0 0
0.13061523 0.044708252 -0.30004883 0 0 0 0
0.1315918 0.044708252 -0.30004883 0 0 0 0
0.13293457 0.04486084 -0.30102539 0 0 0 0
0.031463623 0.054473877 -0.37329102 0 0 0 0
0.032440186 0.054168701 -0.37133789 0 0 0 0
0.033599854 0.054168701 -0.37133789 0 0 0 0
0.034759521 0.054168701 -0.37133789 0 0 0 0
0.035797119 0.054016113 -0.37036133 0 0 0 0
0.036956787 0.054016113 -0.37036133 0 0 0 0
0.038116455 0.054016113 -0.37036133 0 0 0 0
0.039154053 0.053894043 -0.36938477 0 0 0 0
0.040313721 0.053894043 -0.36938477 0 0 0 0
0.041442871 0.053894043 -0.36938477 0 0 0 0
0.042480469 0.053741455 -0.3684082 0 0 0 0
0.043609619 0.053741455 -0.3684082 0 0 0 0
0.044769287 0.053741455 -0.3684082 0 0 0 0
0.045776367 0.053588867 -0.36743164 0 0 0 0
0.046936035 0.053588867 -0.36743164 0 0 0 0
0.048065186 0.053588867 -0.36743164 0 0 0 0
0.049072266 0.053436279 -0.36621094 0 0 0 0
0.050201416 0.053436279 -0.36621094 0 0 0 0
0.051208496 0.053283691 -0.36523438 0 0 0 0
0.052337646 0.053283691 -0.36523438 0 0 0 0
0.053497314 0.053283691 -0.36523438 0 0 0 0
0.054473877 0.053161621 -0.36425781 0 0 0 0
0.055603027 0.053161621 -0.36425781 0 0 0 0
0.056732178 0.053161621 -0.36425781 0 0 0 0
0.057861328 0.053161621 -0.36425781 0 0 0 0
0.077758789 0.056945801 -0.39038086 0 0 0 0
0.078979492 0.056945801 -0.39038086 0 0 0 0
0.095214844 0.04510498 -0.30908203 0 0 0 0
0.096130371 0.04510498 -0.30908203 0 0 0 0
0.097106934 0.04510498 -0.30908203 0 0 0 0
0.098083496 0.04510498 -0.30908203 0 0 0 0
0.098693848 0.044952393 -0.30810547 0 0 0 0
0.09967041 0.044952393 -0.30810547 0 0 0 0
0.10028076 0.044799805 -0.30712891 0 0 0 0
0.10125732 0.044799805 -0.30712891 0 0 0 0
0.10223389 0.044799805 -0.30712891 0 0 0 0
0.10284424 0.044647217 -0.30615234 0 0 0 0
0.10375977 0.044647217 -0.30615234 0 0 0 0
0.10473633 0.044647217 -0.30615234 0 0 0 0
0.10534668 0.044525146 -0.30517578 0 0 0 0
0.10626221 0.044525146 -0.30517578 0 0 0 0
0.10687256 0.044372559 -0.30395508 0 0 0 0
0.10784912 0.044372559 -0.30395508 0 0 0 0
0.10876465 0.044372559 -0.30395508 0 0 0 0
0.109375 0.044219971 -0.30297852 0 0 0 0
0.11029053 0.044219971 -0.30297852 0 0 0 0
0.11083984 0.044067383 -0.30200195 0 0 0 0
0.11181641 0.044067383 -0.30200195 0 0 0 0
0.11273193 0.044067383 -0.30200195 0 0 0 0
0.11328125 0.043914795 -0.30102539 0 0 0 0
0.11425781 0.043914795 -0.30102539 0 0 0 0
0.11517334 0.043914795 -0.30102539 0 0 0 0
0.11572266 0.043792725 -0.30004883 0 0 0 0
0.11663818 0.043792725 -0.30004883 0 0 0 0
0.11761475 0.043792725 -0.30004883 0 0 0 0
0.11810303 0.043640137 -0.29907227 0 0 0 0
0.11907959 0.043640137 -0.29907227 0 0 0 0
0.11999512 0.043640137 -0.29907227 0 0 0 0
0.12091064 0.043640137 -0.29907227 0 0 0 0
0.12182617 0.043640137 -0.29907227 0 0 0 0
0.12280273 0.043640137 -0.29907227 0 0 0 0
0.12371826 0.043640137 -0.29907227 0 0 0 0
0.12463379 0.043640137 -0.29907227 0 0 0 0
0.12548828 0.043640137 -0.29907227 0 0 0 0
0.12646484 0.043640137 -0.29907227 0 0 0 0
0.12780762 0.043792725 -0.30004883 0 0 0 0
0.12878418 0.043792725 -0.30004883 0 0 0 0
0.12963867 0.043792725 -0.30004883 0 0 0 0
0.13110352 0.043914795 -0.30102539 0 0 0 0
0.13195801 0.043914795 -0.30102539 0 0 0 0
0.13342285 0.044067383 -0.30200195 0 0 0 0
0.032623291 0.053314209 -0.37329102 0 0 0 0
0.033599854 0.053009033 -0.37133789 0 0 0 0
0.034759521 0.053009033 -0.37133789 0 0 0 0
0.035888672 0.053009033 -0.37133789 0 0 0 0
0.036956787 0.052886963 -0.37036133 0 0 0 0
0.038116455 0.052886963 -0.37036133 0 0 0 0
0.039245605 0.052886963 -0.37036133 0 0 0 0
0.040405273 0.052886963 -0.37036133 0 0 0 0
0.041442871 0.052734375 -0.36938477 0 0 0 0
0.042602539 0.052734375 -0.36938477 0 0 0 0
0.043731689 0.052734375 -0.36938477 0 0 0 0
0.044769287 0.052581787 -0.3684082 0 0 0 0
0.045898438 0.052581787 -0.3684082 0 0 0 0
0.047058105 0.052581787 -0.3684082 0 0 0 0
0.048065186 0.052459717 -0.36743164 0 0 0 0
0.049224854 0.052459717 -0.36743164 0 0 0 0
0.050201416 0.052307129 -0.36621094 0 0 0 0
0.051361084 0.052307129 -0.36621094 0 0 0 0
0.052490234 0.052307129 -0.36621094 0 0 0 0
0.053497314 0.052154541 -0.36523438 0 0 0 0
0.054626465 0.052154541 -0.36523438 0 0 0 0
0.055755615 0.052154541 -0.36523438 0 0 0 0
0.056732178 0.052032471 -0.36425781 0 0 0 0
0.057861328 0.052032471 -0.36425781 0 0 0 0
0.075134277 0.055603027 -0.3894043 0 0 0 0
0.07635498 0.055603027 -0.3894043 0 0 0 0
0.077575684 0.055603027 -0.3894043 0 0 0 0
0.078979492 0.055755615 -0.39038086 0 0 0 0
0.080200195 0.055755615 -0.39038086 0 0 0 0
0.081176758 0.055603027 -0.3894043 0 0 0 0
0.095214844 0.044128418 -0.30908203 0 0 0 0
0.096130371 0.044128418 -0.30908203 0 0 0 0
0.097106934 0.044128418 -0.30908203 0 0 0 0
0.098083496 0.044128418 -0.30908203 0 0 0 0
0.098693848 0.044006348 -0.30810547 0 0 0 0
0.09967041 0.044006348 -0.30810547 0 0 0 0
0.10028076 0.04385376 -0.30712891 0 0 0 0
0.10125732 0.04385376 -0.30712891 0 0 0 0
0.10223389 0.04385376 -0.30712891 0 0 0 0
0.10284424 0.043701172 -0.30615234 0 0 0 0
0.10375977 0.043701172 -0.30615234 0 0 0 0
0.10473633 0.043701172 -0.30615234 0 0 0 0
0.10534668 0.043548584 -0.30517578 0 0 0 0
0.10626221 0.043548584 -0.30517578 0 0 0 0
0.10723877 0.043548584 -0.30517578 0 0 0 0
0.10784912 0.043426514 -0.30395508 0 0 0 0
0.10876465 0.043426514 -0.30395508 0 0 0 0
0.10974121 0.043426514 -0.30395508 0 0 0 0
0.11029053 0.043273926 -0.30297852 0 0 0 0
0.11120605 0.043273926 -0.30297852 0 0 0 0
0.11181641 0.043121338 -0.30200195 0 0 0 0
0.11273193 0.043121338 -0.30200195 0 0 0 0
0.1137085 0.043121338 -0.30200195 0 0 0 0
0.11425781 0.042999268 -0.30102539 0 0 0 0
0.11517334 0.042999268 -0.30102539 0 0 0 0
0.11608887 0.042999268 -0.30102539 0 0 0 0
0.11663818 0.04284668 -0.30004883 0 0 0 0
0.11761475 0.04284668 -0.30004883 0 0 0 0
0.11853027 0.04284668 -0.30004883 0 0 0 0
0.1194458 0.04284668 -0.30004883 0 0 0 0
0.11999512 0.042694092 -0.29907227 0 0 0 0
0.12091064 0.042694092 -0.29907227 0 0 0 0
0.12182617 0.042694092 -0.29907227 0 0 0 0
0.12280273 0.042694092 -0.29907227 0 0 0 0
0.12371826 0.042694092 -0.29907227 0 0 0 0
0.125 0.04284668 -0.30004883 0 0 0 0
0.12597656 0.04284668 -0.30004883 0 0 0 0
0.12683105 0.04284668 -0.30004883 0 0 0 0
0.12780762 0.04284668 -0.30004883 0 0 0 0
0.12878418 0.04284668 -0.30004883 0 0 0 0
0.13012695 0.042999268 -0.30102539 0 0 0 0
0.13110352 0.042999268 -0.30102539 0 0 0 0
0.13195801 0.042999268 -0.30102539 0 0 0 0
0.034759521 0.051879883 -0.37133789 0 0 0 0
0.035888672 0.051879883 -0.37133789 0 0 0 0
0.03704834 0.051879883 -0.37133789 0 0 0 0
0.038208008 0.051879883 -0.37133789 0 0 0 0
0.039367676 0.051879883 -0.37133789 0 0 0 0
0.040527344 0.051879883 -0.37133789 0 0 0 0
0.041564941 0.051727295 -0.37036133 0 0 0 0
0.042724609 0.051727295 -0.37036133 0 0 0 0
0.043731689 0.051574707 -0.36938477 0 0 0 0
0.044891357 0.051574707 -0.36938477 0 0 0 0
0.046051025 0.051574707 -0.36938477 0 0 0 0
0.047058105 0.051452637 -0.3684082 0 0 0 0
0.048187256 0.051452637 -0.3684082 0 0 0 0
0.049224854 0.051300049 -0.36743164 0 0 0 0
0.050354004 0.051300049 -0.36743164 0 0 0 0
0.051483154 0.051300049 -0.36743164 0 0 0 0
0.052490234 0.051177979 -0.36621094 0 0 0 0
0.053619385 0.051177979 -0.36621094 0 0 0 0
0.054779053 0.051177979 -0.36621094 0 0 0 0
0.055908203 0.051177979 -0.36621094 0 0 0 0
0.056884766 0.051025391 -0.36523438 0 0 0 0
0.073913574 0.054382324 -0.3894043 0 0 0 0
0.075134277 0.054382324 -0.3894043 0 0 0 0
0.07635498 0.054382324 -0.3894043 0 0 0 0
0.077575684 0.054382324 -0.3894043 0 0 0 0
0.078796387 0.054382324 -0.3894043 0 0 0 0
0.08001709 0.054382324 -0.3894043 0 0 0 0
0.081176758 0.054382324 -0.3894043 0 0 0 0
0.082397461 0.054382324 -0.3894043 0 0 0 0
0.095214844 0.043182373 -0.30908203 0 0 0 0
0.096130371 0.043182373 -0.30908203 0 0 0 0
0.097106934 0.043182373 -0.30908203 0 0 0 0
0.098083496 0.043182373 -0.30908203 0 0 0 0
0.098693848 0.043029785 -0.30810547 0 0 0 0
0.09967041 0.043029785 -0.30810547 0 0 0 0
0.10064697 0.043029785 -0.30810547 0 0 0 0
0.10125732 0.042907715 -0.30712891 0 0 0 0
0.10223389 0.042907715 -0.30712891 0 0 0 0
0.10284424 0.042755127 -0.30615234 0 0 0 0
0.10375977 0.042755127 -0.30615234 0 0 0 0
0.10473633 0.042755127 -0.30615234 0 0 0 0
0.10565186 0.042755127 -0.30615234 0 0 0 0
0.10626221 0.042602539 -0.30517578 0 0 0 0
0.10723877 0.042602539 -0.30517578 0 0 0 0
0.1081543 0.042602539 -0.30517578 0 0 0 0
0.10876465 0.042480469 -0.30395508 0 0 0 0
0.10974121 0.042480469 -0.30395508 0 0 0 0
0.11065674 0.042480469 -0.30395508 0 0 0 0
0.11120605 0.042327881 -0.30297852 0 0 0 0
0.11218262 0.042327881 -0.30297852 0 0 0 0
0.11273193 0.042205811 -0.30200195 0 0 0 0
0.1137085 0.042205811 -0.30200195 0 0 0 0
0.11462402 0.042205811 -0.30200195 0 0 0 0
0.11517334 0.042053223 -0.30102539 0 0 0 0
0.11608887 0.042053223 -0.30102539 0 0 0 0
0.11706543 0.042053223 -0.30102539 0 0 0 0
0.11761475 0.041900635 -0.30004883 0 0 0 0
0.11853027 0.041900635 -0.30004883 0 0 0 0
0.1194458 0.041900635 -0.30004883 0 0 0 0
0.12036133 0.041900635 -0.30004883 0 0 0 0
0.12133789 0.041900635 -0.30004883 0 0 0 0
0.12225342 0.041900635 -0.30004883 0 0 0 0
0.12316895 0.041900635 -0.30004883 0 0 0 0
0.12414551 0.041900635 -0.30004883 0 0 0 0
0.125 0.041900635 -0.30004883 0 0 0 0
0.12597656 0.041900635 -0.30004883 0 0 0 0
0.12683105 0.041900635 -0.30004883 0 0 0 0
0.1282959 0.042053223 -0.30102539 0 0 0 0
0.12915039 0.042053223 -0.30102539 0 0 0 0
0.13012695 0.042053223 -0.30102539 0 0 0 0
0.13110352 0.042053223 -0.30102539 0 0 0 0
0.035888672 0.050720215 -0.37133789 0 0 0 0
0.03704834 0.050720215 -0.37133789 0 0 0 0
0.038208008 0.050720215 -0.37133789 0 0 0 0
0.039459229 0.050842285 -0.37231445 0 0 0 0
0.040618896 0.050842285 -0.37231445 0 0 0 0
0.041687012 0.050720215 -0.37133789 0 0 0 0
0.042816162 0.050720215 -0.37133789 0 0 0 0
0.04385376 0.050567627 -0.37036133 0 0 0 0
0.045013428 0.050567627 -0.37036133 0 0 0 0
0.046051025 0.050445557 -0.36938477 0 0 0 0
0.047180176 0.050445557 -0.36938477 0 0 0 0
0.048339844 0.050445557 -0.36938477 0 0 0 0
0.049346924 0.050292969 -0.3684082 0 0 0 0
0.050476074 0.050292969 -0.3684082 0 0 0 0
0.051635742 0.050292969 -0.3684082 0 0 0 0
0.052642822 0.050170898 -0.36743164 0 0 0 0
0.053771973 0.050170898 -0.36743164 0 0 0 0
0.054931641 0.050170898 -0.36743164 0 0 0 0
0.056060791 0.050170898 -0.36743164 0 0 0 0
0.057037354 0.050018311 -0.36621094 0 0 0 0
0.071350098 0.053039551 -0.38842773 0 0 0 0
0.072570801 0.053039551 -0.38842773 0 0 0 0
0.073730469 0.053039551 -0.38842773 0 0 0 0
0.074951172 0.053039551 -0.38842773 0 0 0 0
0.076171875 0.053039551 -0.38842773 0 0 0 0
0.077392578 0.053039551 -0.38842773 0 0 0 0
0.078796387 0.053192139 -0.3894043 0 0 0 0
0.08001709 0.053192139 -0.3894043 0 0 0 0
0.081176758 0.053192139 -0.3894043 0 0 0 0
0.082397461 0.053192139 -0.3894043 0 0 0 0
0.096130371 0.042205811 -0.30908203 0 0 0 0
0.097106934 0.042205811 -0.30908203 0 0 0 0
0.098083496 0.042205811 -0.30908203 0 0 0 0
0.098693848 0.04208374 -0.30810547 0 0 0 0
0.09967041 0.04208374 -0.30810547 0 0 0 0
0.10064697 0.04208374 -0.30810547 0 0 0 0
0.10125732 0.041931152 -0.30712891 0 0 0 0
0.10223389 0.041931152 -0.30712891 0 0 0 0
0.10314941 0.041931152 -0.30712891 0 0 0 0
0.10375977 0.041809082 -0.30615234 0 0 0 0
0.10473633 0.041809082 -0.30615234 0 0 0 0
0.10565186 0.041809082 -0.30615234 0 0 0 0
0.10626221 0.041656494 -0.30517578 0 0 0 0
0.10723877 0.041656494 -0.30517578 0 0 0 0
0.1081543 0.041656494 -0.30517578 0 0 0 0
0.10913086 0.041656494 -0.30517578 0 0 0 0
0.10974121 0.041534424 -0.30395508 0 0 0 0
0.11065674 0.041534424 -0.30395508 0 0 0 0
0.11157227 0.041534424 -0.30395508 0 0 0 0
0.11218262 0.041381836 -0.30297852 0 0 0 0
0.11309814 0.041381836 -0.30297852 0 0 0 0
0.11407471 0.041381836 -0.30297852 0 0 0 0
0.11462402 0.041259766 -0.30200195 0 0 0 0
0.11553955 0.041259766 -0.30200195 0 0 0 0
0.11608887 0.041107178 -0.30102539 0 0 0 0
0.11706543 0.041107178 -0.30102539 0 0 0 0
0.11798096 0.041107178 -0.30102539 0 0 0 0
0.11889648 0.041107178 -0.30102539 0 0 0 0
0.11987305 0.041107178 -0.30102539 0 0 0 0
0.12036133 0.040985107 -0.30004883 0 0 0 0
0.12133789 0.040985107 -0.30004883 0 0 0 0
0.12225342 0.040985107 -0.30004883 0 0 0 0
0.12316895 0.040985107 -0.30004883 0 0 0 0
0.12451172 0.041107178 -0.30102539 0 0 0 0
0.12548828 0.041107178 -0.30102539 0 0 0 0
0.12634277 0.041107178 -0.30102539 0 0 0 0
0.12731934 0.041107178 -0.30102539 0 0 0 0
0.1282959 0.041107178 -0.30102539 0 0 0 0
0.12915039 0.041107178 -0.30102539 0 0 0 0
0.037353516 0.049957275 -0.37426758 0 0 0 0
0.038421631 0.049835205 -0.37329102 0 0 0 0
0.039581299 0.049835205 -0.37329102 0 0 0 0
0.040740967 0.049835205 -0.37329102 0 0 0 0
0.041778564 0.049682617 -0.37231445 0 0 0 0
0.042938232 0.049682617 -0.37231445 0 0 0 0
0.04397583 0.049560547 -0.37133789 0 0 0 0
0.045135498 0.049560547 -0.37133789 0 0 0 0
0.046173096 0.049438477 -0.37036133 0 0 0 0
0.047302246 0.049438477 -0.37036133 0 0 0 0
0.048339844 0.049285889 -0.36938477 0 0 0 0
0.049468994 0.049285889 -0.36938477 0 0 0 0
0.050628662 0.049285889 -0.36938477 0 0 0 0
0.05178833 0.049285889 -0.36938477 0 0 0 0
0.05291748 0.049285889 -0.36938477 0 0 0 0
0.054077148 0.049285889 -0.36938477 0 0 0 0
0.055206299 0.049285889 -0.36938477 0 0 0 0
0.056365967 0.049285889 -0.36938477 0 0 0 0
0.069946289 0.051696777 -0.38745117 0 0 0 0
0.071166992 0.051696777 -0.38745117 0 0 0 0
0.07232666 0.051696777 -0.38745117 0 0 0 0
0.073547363 0.051696777 -0.38745117 0 0 0 0
0.074768066 0.051696777 -0.38745117 0 0 0 0
0.076171875 0.051849365 -0.38842773 0 0 0 0
0.077392578 0.051849365 -0.38842773 0 0 0 0
0.078552246 0.051849365 -0.38842773 0 0 0 0
0.079772949 0.051849365 -0.38842773 0 0 0 0
0.081176758 0.051971436 -0.3894043 0 0 0 0
0.082397461 0.051971436 -0.3894043 0 0 0 0
0.083618164 0.051971436 -0.3894043 0 0 0 0
0.096130371 0.041259766 -0.30908203 0 0 0 0
0.097106934 0.041259766 -0.30908203 0 0 0 0
0.098083496 0.041259766 -0.30908203 0 0 0 0
0.098693848 0.041107178 -0.30810547 0 0 0 0
0.09967041 0.041107178 -0.30810547 0 0 0 0
0.10064697 0.041107178 -0.30810547 0 0 0 0
0.10125732 0.040985107 -0.30712891 0 0 0 0
0.10223389 0.040985107 -0.30712891 0 0 0 0
0.10314941 0.040985107 -0.30712891 0 0 0 0
0.10375977 0.040863037 -0.30615234 0 0 0 0
0.10473633 0.040863037 -0.30615234 0 0 0 0
0.10565186 0.040863037 -0.30615234 0 0 0 0
0.10662842 0.040863037 -0.30615234 0 0 0 0
0.10760498 0.040863037 -0.30615234 0 0 0 0
0.1081543 0.040710449 -0.30517578 0 0 0 0
0.10913086 0.040710449 -0.30517578 0 0 0 0
0.11004639 0.040710449 -0.30517578 0 0 0 0
0.11102295 0.040710449 -0.30517578 0 0 0 0
0.11157227 0.040588379 -0.30395508 0 0 0 0
0.11254883 0.040588379 -0.30395508 0 0 0 0
0.11346436 0.040588379 -0.30395508 0 0 0 0
0.11407471 0.040435791 -0.30297852 0 0 0 0
0.11499023 0.040435791 -0.30297852 0 0 0 0
0.11553955 0.040313721 -0.30200195 0 0 0 0
0.11651611 0.040313721 -0.30200195 0 0 0 0
0.11743164 0.040313721 -0.30200195 0 0 0 0
0.11798096 0.04019165 -0.30102539 0 0 0 0
0.11889648 0.04019165 -0.30102539 0 0 0 0
0.11987305 0.04019165 -0.30102539 0 0 0 0
0.12078857 0.04019165 -0.30102539 0 0 0 0
0.1217041 0.04019165 -0.30102539 0 0 0 0
0.12268066 0.04019165 -0.30102539 0 0 0 0
0.12359619 0.04019165 -0.30102539 0 0 0 0
0.12451172 0.04019165 -0.30102539 0 0 0 0
0.12548828 0.04019165 -0.30102539 0 0 0 0
0.12634277 0.04019165 -0.30102539 0 0 0 0
0.12731934 0.04019165 -0.30102539 0 0 0 0
0.1282959 0.04019165 -0.30102539 0 0 0 0
0.12915039 0.04019165 -0.30102539 0 0 0 0
0.038726807 0.049072266 -0.37646484 0 0 0 0
0.039794922 0.048919678 -0.37524414 0 0 0 0
0.04083252 0.048797607 -0.37426758 0 0 0 0
0.042022705 0.048797607 -0.37426758 0 0 0 0
0.043060303 0.048675537 -0.37329102 0 0 0 0
0.044219971 0.048675537 -0.37329102 0 0 0 0
0.045257568 0.048522949 -0.37231445 0 0 0 0
0.046295166 0.048400879 -0.37133789 0 0 0 0
0.047454834 0.048400879 -0.37133789 0 0 0 0
0.048461914 0.048278809 -0.37036133 0 0 0 0
0.049621582 0.048278809 -0.37036133 0 0 0 0
0.05078125 0.048278809 -0.37036133 0 0 0 0
0.0519104 0.048278809 -0.37036133 0 0 0 0
0.053070068 0.048278809 -0.37036133 0 0 0 0
0.054229736 0.048278809 -0.37036133 0 0 0 0
0.055358887 0.048278809 -0.37036133 0 0 0 0
0.056671143 0.048400879 -0.37133789 0 0 0 0
0.057830811 0.048400879 -0.37133789 0 0 0 0
0.061126709 0.049194336 -0.37744141 0 0 0 0
0.069763184 0.050384521 -0.38647461 0 0 0 0
0.070983887 0.050384521 -0.38647461 0 0 0 0
0.072143555 0.050384521 -0.38647461 0 0 0 0
0.073364258 0.050384521 -0.38647461 0 0 0 0
0.074584961 0.050384521 -0.38647461 0 0 0 0
0.07598877 0.050506592 -0.38745117 0 0 0 0
0.077148438 0.050506592 -0.38745117 0 0 0 0
0.078369141 0.050506592 -0.38745117 0 0 0 0
0.079772949 0.050628662 -0.38842773 0 0 0 0
0.080993652 0.050628662 -0.38842773 0 0 0 0
0.082397461 0.050750732 -0.3894043 0 0 0 0
0.083618164 0.050750732 -0.3894043 0 0 0 0
0.097106934 0.040283203 -0.30908203 0 0 0 0
0.098083496 0.040283203 -0.30908203 0 0 0 0
0.098693848 0.040161133 -0.30810547 0 0 0 0
0.09967041 0.040161133 -0.30810547 0 0 0 0
0.10064697 0.040161133 -0.30810547 0 0 0 0
0.1015625 0.040161133 -0.30810547 0 0 0 0
0.10223389 0.040039062 -0.30712891 0 0 0 0
0.10314941 0.040039062 -0.30712891 0 0 0 0
0.10412598 0.040039062 -0.30712891 0 0 0 0
0.10473633 0.039886475 -0.30615234 0 0 0 0
0.10565186 0.039886475 -0.30615234 0 0 0 0
0.10662842 0.039886475 -0.30615234 0 0 0 0
0.10760498 0.039886475 -0.30615234 0 0 0 0
0.10852051 0.039886475 -0.30615234 0 0 0 0
0.10949707 0.039886475 -0.30615234 0 0 0 0
0.11004639 0.039764404 -0.30517578 0 0 0 0
0.11102295 0.039764404 -0.30517578 0 0 0 0
0.11199951 0.039764404 -0.30517578 0 0 0 0
0.11254883 0.039642334 -0.30395508 0 0 0 0
0.11346436 0.039642334 -0.30395508 0 0 0 0
0.11444092 0.039642334 -0.30395508 0 0 0 0
0.11499023 0.039520264 -0.30297852 0 0 0 0
0.1159668 0.039520264 -0.30297852 0 0 0 0
0.11688232 0.039520264 -0.30297852 0 0 0 0
0.11743164 0.039367676 -0.30200195 0 0 0 0
0.11834717 0.039367676 -0.30200195 0 0 0 0
0.11932373 0.039367676 -0.30200195 0 0 0 0
0.12023926 0.039367676 -0.30200195 0 0 0 0
0.12121582 0.039367676 -0.30200195 0 0 0 0
0.12213135 0.039367676 -0.30200195 0 0 0 0
0.12304688 0.039367676 -0.30200195 0 0 0 0
0.12402344 0.039367676 -0.30200195 0 0 0 0
0.12493896 0.039367676 -0.30200195 0 0 0 0
0.12585449 0.039367676 -0.30200195 0 0 0 0
0.12683105 0.039367676 -0.30200195 0 0 0 0
0.12731934 0.039245605 -0.30102539 0 0 0 0
0.12866211 0.039367676 -0.30200195 0 0 0 0
0.03894043 0.048156738 -0.37841797 0 0 0 0
0.039886475 0.04788208 -0.37646484 0 0 0 0
0.04107666 0.04788208 -0.37646484 0 0 0 0
0.042114258 0.04776001 -0.37524414 0 0 0 0
0.043182373 0.047637939 -0.37426758 0 0 0 0
0.044342041 0.047637939 -0.37426758 0 0 0 0
0.045379639 0.047515869 -0.37329102 0 0 0 0
0.046417236 0.047393799 -0.37231445 0 0 0 0
0.047576904 0.047393799 -0.37231445 0 0 0 0
0.048583984 0.047241211 -0.37133789 0 0 0 0
0.049743652 0.047241211 -0.37133789 0 0 0 0
0.05090332 0.047241211 -0.37133789 0 0 0 0
0.052062988 0.047241211 -0.37133789 0 0 0 0
0.053222656 0.047241211 -0.37133789 0 0 0 0
0.054504395 0.047393799 -0.37231445 0 0 0 0
0.055664062 0.047393799 -0.37231445 0 0 0 0
0.056976318 0.047515869 -0.37329102 0 0 0 0
0.058441162 0.04776001 -0.37524414 0 0 0 0
0.059936523 0.048034668 -0.37744141 0 0 0 0
0.061279297 0.048156738 -0.37841797 0 0 0 0
0.062438965 0.048156738 -0.37841797 0 0 0 0
0.063781738 0.048278809 -0.37939453 0 0 0 0
0.064941406 0.048278809 -0.37939453 0 0 0 0
0.06628418 0.048400879 -0.38037109 0 0 0 0
0.068054199 0.048797607 -0.38330078 0 0 0 0
0.069396973 0.048919678 -0.38427734 0 0 0 0
0.070800781 0.049041748 -0.38549805 0 0 0 0
0.071960449 0.049041748 -0.38549805 0 0 0 0
0.073181152 0.049041748 -0.38549805 0 0 0 0
0.074401855 0.049041748 -0.38549805 0 0 0 0
0.075744629 0.049163818 -0.38647461 0 0 0 0
0.076965332 0.049163818 -0.38647461 0 0 0 0
0.078186035 0.049163818 -0.38647461 0 0 0 0
0.079589844 0.049285889 -0.38745117 0 0 0 0
0.080810547 0.049285889 -0.38745117 0 0 0 0
0.082214355 0.049438477 -0.38842773 0 0 0 0
0.083618164 0.049560547 -0.3894043 0 0 0 0
0.097106934 0.039337158 -0.30908203 0 0 0 0
0.098083496 0.039337158 -0.30908203 0 0 0 0
0.099060059 0.039337158 -0.30908203 0 0 0 0
0.09967041 0.039215088 -0.30810547 0 0 0 0
0.10064697 0.039215088 -0.30810547 0 0 0 0
0.1015625 0.039215088 -0.30810547 0 0 0 0
0.10253906 0.039215088 -0.30810547 0 0 0 0
0.10314941 0.0390625 -0.30712891 0 0 0 0
0.10412598 0.0390625 -0.30712891 0 0 0 0
0.10510254 0.0390625 -0.30712891 0 0 0 0
0.10601807 0.0390625 -0.30712891 0 0 0 0
0.10662842 0.03894043 -0.30615234 0 0 0 0
0.10760498 0.03894043 -0.30615234 0 0 0 0
0.10852051 0.03894043 -0.30615234 0 0 0 0
0.10949707 0.03894043 -0.30615234 0 0 0 0
0.1104126 0.03894043 -0.30615234 0 0 0 0
0.11138916 0.03894043 -0.30615234 0 0 0 0
0.11199951 0.038818359 -0.30517578 0 0 0 0
0.11291504 0.038818359 -0.30517578 0 0 0 0
0.1138916 0.038818359 -0.30517578 0 0 0 0
0.11444092 0.038696289 -0.30395508 0 0 0 0
0.11535645 0.038696289 -0.30395508 0 0 0 0
0.11633301 0.038696289 -0.30395508 0 0 0 0
0.11688232 0.038574219 -0.30297852 0 0 0 0
0.11779785 0.038574219 -0.30297852 0 0 0 0
0.11877441 0.038574219 -0.30297852 0 0 0 0
0.11968994 0.038574219 -0.30297852 0 0 0 0
0.12023926 0.038452148 -0.30200195 0 0 0 0
0.12121582 0.038452148 -0.30200195 0 0 0 0
0.12213135 0.038452148 -0.30200195 0 0 0 0
0.12304688 0.038452148 -0.30200195 0 0 0 0
0.12402344 0.038452148 -0.30200195 0 0 0 0
0.12493896 0.038452148 -0.30200195 0 0 0 0
0.12585449 0.038452148 -0.30200195 0 0 0 0
0.12683105 0.038452148 -0.30200195 0 0 0 0
0.03894043 0.046966553 -0.37841797 0 0 0 0
0.040008545 0.046844482 -0.37744141 0 0 0 0
0.041168213 0.046844482 -0.37744141 0 0 0 0
0.042236328 0.046722412 -0.37646484 0 0 0 0
0.043273926 0.046600342 -0.37524414 0 0 0 0
0.044464111 0.046600342 -0.37524414 0 0 0 0
0.045501709 0.046478271 -0.37426758 0 0 0 0
0.046539307 0.046356201 -0.37329102 0 0 0 0
0.047698975 0.046356201 -0.37329102 0 0 0 0
0.048736572 0.046234131 -0.37231445 0 0 0 0
0.04989624 0.046234131 -0.37231445 0 0 0 0
0.051055908 0.046234131 -0.37231445 0 0 0 0
0.052185059 0.046234131 -0.37231445 0 0 0 0
0.053497314 0.046356201 -0.37329102 0 0 0 0
0.054656982 0.046356201 -0.37329102 0 0 0 0
0.055969238 0.046478271 -0.37426758 0 0 0 0
0.057128906 0.046478271 -0.37426758 0 0 0 0
0.058624268 0.046722412 -0.37646484 0 0 0 0
0.059936523 0.046844482 -0.37744141 0 0 0 0
0.061279297 0.046966553 -0.37841797 0 0 0 0
0.062438965 0.046966553 -0.37841797 0 0 0 0
0.063781738 0.047088623 -0.37939453 0 0 0 0
0.064941406 0.047088623 -0.37939453 0 0 0 0
0.06628418 0.047210693 -0.38037109 0 0 0 0
0.067687988 0.047332764 -0.38134766 0 0 0 0
0.069213867 0.047607422 -0.38330078 0 0 0 0
0.07043457 0.047607422 -0.38330078 0 0 0 0
0.071777344 0.047729492 -0.38427734 0 0 0 0
0.072998047 0.047729492 -0.38427734 0 0 0 0
0.074157715 0.047729492 -0.38427734 0 0 0 0
0.075561523 0.047851562 -0.38549805 0 0 0 0
0.076782227 0.047851562 -0.38549805 0 0 0 0
0.077941895 0.047851562 -0.38549805 0 0 0 0
0.079345703 0.047973633 -0.38647461 0 0 0 0
0.080566406 0.047973633 -0.38647461 0 0 0 0
0.081970215 0.048095703 -0.38745117 0 0 0 0
0.098083496 0.038360596 -0.30908203 0 0 0 0
0.099060059 0.038360596 -0.30908203 0 0 0 0
0.09967041 0.038238525 -0.30810547 0 0 0 0
0.10064697 0.038238525 -0.30810547 0 0 0 0
0.1015625 0.038238525 -0.30810547 0 0 0 0
0.10253906 0.038238525 -0.30810547 0 0 0 0
0.10351562 0.038238525 -0.30810547 0 0 0 0
0.10412598 0.038116455 -0.30712891 0 0 0 0
0.10510254 0.038116455 -0.30712891 0 0 0 0
0.10601807 0.038116455 -0.30712891 0 0 0 0
0.10699463 0.038116455 -0.30712891 0 0 0 0
0.10791016 0.038116455 -0.30712891 0 0 0 0
0.10852051 0.037994385 -0.30615234 0 0 0 0
0.10949707 0.037994385 -0.30615234 0 0 0 0
0.1104126 0.037994385 -0.30615234 0 0 0 0
0.11138916 0.037994385 -0.30615234 0 0 0 0
0.11236572 0.037994385 -0.30615234 0 0 0 0
0.11328125 0.037994385 -0.30615234 0 0 0 0
0.1138916 0.037872314 -0.30517578 0 0 0 0
0.11480713 0.037872314 -0.30517578 0 0 0 0
0.11578369 0.037872314 -0.30517578 0 0 0 0
0.11633301 0.037750244 -0.30395508 0 0 0 0
0.11724854 0.037750244 -0.30395508 0 0 0 0
0.1182251 0.037750244 -0.30395508 0 0 0 0
0.11914062 0.037750244 -0.30395508 0 0 0 0
0.11968994 0.037628174 -0.30297852 0 0 0 0
0.1206665 0.037628174 -0.30297852 0 0 0 0
0.12158203 0.037628174 -0.30297852 0 0 0 0
0.12255859 0.037628174 -0.30297852 0 0 0 0
0.12347412 0.037628174 -0.30297852 0 0 0 0
0.12445068 0.037628174 -0.30297852 0 0 0 0
0.12536621 0.037628174 -0.30297852 0 0 0 0
0.1262207 0.037628174 -0.30297852 0 0 0 0
0.12719727 0.037628174 -0.30297852 0 0 0 0
0.039031982 0.045928955 -0.37939453 0 0 0 0
0.040100098 0.045806885 -0.37841797 0 0 0 0
0.041168213 0.045684814 -0.37744141 0 0 0 0
0.042358398 0.045684814 -0.37744141 0 0 0 0
0.043395996 0.045562744 -0.37646484 0 0 0 0
0.044464111 0.045440674 -0.37524414 0 0 0 0
0.045623779 0.045440674 -0.37524414 0 0 0 0
0.046661377 0.045318604 -0.37426758 0 0 0 0
0.047821045 0.045318604 -0.37426758 0 0 0 0
0.048858643 0.045196533 -0.37329102 0 0 0 0
0.050018311 0.045196533 -0.37329102 0 0 0 0
0.051177979 0.045196533 -0.37329102 0 0 0 0
0.052490234 0.045318604 -0.37426758 0 0 0 0
0.053649902 0.045318604 -0.37426758 0 0 0 0
0.05480957 0.045318604 -0.37426758 0 0 0 0
0.056121826 0.045440674 -0.37524414 0 0 0 0
0.057281494 0.045440674 -0.37524414 0 0 0 0
0.058624268 0.045562744 -0.37646484 0 0 0 0
0.059936523 0.045684814 -0.37744141 0 0 0 0
0.061279297 0.045806885 -0.37841797 0 0 0 0
0.062438965 0.045806885 -0.37841797 0 0 0 0
0.063781738 0.045928955 -0.37939453 0 0 0 0
0.064941406 0.045928955 -0.37939453 0 0 0 0
0.06628418 0.046051025 -0.38037109 0 0 0 0
0.067687988 0.046173096 -0.38134766 0 0 0 0
0.069030762 0.046295166 -0.38232422 0 0 0 0
0.070251465 0.046295166 -0.38232422 0 0 0 0
0.071594238 0.046417236 -0.38330078 0 0 0 0
0.072814941 0.046417236 -0.38330078 0 0 0 0
0.073974609 0.046417236 -0.38330078 0 0 0 0
0.075378418 0.046539307 -0.38427734 0 0 0 0
0.076599121 0.046539307 -0.38427734 0 0 0 0
0.077758789 0.046539307 -0.38427734 0 0 0 0
0.079162598 0.046661377 -0.38549805 0 0 0 0
0.080383301 0.046661377 -0.38549805 0 0 0 0
0.081787109 0.04675293 -0.38647461 0 0 0 0
0.099060059 0.037414551 -0.30908203 0 0 0 0
0.099975586 0.037414551 -0.30908203 0 0 0 0
0.10095215 0.037414551 -0.30908203 0 0 0 0
0.1015625 0.03729248 -0.30810547 0 0 0 0
0.10253906 0.03729248 -0.30810547 0 0 0 0
0.10351562 0.03729248 -0.30810547 0 0 0 0
0.10443115 0.03729248 -0.30810547 0 0 0 0
0.10510254 0.03717041 -0.30712891 0 0 0 0
0.10601807 0.03717041 -0.30712891 0 0 0 0
0.10699463 0.03717041 -0.30712891 0 0 0 0
0.10791016 0.03717041 -0.30712891 0 0 0 0
0.10888672 0.03717041 -0.30712891 0 0 0 0
0.10986328 0.03717041 -0.30712891 0 0 0 0
0.11077881 0.03717041 -0.30712891 0 0 0 0
0.11138916 0.03704834 -0.30615234 0 0 0 0
0.11236572 0.03704834 -0.30615234 0 0 0 0
0.11328125 0.03704834 -0.30615234 0 0 0 0
0.11425781 0.03704834 -0.30615234 0 0 0 0
0.11517334 0.03704834 -0.30615234 0 0 0 0
0.11578369 0.03692627 -0.30517578 0 0 0 0
0.11669922 0.03692627 -0.30517578 0 0 0 0
0.11767578 0.03692627 -0.30517578 0 0 0 0
0.1182251 0.036804199 -0.30395508 0 0 0 0
