ply
format ascii 1.0
comment PCL generated
element vertex 1089
property float x
property float y
property float z
property float nx
property float ny
property float nz
property float curvature
element face 0
element camera 0
property float view_px
property float view_py
property float view_pz
property float x_axisx
property float x_axisy
property float x_axisz
property float y_axisx
property float y_axisy
property float y_axisz
property float z_axisx
property float z_axisy
property float z_axisz
property float focal
property float scalex
property float scaley
property float centerx
property float centery
property int viewportx
property int viewporty
property float k1
property float k2
end_header
0.042022705 0.12780762 -0.36425781 0 0 0 0
0.043273926 0.12817383 -0.36523438 0 0 0 0
0.044525146 0.12854004 -0.36621094 0 0 0 0
0.045776367 0.12890625 -0.36743164 0 0 0 0
0.047058105 0.12927246 -0.3684082 0 0 0 0
0.048187256 0.12927246 -0.3684082 0 0 0 0
0.049468994 0.12963867 -0.36938477 0 0 0 0
0.050628662 0.12963867 -0.36938477 0 0 0 0
0.0519104 0.13000488 -0.37036133 0 0 0 0
0.053070068 0.13000488 -0.37036133 0 0 0 0
-0.068786621 0.14025879 -0.40356445 0 0 0 0
-0.067199707 0.13964844 -0.40136719 0 0 0 0
-0.065795898 0.13928223 -0.40039062 0 0 0 0
-0.06451416 0.13928223 -0.40039062 0 0 0 0
-0.063110352 0.13891602 -0.39941406 0 0 0 0
-0.061889648 0.13891602 -0.39941406 0 0 0 0
-0.060821533 0.13928223 -0.40039062 0 0 0 0
-0.059570312 0.13928223 -0.40039062 0 0 0 0
-0.05847168 0.13964844 -0.40136719 0 0 0 0
-0.057373047 0.14001465 -0.40234375 0 0 0 0
-0.056243896 0.14025879 -0.40356445 0 0 0 0
-0.055145264 0.140625 -0.40454102 0 0 0 0
-0.054016113 0.14099121 -0.40551758 0 0 0 0
-0.052886963 0.14135742 -0.40649414 0 0 0 0
-0.051635742 0.14135742 -0.40649414 0 0 0 0
-0.049102783 0.14135742 -0.40649414 0 0 0 0
-0.047821045 0.14135742 -0.40649414 0 0 0 0
-0.046447754 0.14099121 -0.40551758 0 0 0 0
-0.04498291 0.14025879 -0.40356445 0 0 0 0
-0.043182373 0.1385498 -0.3984375 0 0 0 0
-0.0418396 0.13818359 -0.39746094 0 0 0 0
-0.040496826 0.13781738 -0.39648438 0 0 0 0
-0.039245605 0.13781738 -0.39648438 0 0 0 0
-0.03793335 0.13757324 -0.39550781 0 0 0 0
-0.036712646 0.13757324 -0.39550781 0 0 0 0
-0.035369873 0.13720703 -0.39453125 0 0 0 0
-0.03414917 0.13720703 -0.39453125 0 0 0 0
-0.032928467 0.13720703 -0.39453125 0 0 0 0
-0.031707764 0.13720703 -0.39453125 0 0 0 0
-0.030563354 0.13757324 -0.39550781 0 0 0 0
-0.029327393 0.13757324 -0.39550781 0 0 0 0
-0.028182983 0.13781738 -0.39648438 0 0 0 0
-0.026947021 0.13781738 -0.39648438 0 0 0 0
-0.02571106 0.13781738 -0.39648438 0 0 0 0
-0.024475098 0.13781738 -0.39648438 0 0 0 0
-0.023254395 0.13781738 -0.39648438 0 0 0 0
-0.010047913 0.12670898 -0.36425781 0 0 0 0
-0.0088653564 0.12597656 -0.36230469 0 0 0 0
-0.0077400208 0.12597656 -0.36230469 0 0 0 0
-0.0065956116 0.12561035 -0.36132812 0 0 0 0
-0.0054588318 0.12524414 -0.36035156 0 0 0 0
-0.0043411255 0.12524414 -0.36035156 0 0 0 0
-0.0032119751 0.125 -0.359375 0 0 0 0
-0.0020885468 0.12463379 -0.35839844 0 0 0 0
-0.00097370148 0.12426758 -0.35717773 0 0 0 0
0.00013637543 0.12426758 -0.35717773 0 0 0 0
0.0012426376 0.1239624 -0.35620117 0 0 0 0
0.0023498535 0.1239624 -0.35620117 0 0 0 0
0.003446579 0.12359619 -0.35522461 0 0 0 0
0.0045509338 0.12359619 -0.35522461 0 0 0 0
0.0056381226 0.12322998 -0.35424805 0 0 0 0
0.0067405701 0.12322998 -0.35424805 0 0 0 0
0.0078353882 0.12322998 -0.35424805 0 0 0 0
0.0089111328 0.12286377 -0.35327148 0 0 0 0
0.010009766 0.12286377 -0.35327148 0 0 0 0
0.011108398 0.12286377 -0.35327148 0 0 0 0
0.012207031 0.12286377 -0.35327148 0 0 0 0
0.013305664 0.12286377 -0.35327148 0 0 0 0
0.018692017 0.12988281 -0.37329102 0 0 0 0
0.019866943 0.12988281 -0.37329102 0 0 0 0
0.021026611 0.12988281 -0.37329102 0 0 0 0
0.029937744 0.12359619 -0.35522461 0 0 0 0
0.031036377 0.12359619 -0.35522461 0 0 0 0
0.032226562 0.1239624 -0.35620117 0 0 0 0
0.033325195 0.1239624 -0.35620117 0 0 0 0
0.034637451 0.12463379 -0.35839844 0 0 0 0
0.035858154 0.125 -0.359375 0 0 0 0
0.037078857 0.12524414 -0.36035156 0 0 0 0
0.038299561 0.12561035 -0.36132812 0 0 0 0
0.039520264 0.12597656 -0.36230469 0 0 0 0
0.040771484 0.12634277 -0.36328125 0 0 0 0
0.042022705 0.12670898 -0.36425781 0 0 0 0
0.043273926 0.1270752 -0.36523438 0 0 0 0
0.044525146 0.12744141 -0.36621094 0 0 0 0
0.045776367 0.12780762 -0.36743164 0 0 0 0
0.047058105 0.12805176 -0.3684082 0 0 0 0
0.048339844 0.12841797 -0.36938477 0 0 0 0
0.049468994 0.12841797 -0.36938477 0 0 0 0
0.05078125 0.12878418 -0.37036133 0 0 0 0
0.0519104 0.12878418 -0.37036133 0 0 0 0
-0.068603516 0.13867188 -0.40234375 0 0 0 0
-0.067199707 0.13842773 -0.40136719 0 0 0 0
-0.065795898 0.13806152 -0.40039062 0 0 0 0
-0.06439209 0.13769531 -0.39941406 0 0 0 0
-0.063110352 0.13769531 -0.39941406 0 0 0 0
-0.061889648 0.13769531 -0.39941406 0 0 0 0
-0.060821533 0.13806152 -0.40039062 0 0 0 0
-0.059570312 0.13806152 -0.40039062 0 0 0 0
-0.05847168 0.13842773 -0.40136719 0 0 0 0
-0.057373047 0.13867188 -0.40234375 0 0 0 0
-0.056243896 0.13903809 -0.40356445 0 0 0 0
-0.055145264 0.1394043 -0.40454102 0 0 0 0
-0.054016113 0.13977051 -0.40551758 0 0 0 0
-0.052886963 0.14013672 -0.40649414 0 0 0 0
-0.051635742 0.14013672 -0.40649414 0 0 0 0
-0.050354004 0.14013672 -0.40649414 0 0 0 0
-0.049102783 0.14013672 -0.40649414 0 0 0 0
-0.047698975 0.13977051 -0.40551758 0 0 0 0
-0.046325684 0.1394043 -0.40454102 0 0 0 0
-0.04486084 0.13867188 -0.40234375 0 0 0 0
-0.043273926 0.13769531 -0.39941406 0 0 0 0
-0.041931152 0.1373291 -0.3984375 0 0 0 0
-0.040588379 0.13696289 -0.39746094 0 0 0 0
-0.039245605 0.13659668 -0.39648438 0 0 0 0
-0.038024902 0.13659668 -0.39648438 0 0 0 0
-0.036712646 0.13635254 -0.39550781 0 0 0 0
-0.035461426 0.13635254 -0.39550781 0 0 0 0
-0.034240723 0.13635254 -0.39550781 0 0 0 0
-0.03302002 0.13635254 -0.39550781 0 0 0 0
-0.031799316 0.13635254 -0.39550781 0 0 0 0
-0.030563354 0.13635254 -0.39550781 0 0 0 0
-0.029403687 0.13659668 -0.39648438 0 0 0 0
-0.028182983 0.13659668 -0.39648438 0 0 0 0
-0.027008057 0.13696289 -0.39746094 0 0 0 0
-0.025772095 0.13696289 -0.39746094 0 0 0 0
-0.024536133 0.13696289 -0.39746094 0 0 0 0
-0.011177063 0.12561035 -0.36425781 0 0 0 0
-0.0099945068 0.12487793 -0.36230469 0 0 0 0
-0.0088653564 0.12487793 -0.36230469 0 0 0 0
-0.0077209473 0.12457275 -0.36132812 0 0 0 0
-0.0065803528 0.12420654 -0.36035156 0 0 0 0
-0.0054588318 0.12420654 -0.36035156 0 0 0 0
-0.0043258667 0.12384033 -0.359375 0 0 0 0
-0.0032024384 0.12353516 -0.35839844 0 0 0 0
-0.0020828247 0.12316895 -0.35717773 0 0 0 0
-0.00097370148 0.12316895 -0.35717773 0 0 0 0
0.0001360178 0.12280273 -0.35620117 0 0 0 0
0.0012426376 0.12280273 -0.35620117 0 0 0 0
0.0023498535 0.12280273 -0.35620117 0 0 0 0
0.003446579 0.12249756 -0.35522461 0 0 0 0
0.0045509338 0.12249756 -0.35522461 0 0 0 0
0.0056381226 0.12213135 -0.35424805 0 0 0 0
0.0067405701 0.12213135 -0.35424805 0 0 0 0
0.0078353882 0.12213135 -0.35424805 0 0 0 0
0.0089111328 0.12176514 -0.35327148 0 0 0 0
0.010009766 0.12176514 -0.35327148 0 0 0 0
0.011108398 0.12176514 -0.35327148 0 0 0 0
0.012207031 0.12176514 -0.35327148 0 0 0 0
0.017532349 0.12866211 -0.37329102 0 0 0 0
0.018692017 0.12866211 -0.37329102 0 0 0 0
0.019866943 0.12866211 -0.37329102 0 0 0 0
0.021072388 0.12902832 -0.37426758 0 0 0 0
0.028839111 0.12249756 -0.35522461 0 0 0 0
0.030029297 0.12280273 -0.35620117 0 0 0 0
0.03112793 0.12280273 -0.35620117 0 0 0 0
0.032226562 0.12280273 -0.35620117 0 0 0 0
0.033447266 0.12316895 -0.35717773 0 0 0 0
0.034637451 0.12353516 -0.35839844 0 0 0 0
0.035858154 0.12384033 -0.359375 0 0 0 0
0.037078857 0.12420654 -0.36035156 0 0 0 0
0.038299561 0.12457275 -0.36132812 0 0 0 0
0.039520264 0.12487793 -0.36230469 0 0 0 0
0.040893555 0.12561035 -0.36425781 0 0 0 0
0.042144775 0.12585449 -0.36523438 0 0 0 0
0.043395996 0.1262207 -0.36621094 0 0 0 0
0.044647217 0.12658691 -0.36743164 0 0 0 0
0.045898438 0.12695312 -0.3684082 0 0 0 0
0.047058105 0.12695312 -0.3684082 0 0 0 0
0.048339844 0.12731934 -0.36938477 0 0 0 0
0.049468994 0.12731934 -0.36938477 0 0 0 0
0.05078125 0.12768555 -0.37036133 0 0 0 0
-0.070556641 0.13879395 -0.40649414 0 0 0 0
-0.068237305 0.13684082 -0.40039062 0 0 0 0
-0.067016602 0.13684082 -0.40039062 0 0 0 0
-0.065612793 0.13647461 -0.39941406 0 0 0 0
-0.06439209 0.13647461 -0.39941406 0 0 0 0
-0.063110352 0.13647461 -0.39941406 0 0 0 0
-0.061889648 0.13647461 -0.39941406 0 0 0 0
-0.060668945 0.13647461 -0.39941406 0 0 0 0
-0.059570312 0.13684082 -0.40039062 0 0 0 0
-0.05847168 0.13708496 -0.40136719 0 0 0 0
-0.057373047 0.13745117 -0.40234375 0 0 0 0
-0.056243896 0.13781738 -0.40356445 0 0 0 0
-0.055145264 0.13818359 -0.40454102 0 0 0 0
-0.054016113 0.1385498 -0.40551758 0 0 0 0
-0.052764893 0.1385498 -0.40551758 0 0 0 0
-0.051635742 0.13879395 -0.40649414 0 0 0 0
-0.050231934 0.1385498 -0.40551758 0 0 0 0
-0.048980713 0.1385498 -0.40551758 0 0 0 0
-0.047607422 0.13818359 -0.40454102 0 0 0 0
-0.046234131 0.13781738 -0.40356445 0 0 0 0
-0.04473877 0.13708496 -0.40136719 0 0 0 0
-0.043273926 0.13647461 -0.39941406 0 0 0 0
-0.041931152 0.1361084 -0.3984375 0 0 0 0
-0.040679932 0.1361084 -0.3984375 0 0 0 0
-0.039367676 0.13574219 -0.39746094 0 0 0 0
-0.038116455 0.13574219 -0.39746094 0 0 0 0
-0.036804199 0.13537598 -0.39648438 0 0 0 0
-0.035552979 0.13537598 -0.39648438 0 0 0 0
-0.034332275 0.13537598 -0.39648438 0 0 0 0
-0.033111572 0.13537598 -0.39648438 0 0 0 0
-0.031860352 0.13537598 -0.39648438 0 0 0 0
-0.030639648 0.13537598 -0.39648438 0 0 0 0
-0.02947998 0.13574219 -0.39746094 0 0 0 0
-0.028244019 0.13574219 -0.39746094 0 0 0 0
-0.027008057 0.13574219 -0.39746094 0 0 0 0
-0.025772095 0.13574219 -0.39746094 0 0 0 0
-0.024536133 0.13574219 -0.39746094 0 0 0 0
-0.01348114 0.12481689 -0.36523438 0 0 0 0
-0.011177063 0.12445068 -0.36425781 0 0 0 0
-0.0099945068 0.1237793 -0.36230469 0 0 0 0
-0.0088424683 0.12341309 -0.36132812 0 0 0 0
-0.0076980591 0.12310791 -0.36035156 0 0 0 0
-0.0065612793 0.1227417 -0.359375 0 0 0 0
-0.005443573 0.1227417 -0.359375 0 0 0 0
-0.0043144226 0.12243652 -0.35839844 0 0 0 0
-0.0032024384 0.12243652 -0.35839844 0 0 0 0
-0.0020828247 0.12207031 -0.35717773 0 0 0 0
-0.00097370148 0.12207031 -0.35717773 0 0 0 0
0.0001360178 0.1217041 -0.35620117 0 0 0 0
0.0012426376 0.1217041 -0.35620117 0 0 0 0
0.0023498535 0.1217041 -0.35620117 0 0 0 0
0.003446579 0.12139893 -0.35522461 0 0 0 0
0.0045509338 0.12139893 -0.35522461 0 0 0 0
0.0056381226 0.12103271 -0.35424805 0 0 0 0
0.0067405701 0.12103271 -0.35424805 0 0 0 0
0.0078353882 0.12103271 -0.35424805 0 0 0 0
0.0089416504 0.12103271 -0.35424805 0 0 0 0
0.010009766 0.1206665 -0.35327148 0 0 0 0
0.011108398 0.1206665 -0.35327148 0 0 0 0
0.015220642 0.12756348 -0.37329102 0 0 0 0
0.016372681 0.12756348 -0.37329102 0 0 0 0
0.017532349 0.12756348 -0.37329102 0 0 0 0
0.018692017 0.12756348 -0.37329102 0 0 0 0
0.019866943 0.12756348 -0.37329102 0 0 0 0
0.028839111 0.12139893 -0.35522461 0 0 0 0
0.030029297 0.1217041 -0.35620117 0 0 0 0
0.03112793 0.1217041 -0.35620117 0 0 0 0
0.032318115 0.12207031 -0.35717773 0 0 0 0
0.033447266 0.12207031 -0.35717773 0 0 0 0
0.034637451 0.12243652 -0.35839844 0 0 0 0
0.035858154 0.1227417 -0.359375 0 0 0 0
0.037078857 0.12310791 -0.36035156 0 0 0 0
0.038391113 0.1237793 -0.36230469 0 0 0 0
0.039642334 0.12414551 -0.36328125 0 0 0 0
0.040893555 0.12445068 -0.36425781 0 0 0 0
0.042144775 0.12481689 -0.36523438 0 0 0 0
0.043395996 0.12512207 -0.36621094 0 0 0 0
0.044647217 0.12548828 -0.36743164 0 0 0 0
0.045898438 0.12585449 -0.3684082 0 0 0 0
0.047180176 0.12609863 -0.36938477 0 0 0 0
0.048339844 0.12609863 -0.36938477 0 0 0 0
0.049621582 0.12646484 -0.37036133 0 0 0 0
0.05078125 0.12646484 -0.37036133 0 0 0 0
-0.068969727 0.13452148 -0.39746094 0 0 0 0
-0.068115234 0.13525391 -0.39941406 0 0 0 0
-0.066833496 0.13525391 -0.39941406 0 0 0 0
-0.065429688 0.1348877 -0.3984375 0 0 0 0
-0.064208984 0.1348877 -0.3984375 0 0 0 0
-0.063110352 0.13525391 -0.39941406 0 0 0 0
-0.061889648 0.13525391 -0.39941406 0 0 0 0
-0.060668945 0.13525391 -0.39941406 0 0 0 0
-0.059570312 0.13549805 -0.40039062 0 0 0 0
-0.05847168 0.13586426 -0.40136719 0 0 0 0
-0.057373047 0.13623047 -0.40234375 0 0 0 0
-0.056243896 0.13659668 -0.40356445 0 0 0 0
-0.055145264 0.13684082 -0.40454102 0 0 0 0
-0.054016113 0.13720703 -0.40551758 0 0 0 0
-0.052764893 0.13720703 -0.40551758 0 0 0 0
-0.051483154 0.13720703 -0.40551758 0 0 0 0
-0.050231934 0.13720703 -0.40551758 0 0 0 0
-0.048858643 0.13684082 -0.40454102 0 0 0 0
-0.047485352 0.13659668 -0.40356445 0 0 0 0
-0.046112061 0.13623047 -0.40234375 0 0 0 0
-0.04473877 0.13586426 -0.40136719 0 0 0 0
-0.043273926 0.13525391 -0.39941406 0 0 0 0
-0.042053223 0.13525391 -0.39941406 0 0 0 0
-0.040679932 0.1348877 -0.3984375 0 0 0 0
-0.039459229 0.1348877 -0.3984375 0 0 0 0
-0.038116455 0.13452148 -0.39746094 0 0 0 0
-0.036895752 0.13452148 -0.39746094 0 0 0 0
-0.035644531 0.13452148 -0.39746094 0 0 0 0
-0.034423828 0.13452148 -0.39746094 0 0 0 0
-0.033172607 0.13452148 -0.39746094 0 0 0 0
-0.031951904 0.13452148 -0.39746094 0 0 0 0
-0.030715942 0.13452148 -0.39746094 0 0 0 0
-0.02947998 0.13452148 -0.39746094 0 0 0 0
-0.028320312 0.1348877 -0.3984375 0 0 0 0
-0.027084351 0.1348877 -0.3984375 0 0 0 0
-0.025848389 0.1348877 -0.3984375 0 0 0 0
-0.015792847 0.12402344 -0.36621094 0 0 0 0
-0.014656067 0.12402344 -0.36621094 0 0 0 0
-0.01348114 0.12365723 -0.36523438 0 0 0 0
-0.01234436 0.12365723 -0.36523438 0 0 0 0
-0.011177063 0.12335205 -0.36425781 0 0 0 0
-0.0099945068 0.12268066 -0.36230469 0 0 0 0
-0.0088195801 0.12194824 -0.36035156 0 0 0 0
-0.0076789856 0.12164307 -0.359375 0 0 0 0
-0.0065422058 0.12127686 -0.35839844 0 0 0 0
-0.0054283142 0.12127686 -0.35839844 0 0 0 0
-0.0043029785 0.12097168 -0.35717773 0 0 0 0
-0.0031929016 0.12097168 -0.35717773 0 0 0 0
-0.0020828247 0.12097168 -0.35717773 0 0 0 0
-0.00097084045 0.12060547 -0.35620117 0 0 0 0
0.0001360178 0.12060547 -0.35620117 0 0 0 0
0.0012426376 0.12060547 -0.35620117 0 0 0 0
0.0023498535 0.12060547 -0.35620117 0 0 0 0
0.003446579 0.12030029 -0.35522461 0 0 0 0
0.0045509338 0.12030029 -0.35522461 0 0 0 0
0.0056533813 0.12030029 -0.35522461 0 0 0 0
0.0067405701 0.11993408 -0.35424805 0 0 0 0
0.0078353882 0.11993408 -0.35424805 0 0 0 0
0.0089416504 0.11993408 -0.35424805 0 0 0 0
0.010009766 0.11956787 -0.35327148 0 0 0 0
0.014060974 0.12634277 -0.37329102 0 0 0 0
0.015220642 0.12634277 -0.37329102 0 0 0 0
0.016372681 0.12634277 -0.37329102 0 0 0 0
0.017532349 0.12634277 -0.37329102 0 0 0 0
0.018692017 0.12634277 -0.37329102 0 0 0 0
0.027816772 0.12060547 -0.35620117 0 0 0 0
0.028915405 0.12060547 -0.35620117 0 0 0 0
0.030105591 0.12097168 -0.35717773 0 0 0 0
0.031219482 0.12097168 -0.35717773 0 0 0 0
0.032318115 0.12097168 -0.35717773 0 0 0 0
0.033538818 0.12127686 -0.35839844 0 0 0 0
0.034729004 0.12164307 -0.359375 0 0 0 0
0.035949707 0.12194824 -0.36035156 0 0 0 0
0.03717041 0.12231445 -0.36132812 0 0 0 0
0.038391113 0.12268066 -0.36230469 0 0 0 0
0.039642334 0.12298584 -0.36328125 0 0 0 0
0.040893555 0.12335205 -0.36425781 0 0 0 0
0.042144775 0.12365723 -0.36523438 0 0 0 0
0.043518066 0.12432861 -0.36743164 0 0 0 0
0.044647217 0.12432861 -0.36743164 0 0 0 0
0.045898438 0.12469482 -0.3684082 0 0 0 0
0.047180176 0.125 -0.36938477 0 0 0 0
0.048339844 0.125 -0.36938477 0 0 0 0
0.049621582 0.12536621 -0.37036133 0 0 0 0
0.05078125 0.12536621 -0.37036133 0 0 0 0
-0.070068359 0.13293457 -0.39648438 0 0 0 0
-0.068969727 0.13330078 -0.39746094 0 0 0 0
-0.067932129 0.13366699 -0.3984375 0 0 0 0
-0.066711426 0.13366699 -0.3984375 0 0 0 0
-0.065429688 0.13366699 -0.3984375 0 0 0 0
-0.064208984 0.13366699 -0.3984375 0 0 0 0
-0.062988281 0.13366699 -0.3984375 0 0 0 0
-0.061889648 0.13391113 -0.39941406 0 0 0 0
-0.060668945 0.13391113 -0.39941406 0 0 0 0
-0.059570312 0.13427734 -0.40039062 0 0 0 0
-0.05847168 0.13464355 -0.40136719 0 0 0 0
-0.057373047 0.13500977 -0.40234375 0 0 0 0
-0.056243896 0.13525391 -0.40356445 0 0 0 0
-0.055145264 0.13562012 -0.40454102 0 0 0 0
-0.053894043 0.13562012 -0.40454102 0 0 0 0
-0.052612305 0.13562012 -0.40454102 0 0 0 0
-0.051361084 0.13562012 -0.40454102 0 0 0 0
-0.050109863 0.13562012 -0.40454102 0 0 0 0
-0.048736572 0.13525391 -0.40356445 0 0 0 0
-0.047363281 0.13500977 -0.40234375 0 0 0 0
-0.04598999 0.13464355 -0.40136719 0 0 0 0
-0.044647217 0.13427734 -0.40039062 0 0 0 0
-0.043273926 0.13391113 -0.39941406 0 0 0 0
-0.042053223 0.13391113 -0.39941406 0 0 0 0
-0.040679932 0.13366699 -0.3984375 0 0 0 0
-0.039459229 0.13366699 -0.3984375 0 0 0 0
-0.038208008 0.13366699 -0.3984375 0 0 0 0
-0.036987305 0.13366699 -0.3984375 0 0 0 0
-0.035644531 0.13330078 -0.39746094 0 0 0 0
-0.034423828 0.13330078 -0.39746094 0 0 0 0
-0.033172607 0.13330078 -0.39746094 0 0 0 0
-0.032012939 0.13366699 -0.3984375 0 0 0 0
-0.030792236 0.13366699 -0.3984375 0 0 0 0
-0.029556274 0.13366699 -0.3984375 0 0 0 0
-0.028320312 0.13366699 -0.3984375 0 0 0 0
-0.027084351 0.13366699 -0.3984375 0 0 0 0
-0.025848389 0.13366699 -0.3984375 0 0 0 0
-0.016921997 0.12286377 -0.36621094 0 0 0 0
-0.015792847 0.12286377 -0.36621094 0 0 0 0
-0.01461792 0.12255859 -0.36523438 0 0 0 0
-0.01348114 0.12255859 -0.36523438 0 0 0 0
-0.012313843 0.12219238 -0.36425781 0 0 0 0
-0.011146545 0.12188721 -0.36328125 0 0 0 0
-0.0099334717 0.12084961 -0.36035156 0 0 0 0
-0.0087890625 0.12054443 -0.359375 0 0 0 0
-0.0076560974 0.12017822 -0.35839844 0 0 0 0
-0.0065422058 0.12017822 -0.35839844 0 0 0 0
-0.0054130554 0.11987305 -0.35717773 0 0 0 0
-0.0043029785 0.11987305 -0.35717773 0 0 0 0
-0.0031929016 0.11987305 -0.35717773 0 0 0 0
-0.0020828247 0.11987305 -0.35717773 0 0 0 0
-0.00097084045 0.11950684 -0.35620117 0 0 0 0
0.0001360178 0.11950684 -0.35620117 0 0 0 0
0.0012426376 0.11950684 -0.35620117 0 0 0 0
0.0023498535 0.11950684 -0.35620117 0 0 0 0
0.0034561157 0.11950684 -0.35620117 0 0 0 0
0.0045509338 0.11914062 -0.35522461 0 0 0 0
0.0056533813 0.11914062 -0.35522461 0 0 0 0
0.0067405701 0.11883545 -0.35424805 0 0 0 0
0.0078353882 0.11883545 -0.35424805 0 0 0 0
0.0089416504 0.11883545 -0.35424805 0 0 0 0
0.010009766 0.11846924 -0.35327148 0 0 0 0
0.012901306 0.12524414 -0.37329102 0 0 0 0
0.014060974 0.12524414 -0.37329102 0 0 0 0
0.015220642 0.12524414 -0.37329102 0 0 0 0
0.016372681 0.12524414 -0.37329102 0 0 0 0
0.017532349 0.12524414 -0.37329102 0 0 0 0
0.018692017 0.12524414 -0.37329102 0 0 0 0
0.026702881 0.11950684 -0.35620117 0 0 0 0
0.027816772 0.11950684 -0.35620117 0 0 0 0
0.028991699 0.11987305 -0.35717773 0 0 0 0
0.030105591 0.11987305 -0.35717773 0 0 0 0
0.031311035 0.12017822 -0.35839844 0 0 0 0
0.032409668 0.12017822 -0.35839844 0 0 0 0
0.033630371 0.12054443 -0.359375 0 0 0 0
0.034729004 0.12054443 -0.359375 0 0 0 0
0.035949707 0.12084961 -0.36035156 0 0 0 0
0.03717041 0.12121582 -0.36132812 0 0 0 0
0.038391113 0.121521 -0.36230469 0 0 0 0
0.039764404 0.12219238 -0.36425781 0 0 0 0
0.040985107 0.12255859 -0.36523438 0 0 0 0
0.042236328 0.12286377 -0.36621094 0 0 0 0
0.043518066 0.12322998 -0.36743164 0 0 0 0
0.044769287 0.12353516 -0.3684082 0 0 0 0
0.046051025 0.12390137 -0.36938477 0 0 0 0
0.047180176 0.12390137 -0.36938477 0 0 0 0
0.048461914 0.12420654 -0.37036133 0 0 0 0
0.049621582 0.12420654 -0.37036133 0 0 0 0
0.05078125 0.12420654 -0.37036133 0 0 0 0
-0.071289062 0.13171387 -0.39648438 0 0 0 0
-0.070068359 0.13171387 -0.39648438 0 0 0 0
-0.068969727 0.13208008 -0.39746094 0 0 0 0
-0.067749023 0.13208008 -0.39746094 0 0 0 0
-0.06652832 0.13208008 -0.39746094 0 0 0 0
-0.065307617 0.13208008 -0.39746094 0 0 0 0
-0.064025879 0.13208008 -0.39746094 0 0 0 0
-0.062988281 0.13232422 -0.3984375 0 0 0 0
-0.061737061 0.13232422 -0.3984375 0 0 0 0
-0.060668945 0.13269043 -0.39941406 0 0 0 0
-0.059570312 0.13305664 -0.40039062 0 0 0 0
-0.05847168 0.13342285 -0.40136719 0 0 0 0
-0.057373047 0.13366699 -0.40234375 0 0 0 0
-0.056243896 0.1340332 -0.40356445 0 0 0 0
-0.054992676 0.1340332 -0.40356445 0 0 0 0
-0.053894043 0.13439941 -0.40454102 0 0 0 0
-0.052612305 0.13439941 -0.40454102 0 0 0 0
-0.051239014 0.1340332 -0.40356445 0 0 0 0
-0.049987793 0.1340332 -0.40356445 0 0 0 0
-0.048614502 0.13366699 -0.40234375 0 0 0 0
-0.047241211 0.13342285 -0.40136719 0 0 0 0
-0.04598999 0.13342285 -0.40136719 0 0 0 0
-0.044647217 0.13305664 -0.40039062 0 0 0 0
-0.043273926 0.13269043 -0.39941406 0 0 0 0
-0.042053223 0.13269043 -0.39941406 0 0 0 0
-0.040802002 0.13269043 -0.39941406 0 0 0 0
-0.039459229 0.13232422 -0.3984375 0 0 0 0
-0.038208008 0.13232422 -0.3984375 0 0 0 0
-0.036987305 0.13232422 -0.3984375 0 0 0 0
-0.035736084 0.13232422 -0.3984375 0 0 0 0
-0.034515381 0.13232422 -0.3984375 0 0 0 0
-0.03326416 0.13232422 -0.3984375 0 0 0 0
-0.032012939 0.13232422 -0.3984375 0 0 0 0
-0.030792236 0.13232422 -0.3984375 0 0 0 0
-0.029556274 0.13232422 -0.3984375 0 0 0 0
-0.028396606 0.13269043 -0.39941406 0 0 0 0
-0.027084351 0.13232422 -0.3984375 0 0 0 0
-0.018066406 0.12176514 -0.36621094 0 0 0 0
-0.016876221 0.12139893 -0.36523438 0 0 0 0
-0.01574707 0.12139893 -0.36523438 0 0 0 0
-0.01461792 0.12139893 -0.36523438 0 0 0 0
-0.013442993 0.12109375 -0.36425781 0 0 0 0
-0.012275696 0.12072754 -0.36328125 0 0 0 0
-0.011116028 0.12042236 -0.36230469 0 0 0 0
-0.0099334717 0.11975098 -0.36035156 0 0 0 0
-0.0087890625 0.11938477 -0.359375 0 0 0 0
-0.0076560974 0.11907959 -0.35839844 0 0 0 0
-0.0065231323 0.11871338 -0.35717773 0 0 0 0
-0.0054130554 0.11871338 -0.35717773 0 0 0 0
-0.0043029785 0.11871338 -0.35717773 0 0 0 0
-0.0031852722 0.1184082 -0.35620117 0 0 0 0
-0.0020771027 0.1184082 -0.35620117 0 0 0 0
-0.00097084045 0.1184082 -0.35620117 0 0 0 0
0.0001360178 0.1184082 -0.35620117 0 0 0 0
0.0012426376 0.1184082 -0.35620117 0 0 0 0
0.0023498535 0.1184082 -0.35620117 0 0 0 0
0.003446579 0.11804199 -0.35522461 0 0 0 0
0.0045509338 0.11804199 -0.35522461 0 0 0 0
0.0056381226 0.11773682 -0.35424805 0 0 0 0
0.0067405701 0.11773682 -0.35424805 0 0 0 0
0.0078353882 0.11773682 -0.35424805 0 0 0 0
0.011741638 0.12408447 -0.37329102 0 0 0 0
0.012901306 0.12408447 -0.37329102 0 0 0 0
0.014060974 0.12408447 -0.37329102 0 0 0 0
0.015220642 0.12408447 -0.37329102 0 0 0 0
0.016372681 0.12408447 -0.37329102 0 0 0 0
0.017532349 0.12408447 -0.37329102 0 0 0 0
0.025527954 0.11804199 -0.35522461 0 0 0 0
0.026702881 0.1184082 -0.35620117 0 0 0 0
0.027816772 0.1184082 -0.35620117 0 0 0 0
0.028991699 0.11871338 -0.35717773 0 0 0 0
0.030197144 0.11907959 -0.35839844 0 0 0 0
0.031311035 0.11907959 -0.35839844 0 0 0 0
0.032501221 0.11938477 -0.359375 0 0 0 0
0.033630371 0.11938477 -0.359375 0 0 0 0
0.034820557 0.11975098 -0.36035156 0 0 0 0
0.03604126 0.12005615 -0.36132812 0 0 0 0
0.03729248 0.12042236 -0.36230469 0 0 0 0
0.038513184 0.12072754 -0.36328125 0 0 0 0
0.039764404 0.12109375 -0.36425781 0 0 0 0
0.040985107 0.12139893 -0.36523438 0 0 0 0
0.042236328 0.12176514 -0.36621094 0 0 0 0
0.043518066 0.12207031 -0.36743164 0 0 0 0
0.044769287 0.12237549 -0.3684082 0 0 0 0
0.046051025 0.1227417 -0.36938477 0 0 0 0
0.047180176 0.1227417 -0.36938477 0 0 0 0
0.048461914 0.12304688 -0.37036133 0 0 0 0
0.049621582 0.12304688 -0.37036133 0 0 0 0
-0.072509766 0.13049316 -0.39648438 0 0 0 0
-0.071289062 0.13049316 -0.39648438 0 0 0 0
-0.070068359 0.13049316 -0.39648438 0 0 0 0
-0.068786621 0.13049316 -0.39648438 0 0 0 0
-0.067749023 0.13085938 -0.39746094 0 0 0 0
-0.06652832 0.13085938 -0.39746094 0 0 0 0
-0.065307617 0.13085938 -0.39746094 0 0 0 0
-0.064025879 0.13085938 -0.39746094 0 0 0 0
-0.062988281 0.13110352 -0.3984375 0 0 0 0
-0.061737061 0.13110352 -0.3984375 0 0 0 0
-0.060668945 0.13146973 -0.39941406 0 0 0 0
-0.059570312 0.13183594 -0.40039062 0 0 0 0
-0.05847168 0.13208008 -0.40136719 0 0 0 0
-0.057373047 0.13244629 -0.40234375 0 0 0 0
-0.056243896 0.1328125 -0.40356445 0 0 0 0
-0.054992676 0.1328125 -0.40356445 0 0 0 0
-0.053741455 0.1328125 -0.40356445 0 0 0 0
-0.052490234 0.1328125 -0.40356445 0 0 0 0
-0.051239014 0.1328125 -0.40356445 0 0 0 0
-0.049865723 0.13244629 -0.40234375 0 0 0 0
-0.048492432 0.13208008 -0.40136719 0 0 0 0
-0.047241211 0.13208008 -0.40136719 0 0 0 0
-0.04586792 0.13183594 -0.40039062 0 0 0 0
-0.044647217 0.13183594 -0.40039062 0 0 0 0
-0.043273926 0.13146973 -0.39941406 0 0 0 0
-0.042053223 0.13146973 -0.39941406 0 0 0 0
-0.040802002 0.13146973 -0.39941406 0 0 0 0
-0.039550781 0.13146973 -0.39941406 0 0 0 0
-0.038299561 0.13146973 -0.39941406 0 0 0 0
-0.037078857 0.13146973 -0.39941406 0 0 0 0
-0.035827637 0.13146973 -0.39941406 0 0 0 0
-0.034576416 0.13146973 -0.39941406 0 0 0 0
-0.033355713 0.13146973 -0.39941406 0 0 0 0
-0.032104492 0.13146973 -0.39941406 0 0 0 0
-0.03086853 0.13146973 -0.39941406 0 0 0 0
-0.029632568 0.13146973 -0.39941406 0 0 0 0
-0.028396606 0.13146973 -0.39941406 0 0 0 0
-0.019210815 0.12060547 -0.36621094 0 0 0 0
-0.01802063 0.12023926 -0.36523438 0 0 0 0
-0.016876221 0.12023926 -0.36523438 0 0 0 0
-0.01574707 0.12023926 -0.36523438 0 0 0 0
-0.014572144 0.11993408 -0.36425781 0 0 0 0
-0.013442993 0.11993408 -0.36425781 0 0 0 0
-0.012275696 0.11962891 -0.36328125 0 0 0 0
-0.01108551 0.11895752 -0.36132812 0 0 0 0
-0.0099334717 0.11859131 -0.36035156 0 0 0 0
-0.0087661743 0.11798096 -0.35839844 0 0 0 0
-0.0076332092 0.11761475 -0.35717773 0 0 0 0
-0.0065231323 0.11761475 -0.35717773 0 0 0 0
-0.0053977966 0.11730957 -0.35620117 0 0 0 0
-0.0042915344 0.11730957 -0.35620117 0 0 0 0
-0.0031852722 0.11730957 -0.35620117 0 0 0 0
-0.0020771027 0.11730957 -0.35620117 0 0 0 0
-0.00097084045 0.11730957 -0.35620117 0 0 0 0
0.0001360178 0.11730957 -0.35620117 0 0 0 0
0.0012426376 0.11730957 -0.35620117 0 0 0 0
0.0023498535 0.11730957 -0.35620117 0 0 0 0
0.003446579 0.11694336 -0.35522461 0 0 0 0
0.0045509338 0.11694336 -0.35522461 0 0 0 0
0.0056381226 0.11663818 -0.35424805 0 0 0 0
0.011741638 0.1229248 -0.37329102 0 0 0 0
0.012901306 0.1229248 -0.37329102 0 0 0 0
0.014060974 0.1229248 -0.37329102 0 0 0 0
0.015220642 0.1229248 -0.37329102 0 0 0 0
0.016372681 0.1229248 -0.37329102 0 0 0 0
0.023254395 0.11663818 -0.35424805 0 0 0 0
0.024414062 0.11694336 -0.35522461 0 0 0 0
0.025527954 0.11694336 -0.35522461 0 0 0 0
0.026702881 0.11730957 -0.35620117 0 0 0 0
0.027893066 0.11761475 -0.35717773 0 0 0 0
0.028991699 0.11761475 -0.35717773 0 0 0 0
0.030197144 0.11798096 -0.35839844 0 0 0 0
0.031311035 0.11798096 -0.35839844 0 0 0 0
0.032501221 0.11828613 -0.359375 0 0 0 0
0.033721924 0.11859131 -0.36035156 0 0 0 0
0.034820557 0.11859131 -0.36035156 0 0 0 0
0.03604126 0.11895752 -0.36132812 0 0 0 0
0.03729248 0.1192627 -0.36230469 0 0 0 0
0.038513184 0.11962891 -0.36328125 0 0 0 0
0.039764404 0.11993408 -0.36425781 0 0 0 0
0.040985107 0.12023926 -0.36523438 0 0 0 0
0.042236328 0.12060547 -0.36621094 0 0 0 0
0.043518066 0.12091064 -0.36743164 0 0 0 0
0.044769287 0.12127686 -0.3684082 0 0 0 0
0.046051025 0.12158203 -0.36938477 0 0 0 0
0.047302246 0.12194824 -0.37036133 0 0 0 0
0.048461914 0.12194824 -0.37036133 0 0 0 0
0.049621582 0.12194824 -0.37036133 0 0 0 0
-0.073730469 0.12927246 -0.39648438 0 0 0 0
-0.072509766 0.12927246 -0.39648438 0 0 0 0
-0.071289062 0.12927246 -0.39648438 0 0 0 0
-0.070068359 0.12927246 -0.39648438 0 0 0 0
-0.068786621 0.12927246 -0.39648438 0 0 0 0
-0.067565918 0.12927246 -0.39648438 0 0 0 0
-0.066345215 0.12927246 -0.39648438 0 0 0 0
-0.065307617 0.1295166 -0.39746094 0 0 0 0
-0.064025879 0.1295166 -0.39746094 0 0 0 0
-0.062805176 0.1295166 -0.39746094 0 0 0 0
-0.061737061 0.12988281 -0.3984375 0 0 0 0
-0.060668945 0.13024902 -0.39941406 0 0 0 0
-0.059570312 0.13061523 -0.40039062 0 0 0 0
-0.05847168 0.13085938 -0.40136719 0 0 0 0
-0.057373047 0.13122559 -0.40234375 0 0 0 0
-0.056121826 0.13122559 -0.40234375 0 0 0 0
-0.054992676 0.1315918 -0.40356445 0 0 0 0
-0.053741455 0.1315918 -0.40356445 0 0 0 0
-0.052368164 0.13122559 -0.40234375 0 0 0 0
-0.051116943 0.13122559 -0.40234375 0 0 0 0
-0.049743652 0.13085938 -0.40136719 0 0 0 0
-0.048492432 0.13085938 -0.40136719 0 0 0 0
-0.047119141 0.13061523 -0.40039062 0 0 0 0
-0.04586792 0.13061523 -0.40039062 0 0 0 0
-0.044525146 0.13024902 -0.39941406 0 0 0 0
-0.043273926 0.13024902 -0.39941406 0 0 0 0
-0.042053223 0.13024902 -0.39941406 0 0 0 0
-0.040802002 0.13024902 -0.39941406 0 0 0 0
-0.039550781 0.13024902 -0.39941406 0 0 0 0
-0.038421631 0.13061523 -0.40039062 0 0 0 0
-0.03717041 0.13061523 -0.40039062 0 0 0 0
-0.035827637 0.13024902 -0.39941406 0 0 0 0
-0.034576416 0.13024902 -0.39941406 0 0 0 0
-0.033355713 0.13024902 -0.39941406 0 0 0 0
-0.032104492 0.13024902 -0.39941406 0 0 0 0
-0.03086853 0.13024902 -0.39941406 0 0 0 0
-0.029632568 0.13024902 -0.39941406 0 0 0 0
-0.01914978 0.11914062 -0.36523438 0 0 0 0
-0.01802063 0.11914062 -0.36523438 0 0 0 0
-0.016876221 0.11914062 -0.36523438 0 0 0 0
-0.015701294 0.11877441 -0.36425781 0 0 0 0
-0.014572144 0.11877441 -0.36425781 0 0 0 0
-0.013404846 0.11846924 -0.36328125 0 0 0 0
-0.012245178 0.11816406 -0.36230469 0 0 0 0
-0.01108551 0.11779785 -0.36132812 0 0 0 0
-0.0099105835 0.1171875 -0.359375 0 0 0 0
-0.0087661743 0.11682129 -0.35839844 0 0 0 0
-0.0076332092 0.11651611 -0.35717773 0 0 0 0
-0.0065040588 0.11621094 -0.35620117 0 0 0 0
-0.0053825378 0.11584473 -0.35522461 0 0 0 0
-0.0042915344 0.11621094 -0.35620117 0 0 0 0
-0.0031852722 0.11621094 -0.35620117 0 0 0 0
-0.0020771027 0.11621094 -0.35620117 0 0 0 0
-0.00097084045 0.11621094 -0.35620117 0 0 0 0
0.0001360178 0.11621094 -0.35620117 0 0 0 0
0.0012426376 0.11621094 -0.35620117 0 0 0 0
0.0023498535 0.11621094 -0.35620117 0 0 0 0
0.003446579 0.11584473 -0.35522461 0 0 0 0
0.01058197 0.12176514 -0.37329102 0 0 0 0
0.011741638 0.12176514 -0.37329102 0 0 0 0
0.012901306 0.12176514 -0.37329102 0 0 0 0
0.014060974 0.12176514 -0.37329102 0 0 0 0
0.015220642 0.12176514 -0.37329102 0 0 0 0
0.018630981 0.11419678 -0.3503418 0 0 0 0
0.019714355 0.11419678 -0.3503418 0 0 0 0
0.020874023 0.11456299 -0.35131836 0 0 0 0
0.022018433 0.11486816 -0.35229492 0 0 0 0
0.023254395 0.11553955 -0.35424805 0 0 0 0
0.024414062 0.11584473 -0.35522461 0 0 0 0
0.025527954 0.11584473 -0.35522461 0 0 0 0
0.026702881 0.11621094 -0.35620117 0 0 0 0
0.027893066 0.11651611 -0.35717773 0 0 0 0
0.028991699 0.11651611 -0.35717773 0 0 0 0
0.030197144 0.11682129 -0.35839844 0 0 0 0
0.03137207 0.1171875 -0.359375 0 0 0 0
0.032501221 0.1171875 -0.359375 0 0 0 0
0.033721924 0.11749268 -0.36035156 0 0 0 0
0.034820557 0.11749268 -0.36035156 0 0 0 0
0.03604126 0.11779785 -0.36132812 0 0 0 0
0.03729248 0.11816406 -0.36230469 0 0 0 0
0.038513184 0.11846924 -0.36328125 0 0 0 0
0.039764404 0.11877441 -0.36425781 0 0 0 0
0.040985107 0.11914062 -0.36523438 0 0 0 0
0.042236328 0.1194458 -0.36621094 0 0 0 0
0.043518066 0.11981201 -0.36743164 0 0 0 0
0.044769287 0.12011719 -0.3684082 0 0 0 0
0.046051025 0.12042236 -0.36938477 0 0 0 0
0.047302246 0.12078857 -0.37036133 0 0 0 0
0.048461914 0.12078857 -0.37036133 0 0 0 0
-0.074951172 0.12805176 -0.39648438 0 0 0 0
-0.073730469 0.12805176 -0.39648438 0 0 0 0
-0.072509766 0.12805176 -0.39648438 0 0 0 0
-0.071289062 0.12805176 -0.39648438 0 0 0 0
-0.070068359 0.12805176 -0.39648438 0 0 0 0
-0.068786621 0.12805176 -0.39648438 0 0 0 0
-0.067565918 0.12805176 -0.39648438 0 0 0 0
-0.066345215 0.12805176 -0.39648438 0 0 0 0
-0.065124512 0.12805176 -0.39648438 0 0 0 0
-0.064025879 0.1282959 -0.39746094 0 0 0 0
-0.062805176 0.1282959 -0.39746094 0 0 0 0
-0.061737061 0.12866211 -0.3984375 0 0 0 0
-0.060668945 0.12902832 -0.39941406 0 0 0 0
-0.059570312 0.12927246 -0.40039062 0 0 0 0
-0.058319092 0.12927246 -0.40039062 0 0 0 0
-0.057220459 0.12963867 -0.40136719 0 0 0 0
-0.056121826 0.13000488 -0.40234375 0 0 0 0
-0.054870605 0.13000488 -0.40234375 0 0 0 0
-0.053619385 0.13000488 -0.40234375 0 0 0 0
-0.052246094 0.12963867 -0.40136719 0 0 0 0
-0.050994873 0.12963867 -0.40136719 0 0 0 0
-0.049621582 0.12927246 -0.40039062 0 0 0 0
-0.048370361 0.12927246 -0.40039062 0 0 0 0
-0.04699707 0.12902832 -0.39941406 0 0 0 0
-0.045776367 0.12902832 -0.39941406 0 0 0 0
-0.044525146 0.12902832 -0.39941406 0 0 0 0
-0.043273926 0.12902832 -0.39941406 0 0 0 0
-0.042053223 0.12902832 -0.39941406 0 0 0 0
-0.040893555 0.12927246 -0.40039062 0 0 0 0
-0.039642334 0.12927246 -0.40039062 0 0 0 0
-0.038421631 0.12927246 -0.40039062 0 0 0 0
-0.03717041 0.12927246 -0.40039062 0 0 0 0
-0.035919189 0.12927246 -0.40039062 0 0 0 0
-0.034667969 0.12927246 -0.40039062 0 0 0 0
-0.020294189 0.11798096 -0.36523438 0 0 0 0
-0.01914978 0.11798096 -0.36523438 0 0 0 0
-0.01802063 0.11798096 -0.36523438 0 0 0 0
-0.016876221 0.11798096 -0.36523438 0 0 0 0
-0.015701294 0.11767578 -0.36425781 0 0 0 0
-0.014572144 0.11767578 -0.36425781 0 0 0 0
-0.013404846 0.11737061 -0.36328125 0 0 0 0
-0.012245178 0.11700439 -0.36230469 0 0 0 0
-0.011054993 0.11639404 -0.36035156 0 0 0 0
-0.0098800659 0.11572266 -0.35839844 0 0 0 0
-0.0087203979 0.11505127 -0.35620117 0 0 0 0
-0.0076141357 0.11505127 -0.35620117 0 0 0 0
-0.0064888 0.11474609 -0.35522461 0 0 0 0
-0.0053672791 0.11444092 -0.35424805 0 0 0 0
-0.0042800903 0.11474609 -0.35522461 0 0 0 0
-0.0031757355 0.11474609 -0.35522461 0 0 0 0
-0.0020713806 0.11474609 -0.35522461 0 0 0 0
-0.00096845627 0.11474609 -0.35522461 0 0 0 0
0.0012426376 0.11505127 -0.35620117 0 0 0 0
0.0094223022 0.12060547 -0.37329102 0 0 0 0
0.01058197 0.12060547 -0.37329102 0 0 0 0
0.011741638 0.12060547 -0.37329102 0 0 0 0
0.012901306 0.12060547 -0.37329102 0 0 0 0
0.017486572 0.11279297 -0.34912109 0 0 0 0
0.018630981 0.11315918 -0.3503418 0 0 0 0
0.019714355 0.11315918 -0.3503418 0 0 0 0
0.020874023 0.11346436 -0.35131836 0 0 0 0
0.022079468 0.11413574 -0.35327148 0 0 0 0
0.023254395 0.11444092 -0.35424805 0 0 0 0
0.024414062 0.11474609 -0.35522461 0 0 0 0
0.025588989 0.11505127 -0.35620117 0 0 0 0
0.026702881 0.11505127 -0.35620117 0 0 0 0
0.027893066 0.11541748 -0.35717773 0 0 0 0
0.029083252 0.11572266 -0.35839844 0 0 0 0
0.030197144 0.11572266 -0.35839844 0 0 0 0
0.03137207 0.11602783 -0.359375 0 0 0 0
0.032501221 0.11602783 -0.359375 0 0 0 0
0.033721924 0.11639404 -0.36035156 0 0 0 0
0.034942627 0.11669922 -0.36132812 0 0 0 0
0.03604126 0.11669922 -0.36132812 0 0 0 0
0.03729248 0.11700439 -0.36230469 0 0 0 0
0.038513184 0.11737061 -0.36328125 0 0 0 0
0.039764404 0.11767578 -0.36425781 0 0 0 0
0.040985107 0.11798096 -0.36523438 0 0 0 0
0.042236328 0.11834717 -0.36621094 0 0 0 0
0.043518066 0.11865234 -0.36743164 0 0 0 0
0.044769287 0.11895752 -0.3684082 0 0 0 0
0.046051025 0.11932373 -0.36938477 0 0 0 0
0.047180176 0.11932373 -0.36938477 0 0 0 0
-0.091796875 0.12298584 -0.38427734 0 0 0 0
-0.090637207 0.12298584 -0.38427734 0 0 0 0
-0.074951172 0.12683105 -0.39648438 0 0 0 0
-0.073730469 0.12683105 -0.39648438 0 0 0 0
-0.072509766 0.12683105 -0.39648438 0 0 0 0
-0.071105957 0.12646484 -0.39550781 0 0 0 0
-0.069885254 0.12646484 -0.39550781 0 0 0 0
-0.068664551 0.12646484 -0.39550781 0 0 0 0
-0.067565918 0.12683105 -0.39648438 0 0 0 0
-0.066345215 0.12683105 -0.39648438 0 0 0 0
-0.065124512 0.12683105 -0.39648438 0 0 0 0
-0.063903809 0.12683105 -0.39648438 0 0 0 0
-0.062805176 0.1270752 -0.39746094 0 0 0 0
-0.061737061 0.12744141 -0.3984375 0 0 0 0
-0.060668945 0.12780762 -0.39941406 0 0 0 0
-0.059417725 0.12780762 -0.39941406 0 0 0 0
-0.058319092 0.12805176 -0.40039062 0 0 0 0
-0.057220459 0.12841797 -0.40136719 0 0 0 0
-0.055969238 0.12841797 -0.40136719 0 0 0 0
-0.054718018 0.12841797 -0.40136719 0 0 0 0
-0.053466797 0.12841797 -0.40136719 0 0 0 0
-0.052246094 0.12841797 -0.40136719 0 0 0 0
-0.050842285 0.12805176 -0.40039062 0 0 0 0
-0.049499512 0.12780762 -0.39941406 0 0 0 0
-0.048248291 0.12780762 -0.39941406 0 0 0 0
-0.04699707 0.12780762 -0.39941406 0 0 0 0
-0.045776367 0.12780762 -0.39941406 0 0 0 0
-0.044525146 0.12780762 -0.39941406 0 0 0 0
-0.043273926 0.12780762 -0.39941406 0 0 0 0
-0.042144775 0.12805176 -0.40039062 0 0 0 0
-0.040893555 0.12805176 -0.40039062 0 0 0 0
-0.039642334 0.12805176 -0.40039062 0 0 0 0
-0.038513184 0.12841797 -0.40136719 0 0 0 0
-0.037261963 0.12841797 -0.40136719 0 0 0 0
-0.035919189 0.12805176 -0.40039062 0 0 0 0
-0.020294189 0.11688232 -0.36523438 0 0 0 0
-0.01914978 0.11688232 -0.36523438 0 0 0 0
-0.01802063 0.11688232 -0.36523438 0 0 0 0
-0.016830444 0.11651611 -0.36425781 0 0 0 0
-0.015701294 0.11651611 -0.36425781 0 0 0 0
-0.014533997 0.11621094 -0.36328125 0 0 0 0
-0.013076782 0.11334229 -0.35424805 0 0 0 0
-0.01197052 0.11334229 -0.35424805 0 0 0 0
-0.010902405 0.11364746 -0.35522461 0 0 0 0
-0.0097732544 0.11334229 -0.35424805 0 0 0 0
-0.0086669922 0.11334229 -0.35424805 0 0 0 0
-0.0075683594 0.11334229 -0.35424805 0 0 0 0
-0.0064506531 0.11303711 -0.35327148 0 0 0 0
-0.0053520203 0.11303711 -0.35327148 0 0 0 0
-0.0042304993 0.11236572 -0.35131836 0 0 0 0
-0.0031299591 0.11206055 -0.3503418 0 0 0 0
-0.0020370483 0.11169434 -0.34912109 0 0 0 0
-0.00095176697 0.11169434 -0.34912109 0 0 0 0
0.0094223022 0.1194458 -0.37329102 0 0 0 0
0.01058197 0.1194458 -0.37329102 0 0 0 0
0.011741638 0.1194458 -0.37329102 0 0 0 0
0.012901306 0.1194458 -0.37329102 0 0 0 0
0.016403198 0.11169434 -0.34912109 0 0 0 0
0.017486572 0.11169434 -0.34912109 0 0 0 0
0.018630981 0.11206055 -0.3503418 0 0 0 0
0.019775391 0.11236572 -0.35131836 0 0 0 0
0.020935059 0.1126709 -0.35229492 0 0 0 0
0.022079468 0.11303711 -0.35327148 0 0 0 0
0.023254395 0.11334229 -0.35424805 0 0 0 0
0.024414062 0.11364746 -0.35522461 0 0 0 0
0.025588989 0.11395264 -0.35620117 0 0 0 0
0.026702881 0.11395264 -0.35620117 0 0 0 0
0.027893066 0.11431885 -0.35717773 0 0 0 0
0.029083252 0.11462402 -0.35839844 0 0 0 0
0.030273438 0.1149292 -0.359375 0 0 0 0
0.03137207 0.1149292 -0.359375 0 0 0 0
0.032592773 0.11523438 -0.36035156 0 0 0 0
0.033721924 0.11523438 -0.36035156 0 0 0 0
0.034942627 0.11560059 -0.36132812 0 0 0 0
0.03616333 0.11590576 -0.36230469 0 0 0 0
0.03729248 0.11590576 -0.36230469 0 0 0 0
0.038513184 0.11621094 -0.36328125 0 0 0 0
0.039764404 0.11651611 -0.36425781 0 0 0 0
0.040985107 0.11688232 -0.36523438 0 0 0 0
0.042236328 0.1171875 -0.36621094 0 0 0 0
0.043395996 0.1171875 -0.36621094 0 0 0 0
0.044647217 0.11749268 -0.36743164 0 0 0 0
0.045898438 0.11779785 -0.3684082 0 0 0 0
-0.094177246 0.12176514 -0.38427734 0 0 0 0
-0.093017578 0.12176514 -0.38427734 0 0 0 0
-0.091796875 0.12176514 -0.38427734 0 0 0 0
-0.090637207 0.12176514 -0.38427734 0 0 0 0
-0.089416504 0.12176514 -0.38427734 0 0 0 0
-0.088439941 0.12207031 -0.38549805 0 0 0 0
-0.087280273 0.12207031 -0.38549805 0 0 0 0
-0.074951172 0.12561035 -0.39648438 0 0 0 0
-0.073547363 0.12524414 -0.39550781 0 0 0 0
-0.07232666 0.12524414 -0.39550781 0 0 0 0
-0.071105957 0.12524414 -0.39550781 0 0 0 0
-0.069885254 0.12524414 -0.39550781 0 0 0 0
-0.068664551 0.12524414 -0.39550781 0 0 0 0
-0.067382812 0.12524414 -0.39550781 0 0 0 0
-0.066162109 0.12524414 -0.39550781 0 0 0 0
-0.065124512 0.12561035 -0.39648438 0 0 0 0
-0.063903809 0.12561035 -0.39648438 0 0 0 0
-0.062805176 0.12585449 -0.39746094 0 0 0 0
-0.061584473 0.12585449 -0.39746094 0 0 0 0
-0.060516357 0.1262207 -0.3984375 0 0 0 0
-0.059417725 0.12646484 -0.39941406 0 0 0 0
-0.058319092 0.12683105 -0.40039062 0 0 0 0
-0.057067871 0.12683105 -0.40039062 0 0 0 0
-0.055969238 0.12719727 -0.40136719 0 0 0 0
-0.054595947 0.12683105 -0.40039062 0 0 0 0
-0.053344727 0.12683105 -0.40039062 0 0 0 0
-0.052093506 0.12683105 -0.40039062 0 0 0 0
-0.050720215 0.12646484 -0.39941406 0 0 0 0
-0.049499512 0.12646484 -0.39941406 0 0 0 0
-0.048126221 0.1262207 -0.3984375 0 0 0 0
-0.046875 0.1262207 -0.3984375 0 0 0 0
-0.045654297 0.1262207 -0.3984375 0 0 0 0
-0.044525146 0.12646484 -0.39941406 0 0 0 0
-0.043273926 0.12646484 -0.39941406 0 0 0 0
-0.042144775 0.12683105 -0.40039062 0 0 0 0
-0.041015625 0.12719727 -0.40136719 0 0 0 0
-0.039764404 0.12719727 -0.40136719 0 0 0 0
-0.038513184 0.12719727 -0.40136719 0 0 0 0
-0.037261963 0.12719727 -0.40136719 0 0 0 0
-0.020294189 0.11572266 -0.36523438 0 0 0 0
-0.01914978 0.11572266 -0.36523438 0 0 0 0
-0.017974854 0.11541748 -0.36425781 0 0 0 0
-0.016830444 0.11541748 -0.36425781 0 0 0 0
-0.015701294 0.11541748 -0.36425781 0 0 0 0
-0.014533997 0.1151123 -0.36328125 0 0 0 0
-0.013076782 0.11224365 -0.35424805 0 0 0 0
-0.012008667 0.11254883 -0.35522461 0 0 0 0
-0.010871887 0.11224365 -0.35424805 0 0 0 0
-0.0097732544 0.11224365 -0.35424805 0 0 0 0
-0.008644104 0.11193848 -0.35327148 0 0 0 0
-0.0075492859 0.11193848 -0.35327148 0 0 0 0
-0.0064315796 0.11157227 -0.35229492 0 0 0 0
-0.0053367615 0.11157227 -0.35229492 0 0 0 0
-0.0042190552 0.11096191 -0.3503418 0 0 0 0
-0.0031223297 0.11065674 -0.34912109 0 0 0 0
-0.0020313263 0.11029053 -0.34814453 0 0 0 0
-0.00094890594 0.11029053 -0.34814453 0 0 0 0
0.00013291836 0.11029053 -0.34814453 0 0 0 0
0.0012149811 0.11029053 -0.34814453 0 0 0 0
0.0071029663 0.11828613 -0.37329102 0 0 0 0
0.0082626343 0.11828613 -0.37329102 0 0 0 0
0.0094223022 0.11828613 -0.37329102 0 0 0 0
0.01058197 0.11828613 -0.37329102 0 0 0 0
0.011741638 0.11828613 -0.37329102 0 0 0 0
0.016403198 0.11065674 -0.34912109 0 0 0 0
0.017547607 0.11096191 -0.3503418 0 0 0 0
0.018692017 0.11126709 -0.35131836 0 0 0 0
0.019775391 0.11126709 -0.35131836 0 0 0 0
0.020935059 0.11157227 -0.35229492 0 0 0 0
0.022079468 0.11193848 -0.35327148 0 0 0 0
0.023254395 0.11224365 -0.35424805 0 0 0 0
0.024414062 0.11254883 -0.35522461 0 0 0 0
0.025588989 0.112854 -0.35620117 0 0 0 0
0.026779175 0.11315918 -0.35717773 0 0 0 0
0.02796936 0.11352539 -0.35839844 0 0 0 0
0.029083252 0.11352539 -0.35839844 0 0 0 0
0.030273438 0.11383057 -0.359375 0 0 0 0
0.031463623 0.11413574 -0.36035156 0 0 0 0
0.032592773 0.11413574 -0.36035156 0 0 0 0
0.033813477 0.11444092 -0.36132812 0 0 0 0
0.034942627 0.11444092 -0.36132812 0 0 0 0
0.03616333 0.11474609 -0.36230469 0 0 0 0
0.03729248 0.11474609 -0.36230469 0 0 0 0
0.038513184 0.1151123 -0.36328125 0 0 0 0
0.039764404 0.11541748 -0.36425781 0 0 0 0
0.040893555 0.11541748 -0.36425781 0 0 0 0
0.042144775 0.11572266 -0.36523438 0 0 0 0
0.043395996 0.11602783 -0.36621094 0 0 0 0
0.044647217 0.11633301 -0.36743164 0 0 0 0
-0.09564209 0.12091064 -0.38549805 0 0 0 0
-0.094177246 0.12054443 -0.38427734 0 0 0 0
-0.093017578 0.12054443 -0.38427734 0 0 0 0
-0.091796875 0.12054443 -0.38427734 0 0 0 0
-0.090820312 0.12091064 -0.38549805 0 0 0 0
-0.089660645 0.12091064 -0.38549805 0 0 0 0
-0.088439941 0.12091064 -0.38549805 0 0 0 0
-0.087280273 0.12091064 -0.38549805 0 0 0 0
-0.08605957 0.12091064 -0.38549805 0 0 0 0
-0.074768066 0.12402344 -0.39550781 0 0 0 0
-0.073547363 0.12402344 -0.39550781 0 0 0 0
-0.07232666 0.12402344 -0.39550781 0 0 0 0
-0.070922852 0.12371826 -0.39453125 0 0 0 0
-0.069702148 0.12371826 -0.39453125 0 0 0 0
-0.068481445 0.12371826 -0.39453125 0 0 0 0
-0.067382812 0.12402344 -0.39550781 0 0 0 0
-0.066162109 0.12402344 -0.39550781 0 0 0 0
-0.064941406 0.12402344 -0.39550781 0 0 0 0
-0.063903809 0.12432861 -0.39648438 0 0 0 0
-0.06262207 0.12432861 -0.39648438 0 0 0 0
-0.061584473 0.12469482 -0.39746094 0 0 0 0
-0.060516357 0.125 -0.3984375 0 0 0 0
-0.059417725 0.12524414 -0.39941406 0 0 0 0
-0.058166504 0.12524414 -0.39941406 0 0 0 0
-0.057067871 0.12561035 -0.40039062 0 0 0 0
-0.055847168 0.12561035 -0.40039062 0 0 0 0
-0.054443359 0.12524414 -0.39941406 0 0 0 0
-0.053222656 0.12524414 -0.39941406 0 0 0 0
-0.051971436 0.12524414 -0.39941406 0 0 0 0
-0.050598145 0.125 -0.3984375 0 0 0 0
-0.049377441 0.125 -0.3984375 0 0 0 0
-0.048126221 0.125 -0.3984375 0 0 0 0
-0.046875 0.125 -0.3984375 0 0 0 0
-0.045654297 0.125 -0.3984375 0 0 0 0
-0.044525146 0.12524414 -0.39941406 0 0 0 0
-0.043273926 0.12524414 -0.39941406 0 0 0 0
-0.042144775 0.12561035 -0.40039062 0 0 0 0
-0.041015625 0.12585449 -0.40136719 0 0 0 0
-0.039764404 0.12585449 -0.40136719 0 0 0 0
-0.038604736 0.1262207 -0.40234375 0 0 0 0
-0.020294189 0.11456299 -0.36523438 0 0 0 0
-0.01914978 0.11456299 -0.36523438 0 0 0 0
-0.017974854 0.11425781 -0.36425781 0 0 0 0
-0.016830444 0.11425781 -0.36425781 0 0 0 0
-0.015655518 0.11395264 -0.36328125 0 0 0 0
-0.014533997 0.11395264 -0.36328125 0 0 0 0
-0.0131073 0.1114502 -0.35522461 0 0 0 0
-0.01197052 0.11114502 -0.35424805 0 0 0 0
-0.01084137 0.11083984 -0.35327148 0 0 0 0
-0.0097427368 0.11083984 -0.35327148 0 0 0 0
-0.0086212158 0.11047363 -0.35229492 0 0 0 0
-0.0075263977 0.11047363 -0.35229492 0 0 0 0
-0.0064125061 0.11016846 -0.35131836 0 0 0 0
-0.0053062439 0.10986328 -0.3503418 0 0 0 0
-0.0042076111 0.10955811 -0.34912109 0 0 0 0
-0.003112793 0.10925293 -0.34814453 0 0 0 0
-0.0020313263 0.10925293 -0.34814453 0 0 0 0
-0.00094652176 0.10894775 -0.34716797 0 0 0 0
0.00013256073 0.10894775 -0.34716797 0 0 0 0
0.0012111664 0.10894775 -0.34716797 0 0 0 0
0.0070838928 0.11682129 -0.37231445 0 0 0 0
0.0082397461 0.11682129 -0.37231445 0 0 0 0
0.0094223022 0.11712646 -0.37329102 0 0 0 0
0.01058197 0.11712646 -0.37329102 0 0 0 0
0.011741638 0.11712646 -0.37329102 0 0 0 0
0.016448975 0.10986328 -0.3503418 0 0 0 0
0.017547607 0.10986328 -0.3503418 0 0 0 0
0.018692017 0.11016846 -0.35131836 0 0 0 0
0.019836426 0.11047363 -0.35229492 0 0 0 0
0.020935059 0.11047363 -0.35229492 0 0 0 0
0.022079468 0.11083984 -0.35327148 0 0 0 0
0.023254395 0.11114502 -0.35424805 0 0 0 0
0.024414062 0.1114502 -0.35522461 0 0 0 0
0.025588989 0.11175537 -0.35620117 0 0 0 0
0.026779175 0.11206055 -0.35717773 0 0 0 0
0.02796936 0.11236572 -0.35839844 0 0 0 0
0.029159546 0.1126709 -0.359375 0 0 0 0
0.030273438 0.1126709 -0.359375 0 0 0 0
0.031463623 0.11303711 -0.36035156 0 0 0 0
0.032592773 0.11303711 -0.36035156 0 0 0 0
0.033813477 0.11334229 -0.36132812 0 0 0 0
0.034942627 0.11334229 -0.36132812 0 0 0 0
0.03616333 0.11364746 -0.36230469 0 0 0 0
0.03729248 0.11364746 -0.36230469 0 0 0 0
0.038513184 0.11395264 -0.36328125 0 0 0 0
0.039642334 0.11395264 -0.36328125 0 0 0 0
0.040893555 0.11425781 -0.36425781 0 0 0 0
0.042022705 0.11425781 -0.36425781 0 0 0 0
0.043273926 0.11456299 -0.36523438 0 0 0 0
-0.09564209 0.11968994 -0.38549805 0 0 0 0
-0.094421387 0.11968994 -0.38549805 0 0 0 0
-0.093261719 0.11968994 -0.38549805 0 0 0 0
-0.092041016 0.11968994 -0.38549805 0 0 0 0
-0.090820312 0.11968994 -0.38549805 0 0 0 0
-0.089660645 0.11968994 -0.38549805 0 0 0 0
-0.088439941 0.11968994 -0.38549805 0 0 0 0
-0.087280273 0.11968994 -0.38549805 0 0 0 0
-0.08605957 0.11968994 -0.38549805 0 0 0 0
-0.084838867 0.11968994 -0.38549805 0 0 0 0
-0.07598877 0.12280273 -0.39550781 0 0 0 0
-0.074584961 0.12249756 -0.39453125 0 0 0 0
-0.073364258 0.12249756 -0.39453125 0 0 0 0
-0.072143555 0.12249756 -0.39453125 0 0 0 0
-0.070739746 0.12219238 -0.39331055 0 0 0 0
-0.069519043 0.12219238 -0.39331055 0 0 0 0
-0.06829834 0.12219238 -0.39331055 0 0 0 0
-0.067260742 0.12249756 -0.39453125 0 0 0 0
-0.066040039 0.12249756 -0.39453125 0 0 0 0
-0.064941406 0.12280273 -0.39550781 0 0 0 0
-0.063720703 0.12280273 -0.39550781 0 0 0 0
-0.06262207 0.12310791 -0.39648438 0 0 0 0
-0.061584473 0.12341309 -0.39746094 0 0 0 0
-0.06036377 0.12341309 -0.39746094 0 0 0 0
-0.059265137 0.12371826 -0.3984375 0 0 0 0
-0.058044434 0.12371826 -0.3984375 0 0 0 0
-0.056945801 0.12408447 -0.39941406 0 0 0 0
-0.05569458 0.12408447 -0.39941406 0 0 0 0
-0.054321289 0.12371826 -0.3984375 0 0 0 0
-0.053070068 0.12371826 -0.3984375 0 0 0 0
-0.051849365 0.12371826 -0.3984375 0 0 0 0
-0.050476074 0.12341309 -0.39746094 0 0 0 0
-0.049224854 0.12341309 -0.39746094 0 0 0 0
-0.04800415 0.12341309 -0.39746094 0 0 0 0
-0.04675293 0.12341309 -0.39746094 0 0 0 0
-0.045654297 0.12371826 -0.3984375 0 0 0 0
-0.044525146 0.12408447 -0.39941406 0 0 0 0
-0.043273926 0.12408447 -0.39941406 0 0 0 0
-0.042144775 0.12438965 -0.40039062 0 0 0 0
-0.041015625 0.12469482 -0.40136719 0 0 0 0
-0.039855957 0.125 -0.40234375 0 0 0 0
-0.038696289 0.12524414 -0.40356445 0 0 0 0
-0.020294189 0.11346436 -0.36523438 0 0 0 0
-0.019104004 0.11315918 -0.36425781 0 0 0 0
-0.017974854 0.11315918 -0.36425781 0 0 0 0
-0.016830444 0.11315918 -0.36425781 0 0 0 0
-0.015655518 0.112854 -0.36328125 0 0 0 0
-0.01449585 0.11254883 -0.36230469 0 0 0 0
-0.0131073 0.11035156 -0.35522461 0 0 0 0
-0.01197052 0.11004639 -0.35424805 0 0 0 0
-0.01084137 0.10974121 -0.35327148 0 0 0 0
-0.0097122192 0.109375 -0.35229492 0 0 0 0
