ply
format ascii 1.0
comment PCL generated
element vertex 1087
property float x
property float y
property float z
property float nx
property float ny
property float nz
property float curvature
element face 0
element camera 0
property float view_px
property float view_py
property float view_pz
property float x_axisx
property float x_axisy
property float x_axisz
property float y_axisx
property float y_axisy
property float y_axisz
property float z_axisx
property float z_axisy
property float z_axisz
property float focal
property float scalex
property float scaley
property float centerx
property float centery
property int viewportx
property int viewporty
property float k1
property float k2
end_header
0.03604126 0.068664551 -0.33007812 0 0 0 0
0.03692627 0.068481445 -0.32910156 0 0 0 0
0.037841797 0.068237305 -0.328125 0 0 0 0
0.038757324 0.068054199 -0.32714844 0 0 0 0
0.039764404 0.068054199 -0.32714844 0 0 0 0
0.040649414 0.067871094 -0.32617188 0 0 0 0
0.041656494 0.067871094 -0.32617188 0 0 0 0
0.042541504 0.067626953 -0.32519531 0 0 0 0
0.043548584 0.067626953 -0.32519531 0 0 0 0
0.044433594 0.067443848 -0.32421875 0 0 0 0
0.045288086 0.067199707 -0.32324219 0 0 0 0
0.046173096 0.067016602 -0.32202148 0 0 0 0
0.047027588 0.066772461 -0.32104492 0 0 0 0
0.047851562 0.066589355 -0.32006836 0 0 0 0
0.048706055 0.06640625 -0.3190918 0 0 0 0
0.049530029 0.066162109 -0.31811523 0 0 0 0
0.050384521 0.065979004 -0.31713867 0 0 0 0
0.051361084 0.065979004 -0.31713867 0 0 0 0
0.052185059 0.065734863 -0.31616211 0 0 0 0
0.052978516 0.065551758 -0.31518555 0 0 0 0
0.05380249 0.065368652 -0.31420898 0 0 0 0
0.054779053 0.065368652 -0.31420898 0 0 0 0
0.05557251 0.065124512 -0.31298828 0 0 0 0
0.056549072 0.065124512 -0.31298828 0 0 0 0
0.057342529 0.064941406 -0.31201172 0 0 0 0
0.058319092 0.064941406 -0.31201172 0 0 0 0
0.059265137 0.064941406 -0.31201172 0 0 0 0
0.060241699 0.064941406 -0.31201172 0 0 0 0
0.061401367 0.065124512 -0.31298828 0 0 0 0
0.062561035 0.065368652 -0.31420898 0 0 0 0
0.063537598 0.065368652 -0.31420898 0 0 0 0
0.064758301 0.065551758 -0.31518555 0 0 0 0
0.065917969 0.065734863 -0.31616211 0 0 0 0
0.067138672 0.065979004 -0.31713867 0 0 0 0
0.06829834 0.066162109 -0.31811523 0 0 0 0
0.069519043 0.06640625 -0.3190918 0 0 0 0
0.070983887 0.066772461 -0.32104492 0 0 0 0
0.072631836 0.067443848 -0.32421875 0 0 0 0
0.073852539 0.067626953 -0.32519531 0 0 0 0
0.075134277 0.067871094 -0.32617188 0 0 0 0
0.07635498 0.068054199 -0.32714844 0 0 0 0
0.077636719 0.068237305 -0.328125 0 0 0 0
0.078857422 0.068481445 -0.32910156 0 0 0 0
0.080383301 0.068908691 -0.33105469 0 0 0 0
0.081665039 0.069091797 -0.33227539 0 0 0 0
0.083190918 0.069519043 -0.33422852 0 0 0 0
0.084716797 0.069946289 -0.33618164 0 0 0 0
0.086303711 0.070373535 -0.33813477 0 0 0 0
0.087585449 0.070556641 -0.33911133 0 0 0 0
0.089172363 0.070983887 -0.34130859 0 0 0 0
0.090759277 0.071411133 -0.34326172 0 0 0 0
0.092102051 0.071594238 -0.34423828 0 0 0 0
0.093688965 0.072021484 -0.34619141 0 0 0 0
0.095092773 0.07220459 -0.34716797 0 0 0 0
0.096679688 0.072631836 -0.34912109 0 0 0 0
0.098083496 0.072875977 -0.3503418 0 0 0 0
0.099731445 0.073303223 -0.35229492 0 0 0 0
0.10137939 0.073669434 -0.35424805 0 0 0 0
0.1027832 0.073913574 -0.35522461 0 0 0 0
0.10449219 0.07434082 -0.35717773 0 0 0 0
0.105896 0.074523926 -0.35839844 0 0 0 0
0.1072998 0.074707031 -0.359375 0 0 0 0
0.10900879 0.075134277 -0.36132812 0 0 0 0
0.11047363 0.075378418 -0.36230469 0 0 0 0
0.11187744 0.075561523 -0.36328125 0 0 0 0
0.11334229 0.075805664 -0.36425781 0 0 0 0
0.1151123 0.076171875 -0.36621094 0 0 0 0
0.11657715 0.076416016 -0.36743164 0 0 0 0
0.11834717 0.076843262 -0.36938477 0 0 0 0
0.12011719 0.077270508 -0.37133789 0 0 0 0
0.021575928 0.070739746 -0.34521484 0 0 0 0
0.022583008 0.070556641 -0.34423828 0 0 0 0
0.023590088 0.0703125 -0.34326172 0 0 0 0
0.024581909 0.070129395 -0.34228516 0 0 0 0
0.02557373 0.069946289 -0.34130859 0 0 0 0
0.026641846 0.069946289 -0.34130859 0 0 0 0
0.027450562 0.069274902 -0.33813477 0 0 0 0
0.028411865 0.069091797 -0.3371582 0 0 0 0
0.029373169 0.068908691 -0.33618164 0 0 0 0
0.030334473 0.068664551 -0.33520508 0 0 0 0
0.03137207 0.068664551 -0.33520508 0 0 0 0
0.032318115 0.068481445 -0.33422852 0 0 0 0
0.033233643 0.06829834 -0.33325195 0 0 0 0
0.034179688 0.068054199 -0.33227539 0 0 0 0
0.035095215 0.067871094 -0.33105469 0 0 0 0
0.03604126 0.067626953 -0.33007812 0 0 0 0
0.03692627 0.067443848 -0.32910156 0 0 0 0
0.037841797 0.067260742 -0.328125 0 0 0 0
0.038757324 0.067016602 -0.32714844 0 0 0 0
0.039764404 0.067016602 -0.32714844 0 0 0 0
0.040649414 0.066833496 -0.32617188 0 0 0 0
0.041656494 0.066833496 -0.32617188 0 0 0 0
0.042541504 0.066650391 -0.32519531 0 0 0 0
0.043548584 0.066650391 -0.32519531 0 0 0 0
0.044433594 0.06640625 -0.32421875 0 0 0 0
0.045288086 0.066223145 -0.32324219 0 0 0 0
0.046173096 0.065979004 -0.32202148 0 0 0 0
0.047027588 0.065795898 -0.32104492 0 0 0 0
0.047851562 0.065612793 -0.32006836 0 0 0 0
0.048706055 0.065368652 -0.3190918 0 0 0 0
0.049530029 0.065185547 -0.31811523 0 0 0 0
0.050537109 0.065185547 -0.31811523 0 0 0 0
0.051361084 0.065002441 -0.31713867 0 0 0 0
0.052185059 0.064758301 -0.31616211 0 0 0 0
0.052978516 0.064575195 -0.31518555 0 0 0 0
0.05380249 0.06439209 -0.31420898 0 0 0 0
0.054779053 0.06439209 -0.31420898 0 0 0 0
0.05557251 0.064147949 -0.31298828 0 0 0 0
0.056549072 0.064147949 -0.31298828 0 0 0 0
0.057342529 0.063964844 -0.31201172 0 0 0 0
0.058319092 0.063964844 -0.31201172 0 0 0 0
0.059265137 0.063964844 -0.31201172 0 0 0 0
0.060241699 0.063964844 -0.31201172 0 0 0 0
0.061401367 0.064147949 -0.31298828 0 0 0 0
0.06237793 0.064147949 -0.31298828 0 0 0 0
0.063537598 0.06439209 -0.31420898 0 0 0 0
0.064758301 0.064575195 -0.31518555 0 0 0 0
0.065917969 0.064758301 -0.31616211 0 0 0 0
0.067138672 0.065002441 -0.31713867 0 0 0 0
0.06829834 0.065185547 -0.31811523 0 0 0 0
0.069519043 0.065368652 -0.3190918 0 0 0 0
0.070983887 0.065795898 -0.32104492 0 0 0 0
0.072631836 0.06640625 -0.32421875 0 0 0 0
0.073852539 0.066650391 -0.32519531 0 0 0 0
0.075134277 0.066833496 -0.32617188 0 0 0 0
0.07635498 0.067016602 -0.32714844 0 0 0 0
0.077636719 0.067260742 -0.328125 0 0 0 0
0.078857422 0.067443848 -0.32910156 0 0 0 0
0.080383301 0.067871094 -0.33105469 0 0 0 0
0.081665039 0.068054199 -0.33227539 0 0 0 0
0.083190918 0.068481445 -0.33422852 0 0 0 0
0.084716797 0.068908691 -0.33618164 0 0 0 0
0.08605957 0.069091797 -0.3371582 0 0 0 0
0.087585449 0.069519043 -0.33911133 0 0 0 0
0.088928223 0.069702148 -0.34008789 0 0 0 0
0.090759277 0.0703125 -0.34326172 0 0 0 0
0.092102051 0.070556641 -0.34423828 0 0 0 0
0.093688965 0.070922852 -0.34619141 0 0 0 0
0.095092773 0.071166992 -0.34716797 0 0 0 0
0.096679688 0.071533203 -0.34912109 0 0 0 0
0.098083496 0.071777344 -0.3503418 0 0 0 0
0.099731445 0.07220459 -0.35229492 0 0 0 0
0.10113525 0.072387695 -0.35327148 0 0 0 0
0.1027832 0.072814941 -0.35522461 0 0 0 0
0.10449219 0.073181152 -0.35717773 0 0 0 0
0.105896 0.073425293 -0.35839844 0 0 0 0
0.1072998 0.073608398 -0.359375 0 0 0 0
0.10900879 0.074035645 -0.36132812 0 0 0 0
0.11047363 0.07421875 -0.36230469 0 0 0 0
0.11187744 0.074462891 -0.36328125 0 0 0 0
0.11334229 0.074645996 -0.36425781 0 0 0 0
0.1151123 0.075073242 -0.36621094 0 0 0 0
0.11657715 0.075256348 -0.36743164 0 0 0 0
0.11834717 0.075683594 -0.36938477 0 0 0 0
0.12011719 0.07611084 -0.37133789 0 0 0 0
0.021575928 0.069641113 -0.34521484 0 0 0 0
0.022583008 0.069458008 -0.34423828 0 0 0 0
0.023590088 0.069274902 -0.34326172 0 0 0 0
0.024581909 0.069030762 -0.34228516 0 0 0 0
0.02557373 0.068847656 -0.34130859 0 0 0 0
0.026641846 0.068847656 -0.34130859 0 0 0 0
0.027526855 0.068481445 -0.33911133 0 0 0 0
0.028503418 0.068237305 -0.33813477 0 0 0 0
0.029464722 0.068054199 -0.3371582 0 0 0 0
0.030426025 0.067871094 -0.33618164 0 0 0 0
0.03137207 0.067626953 -0.33520508 0 0 0 0
0.032318115 0.067443848 -0.33422852 0 0 0 0
0.033233643 0.067260742 -0.33325195 0 0 0 0
0.034179688 0.067016602 -0.33227539 0 0 0 0
0.035095215 0.066833496 -0.33105469 0 0 0 0
0.03604126 0.066650391 -0.33007812 0 0 0 0
0.03692627 0.06640625 -0.32910156 0 0 0 0
0.037841797 0.066223145 -0.328125 0 0 0 0
0.038879395 0.066223145 -0.328125 0 0 0 0
0.039764404 0.066040039 -0.32714844 0 0 0 0
0.040649414 0.065795898 -0.32617188 0 0 0 0
0.041656494 0.065795898 -0.32617188 0 0 0 0
0.042541504 0.065612793 -0.32519531 0 0 0 0
0.043548584 0.065612793 -0.32519531 0 0 0 0
0.044433594 0.065429688 -0.32421875 0 0 0 0
0.045288086 0.065185547 -0.32324219 0 0 0 0
0.046173096 0.065002441 -0.32202148 0 0 0 0
0.047027588 0.064819336 -0.32104492 0 0 0 0
0.047851562 0.064575195 -0.32006836 0 0 0 0
0.048706055 0.06439209 -0.3190918 0 0 0 0
0.049530029 0.064208984 -0.31811523 0 0 0 0
0.050537109 0.064208984 -0.31811523 0 0 0 0
0.051361084 0.063964844 -0.31713867 0 0 0 0
0.052185059 0.063781738 -0.31616211 0 0 0 0
0.052978516 0.063598633 -0.31518555 0 0 0 0
0.05380249 0.063415527 -0.31420898 0 0 0 0
0.054779053 0.063415527 -0.31420898 0 0 0 0
0.05557251 0.063171387 -0.31298828 0 0 0 0
0.056549072 0.063171387 -0.31298828 0 0 0 0
0.057342529 0.062988281 -0.31201172 0 0 0 0
0.058319092 0.062988281 -0.31201172 0 0 0 0
0.059265137 0.062988281 -0.31201172 0 0 0 0
0.060241699 0.062988281 -0.31201172 0 0 0 0
0.061401367 0.063171387 -0.31298828 0 0 0 0
0.06237793 0.063171387 -0.31298828 0 0 0 0
0.063537598 0.063415527 -0.31420898 0 0 0 0
0.064758301 0.063598633 -0.31518555 0 0 0 0
0.065917969 0.063781738 -0.31616211 0 0 0 0
0.067138672 0.063964844 -0.31713867 0 0 0 0
0.068115234 0.063964844 -0.31713867 0 0 0 0
0.069274902 0.064208984 -0.31811523 0 0 0 0
0.070739746 0.064575195 -0.32006836 0 0 0 0
0.072631836 0.065429688 -0.32421875 0 0 0 0
0.073852539 0.065612793 -0.32519531 0 0 0 0
0.075134277 0.065795898 -0.32617188 0 0 0 0
0.07635498 0.066040039 -0.32714844 0 0 0 0
0.077636719 0.066223145 -0.328125 0 0 0 0
0.078857422 0.06640625 -0.32910156 0 0 0 0
0.080383301 0.066833496 -0.33105469 0 0 0 0
0.081665039 0.067016602 -0.33227539 0 0 0 0
0.083190918 0.067443848 -0.33422852 0 0 0 0
0.084472656 0.067626953 -0.33520508 0 0 0 0
0.08605957 0.068054199 -0.3371582 0 0 0 0
0.087341309 0.068237305 -0.33813477 0 0 0 0
0.088684082 0.068481445 -0.33911133 0 0 0 0
0.090759277 0.069274902 -0.34326172 0 0 0 0
0.092102051 0.069458008 -0.34423828 0 0 0 0
0.093688965 0.069885254 -0.34619141 0 0 0 0
0.095092773 0.070068359 -0.34716797 0 0 0 0
0.096435547 0.070251465 -0.34814453 0 0 0 0
0.098083496 0.070678711 -0.3503418 0 0 0 0
0.099731445 0.071105957 -0.35229492 0 0 0 0
0.10113525 0.071289062 -0.35327148 0 0 0 0
0.1027832 0.071716309 -0.35522461 0 0 0 0
0.10449219 0.07208252 -0.35717773 0 0 0 0
0.105896 0.07232666 -0.35839844 0 0 0 0
0.1072998 0.072509766 -0.359375 0 0 0 0
0.10870361 0.072692871 -0.36035156 0 0 0 0
0.11047363 0.073120117 -0.36230469 0 0 0 0
0.11187744 0.073303223 -0.36328125 0 0 0 0
0.11334229 0.073486328 -0.36425781 0 0 0 0
0.11474609 0.073730469 -0.36523438 0 0 0 0
0.11621094 0.073913574 -0.36621094 0 0 0 0
0.11804199 0.07434082 -0.3684082 0 0 0 0
0.021575928 0.068603516 -0.34521484 0 0 0 0
0.022583008 0.06842041 -0.34423828 0 0 0 0
0.023590088 0.06817627 -0.34326172 0 0 0 0
0.024581909 0.067993164 -0.34228516 0 0 0 0
0.025650024 0.067993164 -0.34228516 0 0 0 0
0.026641846 0.067810059 -0.34130859 0 0 0 0
0.027526855 0.067382812 -0.33911133 0 0 0 0
0.028503418 0.067199707 -0.33813477 0 0 0 0
0.029464722 0.067016602 -0.3371582 0 0 0 0
0.030426025 0.066772461 -0.33618164 0 0 0 0
0.03137207 0.066589355 -0.33520508 0 0 0 0
0.032409668 0.066589355 -0.33520508 0 0 0 0
0.033233643 0.066223145 -0.33325195 0 0 0 0
0.034179688 0.065979004 -0.33227539 0 0 0 0
0.035095215 0.065795898 -0.33105469 0 0 0 0
0.03604126 0.065612793 -0.33007812 0 0 0 0
0.03692627 0.065429688 -0.32910156 0 0 0 0
0.037841797 0.065185547 -0.328125 0 0 0 0
0.038879395 0.065185547 -0.328125 0 0 0 0
0.039764404 0.065002441 -0.32714844 0 0 0 0
0.040649414 0.064819336 -0.32617188 0 0 0 0
0.041656494 0.064819336 -0.32617188 0 0 0 0
0.042541504 0.064575195 -0.32519531 0 0 0 0
0.043548584 0.064575195 -0.32519531 0 0 0 0
0.044433594 0.06439209 -0.32421875 0 0 0 0
0.045288086 0.064208984 -0.32324219 0 0 0 0
0.046295166 0.064208984 -0.32324219 0 0 0 0
0.047149658 0.064025879 -0.32202148 0 0 0 0
0.04800415 0.063781738 -0.32104492 0 0 0 0
0.048858643 0.063598633 -0.32006836 0 0 0 0
0.049713135 0.063415527 -0.3190918 0 0 0 0
0.050537109 0.063232422 -0.31811523 0 0 0 0
0.051361084 0.062988281 -0.31713867 0 0 0 0
0.052185059 0.062805176 -0.31616211 0 0 0 0
0.052978516 0.06262207 -0.31518555 0 0 0 0
0.05380249 0.062438965 -0.31420898 0 0 0 0
0.054779053 0.062438965 -0.31420898 0 0 0 0
0.05557251 0.062225342 -0.31298828 0 0 0 0
0.056549072 0.062225342 -0.31298828 0 0 0 0
0.057342529 0.062011719 -0.31201172 0 0 0 0
0.058319092 0.062011719 -0.31201172 0 0 0 0
0.059265137 0.062011719 -0.31201172 0 0 0 0
0.060241699 0.062011719 -0.31201172 0 0 0 0
0.061401367 0.062225342 -0.31298828 0 0 0 0
0.06237793 0.062225342 -0.31298828 0 0 0 0
0.063537598 0.062438965 -0.31420898 0 0 0 0
0.064758301 0.06262207 -0.31518555 0 0 0 0
0.065917969 0.062805176 -0.31616211 0 0 0 0
0.066894531 0.062805176 -0.31616211 0 0 0 0
0.068115234 0.062988281 -0.31713867 0 0 0 0
0.069091797 0.062988281 -0.31713867 0 0 0 0
0.0703125 0.063232422 -0.31811523 0 0 0 0
0.072875977 0.064575195 -0.32519531 0 0 0 0
0.073852539 0.064575195 -0.32519531 0 0 0 0
0.075134277 0.064819336 -0.32617188 0 0 0 0
0.07635498 0.065002441 -0.32714844 0 0 0 0
0.077636719 0.065185547 -0.328125 0 0 0 0
0.078857422 0.065429688 -0.32910156 0 0 0 0
0.080383301 0.065795898 -0.33105469 0 0 0 0
0.081665039 0.065979004 -0.33227539 0 0 0 0
0.082946777 0.066223145 -0.33325195 0 0 0 0
0.084472656 0.066589355 -0.33520508 0 0 0 0
0.085754395 0.066772461 -0.33618164 0 0 0 0
0.087341309 0.067199707 -0.33813477 0 0 0 0
0.088684082 0.067382812 -0.33911133 0 0 0 0
0.090759277 0.06817627 -0.34326172 0 0 0 0
0.092102051 0.06842041 -0.34423828 0 0 0 0
0.093688965 0.068786621 -0.34619141 0 0 0 0
0.095092773 0.068969727 -0.34716797 0 0 0 0
0.096435547 0.069213867 -0.34814453 0 0 0 0
0.098083496 0.069580078 -0.3503418 0 0 0 0
0.099731445 0.070007324 -0.35229492 0 0 0 0
0.10113525 0.07019043 -0.35327148 0 0 0 0
0.1027832 0.070617676 -0.35522461 0 0 0 0
0.10418701 0.070800781 -0.35620117 0 0 0 0
0.105896 0.071166992 -0.35839844 0 0 0 0
0.1072998 0.071411133 -0.359375 0 0 0 0
0.10870361 0.071594238 -0.36035156 0 0 0 0
0.11047363 0.071960449 -0.36230469 0 0 0 0
0.11187744 0.07220459 -0.36328125 0 0 0 0
0.11334229 0.072387695 -0.36425781 0 0 0 0
0.11474609 0.072570801 -0.36523438 0 0 0 0
0.11621094 0.072753906 -0.36621094 0 0 0 0
0.11804199 0.073181152 -0.3684082 0 0 0 0
0.021575928 0.067504883 -0.34521484 0 0 0 0
0.022583008 0.067321777 -0.34423828 0 0 0 0
0.023590088 0.067138672 -0.34326172 0 0 0 0
0.024581909 0.066955566 -0.34228516 0 0 0 0
0.025650024 0.066955566 -0.34228516 0 0 0 0
0.026641846 0.066711426 -0.34130859 0 0 0 0
0.027526855 0.066345215 -0.33911133 0 0 0 0
0.028503418 0.066162109 -0.33813477 0 0 0 0
0.029464722 0.065979004 -0.3371582 0 0 0 0
0.030517578 0.065979004 -0.3371582 0 0 0 0
0.031463623 0.065734863 -0.33618164 0 0 0 0
0.032409668 0.065551758 -0.33520508 0 0 0 0
0.033233643 0.065185547 -0.33325195 0 0 0 0
0.034179688 0.064941406 -0.33227539 0 0 0 0
0.035095215 0.064758301 -0.33105469 0 0 0 0
0.03604126 0.064575195 -0.33007812 0 0 0 0
0.03704834 0.064575195 -0.33007812 0 0 0 0
0.037963867 0.06439209 -0.32910156 0 0 0 0
0.038879395 0.064208984 -0.328125 0 0 0 0
0.039764404 0.063964844 -0.32714844 0 0 0 0
0.040649414 0.063781738 -0.32617188 0 0 0 0
0.041656494 0.063781738 -0.32617188 0 0 0 0
0.042541504 0.063598633 -0.32519531 0 0 0 0
0.043548584 0.063598633 -0.32519531 0 0 0 0
0.044433594 0.063415527 -0.32421875 0 0 0 0
0.045288086 0.063171387 -0.32324219 0 0 0 0
0.046295166 0.063171387 -0.32324219 0 0 0 0
0.047149658 0.062988281 -0.32202148 0 0 0 0
0.04800415 0.062805176 -0.32104492 0 0 0 0
0.048858643 0.06262207 -0.32006836 0 0 0 0
0.049713135 0.062438965 -0.3190918 0 0 0 0
0.050537109 0.062225342 -0.31811523 0 0 0 0
0.051361084 0.062042236 -0.31713867 0 0 0 0
0.052185059 0.061828613 -0.31616211 0 0 0 0
0.052978516 0.061645508 -0.31518555 0 0 0 0
0.05380249 0.061462402 -0.31420898 0 0 0 0
0.054779053 0.061462402 -0.31420898 0 0 0 0
0.05557251 0.061248779 -0.31298828 0 0 0 0
0.056549072 0.061248779 -0.31298828 0 0 0 0
0.057342529 0.061065674 -0.31201172 0 0 0 0
0.058319092 0.061065674 -0.31201172 0 0 0 0
0.059265137 0.061065674 -0.31201172 0 0 0 0
0.060241699 0.061065674 -0.31201172 0 0 0 0
0.061401367 0.061248779 -0.31298828 0 0 0 0
0.06237793 0.061248779 -0.31298828 0 0 0 0
0.063537598 0.061462402 -0.31420898 0 0 0 0
0.064758301 0.061645508 -0.31518555 0 0 0 0
0.065734863 0.061645508 -0.31518555 0 0 0 0
0.066894531 0.061828613 -0.31616211 0 0 0 0
0.067871094 0.061828613 -0.31616211 0 0 0 0
0.069091797 0.062042236 -0.31713867 0 0 0 0
0.070068359 0.062042236 -0.31713867 0 0 0 0
0.072875977 0.063598633 -0.32519531 0 0 0 0
0.07409668 0.063781738 -0.32617188 0 0 0 0
0.075134277 0.063781738 -0.32617188 0 0 0 0
0.07635498 0.063964844 -0.32714844 0 0 0 0
0.077636719 0.064208984 -0.328125 0 0 0 0
0.078857422 0.06439209 -0.32910156 0 0 0 0
0.080383301 0.064758301 -0.33105469 0 0 0 0
0.081665039 0.064941406 -0.33227539 0 0 0 0
0.082946777 0.065185547 -0.33325195 0 0 0 0
0.084472656 0.065551758 -0.33520508 0 0 0 0
0.08605957 0.065979004 -0.3371582 0 0 0 0
0.087341309 0.066162109 -0.33813477 0 0 0 0
0.088684082 0.066345215 -0.33911133 0 0 0 0
0.090759277 0.067138672 -0.34326172 0 0 0 0
0.092102051 0.067321777 -0.34423828 0 0 0 0
0.093444824 0.067504883 -0.34521484 0 0 0 0
0.095092773 0.067932129 -0.34716797 0 0 0 0
0.096435547 0.068115234 -0.34814453 0 0 0 0
0.09777832 0.06829834 -0.34912109 0 0 0 0
0.09942627 0.068725586 -0.35131836 0 0 0 0
0.10113525 0.069091797 -0.35327148 0 0 0 0
0.1027832 0.069458008 -0.35522461 0 0 0 0
0.10418701 0.069702148 -0.35620117 0 0 0 0
0.105896 0.070068359 -0.35839844 0 0 0 0
0.1072998 0.070251465 -0.359375 0 0 0 0
0.10870361 0.070495605 -0.36035156 0 0 0 0
0.11016846 0.070678711 -0.36132812 0 0 0 0
0.11187744 0.071044922 -0.36328125 0 0 0 0
0.11334229 0.071228027 -0.36425781 0 0 0 0
0.11474609 0.071472168 -0.36523438 0 0 0 0
0.11621094 0.071655273 -0.36621094 0 0 0 0
0.11804199 0.072021484 -0.3684082 0 0 0 0
0.11914062 0.072021484 -0.3684082 0 0 0 0
0.021575928 0.066467285 -0.34521484 0 0 0 0
0.022583008 0.06628418 -0.34423828 0 0 0 0
0.023590088 0.066040039 -0.34326172 0 0 0 0
0.024658203 0.066040039 -0.34326172 0 0 0 0
0.025650024 0.065856934 -0.34228516 0 0 0 0
0.026641846 0.065673828 -0.34130859 0 0 0 0
0.027618408 0.065490723 -0.34008789 0 0 0 0
0.028579712 0.065307617 -0.33911133 0 0 0 0
0.029556274 0.065124512 -0.33813477 0 0 0 0
0.030517578 0.064880371 -0.3371582 0 0 0 0
0.031463623 0.064697266 -0.33618164 0 0 0 0
0.032409668 0.06451416 -0.33520508 0 0 0 0
0.033233643 0.064147949 -0.33325195 0 0 0 0
0.034179688 0.063964844 -0.33227539 0 0 0 0
0.035217285 0.063964844 -0.33227539 0 0 0 0
0.036132812 0.063720703 -0.33105469 0 0 0 0
0.03704834 0.063537598 -0.33007812 0 0 0 0
0.037963867 0.063354492 -0.32910156 0 0 0 0
0.038879395 0.063171387 -0.328125 0 0 0 0
0.039764404 0.062988281 -0.32714844 0 0 0 0
0.040649414 0.062805176 -0.32617188 0 0 0 0
0.041656494 0.062805176 -0.32617188 0 0 0 0
0.042541504 0.062561035 -0.32519531 0 0 0 0
0.043548584 0.062561035 -0.32519531 0 0 0 0
0.044433594 0.062408447 -0.32421875 0 0 0 0
0.045288086 0.062225342 -0.32324219 0 0 0 0
0.046295166 0.062225342 -0.32324219 0 0 0 0
0.047149658 0.062011719 -0.32202148 0 0 0 0
0.04800415 0.061828613 -0.32104492 0 0 0 0
0.048858643 0.061645508 -0.32006836 0 0 0 0
0.049713135 0.061431885 -0.3190918 0 0 0 0
0.050537109 0.061248779 -0.31811523 0 0 0 0
0.051361084 0.061065674 -0.31713867 0 0 0 0
0.052185059 0.060852051 -0.31616211 0 0 0 0
0.052978516 0.060668945 -0.31518555 0 0 0 0
0.05380249 0.06048584 -0.31420898 0 0 0 0
0.054779053 0.06048584 -0.31420898 0 0 0 0
0.05557251 0.060272217 -0.31298828 0 0 0 0
0.056549072 0.060272217 -0.31298828 0 0 0 0
0.057342529 0.060089111 -0.31201172 0 0 0 0
0.058319092 0.060089111 -0.31201172 0 0 0 0
0.059265137 0.060089111 -0.31201172 0 0 0 0
0.060241699 0.060089111 -0.31201172 0 0 0 0
0.061218262 0.060089111 -0.31201172 0 0 0 0
0.06237793 0.060272217 -0.31298828 0 0 0 0
0.063537598 0.06048584 -0.31420898 0 0 0 0
0.06451416 0.06048584 -0.31420898 0 0 0 0
0.065734863 0.060668945 -0.31518555 0 0 0 0
0.066894531 0.060852051 -0.31616211 0 0 0 0
0.067871094 0.060852051 -0.31616211 0 0 0 0
0.069091797 0.061065674 -0.31713867 0 0 0 0
0.070068359 0.061065674 -0.31713867 0 0 0 0
0.071044922 0.061065674 -0.31713867 0 0 0 0
0.07409668 0.062805176 -0.32617188 0 0 0 0
0.075134277 0.062805176 -0.32617188 0 0 0 0
0.07635498 0.062988281 -0.32714844 0 0 0 0
0.077636719 0.063171387 -0.328125 0 0 0 0
0.078857422 0.063354492 -0.32910156 0 0 0 0
0.08013916 0.063537598 -0.33007812 0 0 0 0
0.081665039 0.063964844 -0.33227539 0 0 0 0
0.083190918 0.064331055 -0.33422852 0 0 0 0
0.084472656 0.06451416 -0.33520508 0 0 0 0
0.08605957 0.064880371 -0.3371582 0 0 0 0
0.087341309 0.065124512 -0.33813477 0 0 0 0
0.088684082 0.065307617 -0.33911133 0 0 0 0
0.090515137 0.065856934 -0.34228516 0 0 0 0
0.092102051 0.06628418 -0.34423828 0 0 0 0
0.093444824 0.066467285 -0.34521484 0 0 0 0
0.094787598 0.066650391 -0.34619141 0 0 0 0
0.096435547 0.067016602 -0.34814453 0 0 0 0
0.09777832 0.067199707 -0.34912109 0 0 0 0
0.09942627 0.067626953 -0.35131836 0 0 0 0
0.10113525 0.067993164 -0.35327148 0 0 0 0
0.1027832 0.068359375 -0.35522461 0 0 0 0
0.10418701 0.068603516 -0.35620117 0 0 0 0
0.10559082 0.068786621 -0.35717773 0 0 0 0
0.1072998 0.069152832 -0.359375 0 0 0 0
0.10870361 0.069335938 -0.36035156 0 0 0 0
0.11016846 0.069519043 -0.36132812 0 0 0 0
0.11157227 0.069763184 -0.36230469 0 0 0 0
0.11334229 0.070129395 -0.36425781 0 0 0 0
0.11474609 0.0703125 -0.36523438 0 0 0 0
0.11621094 0.070495605 -0.36621094 0 0 0 0
0.11767578 0.070678711 -0.36743164 0 0 0 0
0.11883545 0.070678711 -0.36743164 0 0 0 0
0.01512146 0.076049805 -0.40136719 0 0 0 0
0.016326904 0.075805664 -0.40039062 0 0 0 0
0.022583008 0.065185547 -0.34423828 0 0 0 0
0.023590088 0.065002441 -0.34326172 0 0 0 0
0.024658203 0.065002441 -0.34326172 0 0 0 0
0.025650024 0.064819336 -0.34228516 0 0 0 0
0.026641846 0.06463623 -0.34130859 0 0 0 0
0.027618408 0.064453125 -0.34008789 0 0 0 0
0.028579712 0.064208984 -0.33911133 0 0 0 0
0.029556274 0.064025879 -0.33813477 0 0 0 0
0.030517578 0.063842773 -0.3371582 0 0 0 0
0.031463623 0.063659668 -0.33618164 0 0 0 0
0.032501221 0.063659668 -0.33618164 0 0 0 0
0.033233643 0.063110352 -0.33325195 0 0 0 0
0.03427124 0.063110352 -0.33325195 0 0 0 0
0.035217285 0.062927246 -0.33227539 0 0 0 0
0.036132812 0.062683105 -0.33105469 0 0 0 0
0.03704834 0.0625 -0.33007812 0 0 0 0
0.037963867 0.062347412 -0.32910156 0 0 0 0
0.038879395 0.062164307 -0.328125 0 0 0 0
0.039764404 0.061981201 -0.32714844 0 0 0 0
0.040771484 0.061981201 -0.32714844 0 0 0 0
0.041656494 0.061767578 -0.32617188 0 0 0 0
0.042541504 0.061584473 -0.32519531 0 0 0 0
0.043548584 0.061584473 -0.32519531 0 0 0 0
0.044433594 0.061401367 -0.32421875 0 0 0 0
0.045288086 0.061218262 -0.32324219 0 0 0 0
0.046295166 0.061218262 -0.32324219 0 0 0 0
0.047149658 0.061004639 -0.32202148 0 0 0 0
0.04800415 0.060821533 -0.32104492 0 0 0 0
0.048858643 0.060638428 -0.32006836 0 0 0 0
0.049713135 0.060455322 -0.3190918 0 0 0 0
0.050537109 0.060241699 -0.31811523 0 0 0 0
0.051361084 0.060058594 -0.31713867 0 0 0 0
0.052185059 0.059875488 -0.31616211 0 0 0 0
0.052978516 0.059692383 -0.31518555 0 0 0 0
0.05380249 0.059509277 -0.31420898 0 0 0 0
0.054779053 0.059509277 -0.31420898 0 0 0 0
0.05557251 0.059295654 -0.31298828 0 0 0 0
0.056549072 0.059295654 -0.31298828 0 0 0 0
0.057342529 0.059112549 -0.31201172 0 0 0 0
0.058319092 0.059112549 -0.31201172 0 0 0 0
0.059265137 0.059112549 -0.31201172 0 0 0 0
0.060241699 0.059112549 -0.31201172 0 0 0 0
0.061218262 0.059112549 -0.31201172 0 0 0 0
0.06237793 0.059295654 -0.31298828 0 0 0 0
0.063354492 0.059295654 -0.31298828 0 0 0 0
0.06451416 0.059509277 -0.31420898 0 0 0 0
0.065734863 0.059692383 -0.31518555 0 0 0 0
0.066711426 0.059692383 -0.31518555 0 0 0 0
0.067871094 0.059875488 -0.31616211 0 0 0 0
0.069091797 0.060058594 -0.31713867 0 0 0 0
0.070068359 0.060058594 -0.31713867 0 0 0 0
0.071044922 0.060058594 -0.31713867 0 0 0 0
0.073852539 0.061584473 -0.32519531 0 0 0 0
0.075134277 0.061767578 -0.32617188 0 0 0 0
0.07635498 0.061981201 -0.32714844 0 0 0 0
0.077636719 0.062164307 -0.328125 0 0 0 0
0.078857422 0.062347412 -0.32910156 0 0 0 0
0.08013916 0.0625 -0.33007812 0 0 0 0
0.081665039 0.062927246 -0.33227539 0 0 0 0
0.082946777 0.063110352 -0.33325195 0 0 0 0
0.084472656 0.063476562 -0.33520508 0 0 0 0
0.08605957 0.063842773 -0.3371582 0 0 0 0
0.087341309 0.064025879 -0.33813477 0 0 0 0
0.088928223 0.064453125 -0.34008789 0 0 0 0
0.090515137 0.064819336 -0.34228516 0 0 0 0
0.09185791 0.065002441 -0.34326172 0 0 0 0
0.093444824 0.065368652 -0.34521484 0 0 0 0
0.094787598 0.065551758 -0.34619141 0 0 0 0
0.096130371 0.065734863 -0.34716797 0 0 0 0
0.09777832 0.066162109 -0.34912109 0 0 0 0
0.09942627 0.06652832 -0.35131836 0 0 0 0
0.10113525 0.066894531 -0.35327148 0 0 0 0
0.1027832 0.067260742 -0.35522461 0 0 0 0
0.10418701 0.067443848 -0.35620117 0 0 0 0
0.10559082 0.067626953 -0.35717773 0 0 0 0
0.1072998 0.068054199 -0.359375 0 0 0 0
0.10870361 0.068237305 -0.36035156 0 0 0 0
0.11016846 0.06842041 -0.36132812 0 0 0 0
0.11157227 0.068603516 -0.36230469 0 0 0 0
0.11334229 0.068969727 -0.36425781 0 0 0 0
0.11474609 0.069152832 -0.36523438 0 0 0 0
0.11621094 0.069396973 -0.36621094 0 0 0 0
0.11767578 0.069580078 -0.36743164 0 0 0 0
0.11883545 0.069580078 -0.36743164 0 0 0 0
0.12060547 0.069946289 -0.36938477 0 0 0 0
-0.018234253 0.073486328 -0.39453125 0 0 0 0
-0.016998291 0.073486328 -0.39453125 0 0 0 0
0.013908386 0.074951172 -0.40234375 0 0 0 0
0.01512146 0.074768066 -0.40136719 0 0 0 0
0.016326904 0.074584961 -0.40039062 0 0 0 0
0.021514893 0.064086914 -0.34423828 0 0 0 0
0.022583008 0.064086914 -0.34423828 0 0 0 0
0.023590088 0.063903809 -0.34326172 0 0 0 0
0.024581909 0.063720703 -0.34228516 0 0 0 0
0.025650024 0.063720703 -0.34228516 0 0 0 0
0.026641846 0.063537598 -0.34130859 0 0 0 0
0.027618408 0.063354492 -0.34008789 0 0 0 0
0.028579712 0.063171387 -0.33911133 0 0 0 0
0.029556274 0.062988281 -0.33813477 0 0 0 0
0.030517578 0.062805176 -0.3371582 0 0 0 0
0.031555176 0.062805176 -0.3371582 0 0 0 0
0.032501221 0.06262207 -0.33618164 0 0 0 0
0.033355713 0.062255859 -0.33422852 0 0 0 0
0.03427124 0.062072754 -0.33325195 0 0 0 0
0.035217285 0.061889648 -0.33227539 0 0 0 0
0.036132812 0.061706543 -0.33105469 0 0 0 0
0.03704834 0.061523438 -0.33007812 0 0 0 0
0.037963867 0.061340332 -0.32910156 0 0 0 0
0.038879395 0.061126709 -0.328125 0 0 0 0
0.039764404 0.060943604 -0.32714844 0 0 0 0
0.040771484 0.060943604 -0.32714844 0 0 0 0
0.041656494 0.060760498 -0.32617188 0 0 0 0
0.042541504 0.060577393 -0.32519531 0 0 0 0
0.043548584 0.060577393 -0.32519531 0 0 0 0
0.044433594 0.060394287 -0.32421875 0 0 0 0
0.045288086 0.060211182 -0.32324219 0 0 0 0
0.046295166 0.060211182 -0.32324219 0 0 0 0
0.047149658 0.060028076 -0.32202148 0 0 0 0
0.04800415 0.059814453 -0.32104492 0 0 0 0
0.048858643 0.059631348 -0.32006836 0 0 0 0
0.049713135 0.059448242 -0.3190918 0 0 0 0
0.050537109 0.059265137 -0.31811523 0 0 0 0
0.051361084 0.059082031 -0.31713867 0 0 0 0
0.052185059 0.058898926 -0.31616211 0 0 0 0
0.052978516 0.05871582 -0.31518555 0 0 0 0
0.05380249 0.058532715 -0.31420898 0 0 0 0
0.054779053 0.058532715 -0.31420898 0 0 0 0
0.05557251 0.058319092 -0.31298828 0 0 0 0
0.056365967 0.058135986 -0.31201172 0 0 0 0
0.057342529 0.058135986 -0.31201172 0 0 0 0
0.058319092 0.058135986 -0.31201172 0 0 0 0
0.059265137 0.058135986 -0.31201172 0 0 0 0
0.060241699 0.058135986 -0.31201172 0 0 0 0
0.061218262 0.058135986 -0.31201172 0 0 0 0
0.06237793 0.058319092 -0.31298828 0 0 0 0
0.063354492 0.058319092 -0.31298828 0 0 0 0
0.06451416 0.058532715 -0.31420898 0 0 0 0
0.065734863 0.05871582 -0.31518555 0 0 0 0
0.066711426 0.05871582 -0.31518555 0 0 0 0
0.067871094 0.058898926 -0.31616211 0 0 0 0
0.069091797 0.059082031 -0.31713867 0 0 0 0
0.070068359 0.059082031 -0.31713867 0 0 0 0
0.071044922 0.059082031 -0.31713867 0 0 0 0
0.072265625 0.059265137 -0.31811523 0 0 0 0
0.075134277 0.060760498 -0.32617188 0 0 0 0
0.07635498 0.060943604 -0.32714844 0 0 0 0
0.077636719 0.061126709 -0.328125 0 0 0 0
0.078857422 0.061340332 -0.32910156 0 0 0 0
0.08013916 0.061523438 -0.33007812 0 0 0 0
0.081665039 0.061889648 -0.33227539 0 0 0 0
0.082946777 0.062072754 -0.33325195 0 0 0 0
0.084716797 0.06262207 -0.33618164 0 0 0 0
0.08605957 0.062805176 -0.3371582 0 0 0 0
0.087585449 0.063171387 -0.33911133 0 0 0 0
0.088928223 0.063354492 -0.34008789 0 0 0 0
0.090515137 0.063720703 -0.34228516 0 0 0 0
0.09185791 0.063903809 -0.34326172 0 0 0 0
0.093200684 0.064086914 -0.34423828 0 0 0 0
0.094787598 0.06451416 -0.34619141 0 0 0 0
0.096130371 0.064697266 -0.34716797 0 0 0 0
0.09753418 0.064880371 -0.34814453 0 0 0 0
0.09942627 0.065429688 -0.35131836 0 0 0 0
0.10137939 0.065979004 -0.35424805 0 0 0 0
0.1027832 0.066162109 -0.35522461 0 0 0 0
0.10418701 0.066345215 -0.35620117 0 0 0 0
0.10559082 0.06652832 -0.35717773 0 0 0 0
0.1072998 0.066894531 -0.359375 0 0 0 0
0.10870361 0.067077637 -0.36035156 0 0 0 0
0.11016846 0.067321777 -0.36132812 0 0 0 0
0.11157227 0.067504883 -0.36230469 0 0 0 0
0.11334229 0.067871094 -0.36425781 0 0 0 0
0.11474609 0.068054199 -0.36523438 0 0 0 0
0.11621094 0.068237305 -0.36621094 0 0 0 0
0.11767578 0.06842041 -0.36743164 0 0 0 0
0.11914062 0.068603516 -0.3684082 0 0 0 0
0.12060547 0.068786621 -0.36938477 0 0 0 0
-0.020736694 0.07244873 -0.39550781 0 0 0 0
-0.019500732 0.07244873 -0.39550781 0 0 0 0
-0.018234253 0.072265625 -0.39453125 0 0 0 0
-0.016998291 0.072265625 -0.39453125 0 0 0 0
-0.015777588 0.072265625 -0.39453125 0 0 0 0
-0.014556885 0.072265625 -0.39453125 0 0 0 0
0.013870239 0.073547363 -0.40136719 0 0 0 0
0.01512146 0.073547363 -0.40136719 0 0 0 0
0.021514893 0.063049316 -0.34423828 0 0 0 0
0.022521973 0.062866211 -0.34326172 0 0 0 0
0.023590088 0.062866211 -0.34326172 0 0 0 0
0.024581909 0.062683105 -0.34228516 0 0 0 0
0.025650024 0.062683105 -0.34228516 0 0 0 0
0.026641846 0.0625 -0.34130859 0 0 0 0
0.027618408 0.062316895 -0.34008789 0 0 0 0
0.028579712 0.062133789 -0.33911133 0 0 0 0
0.029556274 0.061950684 -0.33813477 0 0 0 0
0.030517578 0.061767578 -0.3371582 0 0 0 0
0.031463623 0.061584473 -0.33618164 0 0 0 0
0.032501221 0.061584473 -0.33618164 0 0 0 0
0.033355713 0.061218262 -0.33422852 0 0 0 0
0.03427124 0.061035156 -0.33325195 0 0 0 0
0.035217285 0.060852051 -0.33227539 0 0 0 0
0.036132812 0.060668945 -0.33105469 0 0 0 0
0.03704834 0.06048584 -0.33007812 0 0 0 0
0.037963867 0.060302734 -0.32910156 0 0 0 0
0.038879395 0.060119629 -0.328125 0 0 0 0
0.039764404 0.059936523 -0.32714844 0 0 0 0
0.040771484 0.059936523 -0.32714844 0 0 0 0
0.041656494 0.059753418 -0.32617188 0 0 0 0
0.042541504 0.059570312 -0.32519531 0 0 0 0
0.043548584 0.059570312 -0.32519531 0 0 0 0
0.044433594 0.059387207 -0.32421875 0 0 0 0
0.045288086 0.059204102 -0.32324219 0 0 0 0
0.046295166 0.059204102 -0.32324219 0 0 0 0
0.047149658 0.059020996 -0.32202148 0 0 0 0
0.04800415 0.058837891 -0.32104492 0 0 0 0
0.048858643 0.058654785 -0.32006836 0 0 0 0
0.049713135 0.05847168 -0.3190918 0 0 0 0
0.050537109 0.058288574 -0.31811523 0 0 0 0
0.051361084 0.058105469 -0.31713867 0 0 0 0
0.052185059 0.057922363 -0.31616211 0 0 0 0
0.052978516 0.057739258 -0.31518555 0 0 0 0
0.05380249 0.057556152 -0.31420898 0 0 0 0
0.054595947 0.057373047 -0.31298828 0 0 0 0
0.05557251 0.057373047 -0.31298828 0 0 0 0
0.056365967 0.057189941 -0.31201172 0 0 0 0
0.057342529 0.057189941 -0.31201172 0 0 0 0
0.058319092 0.057189941 -0.31201172 0 0 0 0
0.059265137 0.057189941 -0.31201172 0 0 0 0
0.060241699 0.057189941 -0.31201172 0 0 0 0
0.061218262 0.057189941 -0.31201172 0 0 0 0
0.062194824 0.057189941 -0.31201172 0 0 0 0
0.063354492 0.057373047 -0.31298828 0 0 0 0
0.06451416 0.057556152 -0.31420898 0 0 0 0
0.065734863 0.057739258 -0.31518555 0 0 0 0
0.066711426 0.057739258 -0.31518555 0 0 0 0
0.067871094 0.057922363 -0.31616211 0 0 0 0
0.069091797 0.058105469 -0.31713867 0 0 0 0
0.070068359 0.058105469 -0.31713867 0 0 0 0
0.071289062 0.058288574 -0.31811523 0 0 0 0
0.072265625 0.058288574 -0.31811523 0 0 0 0
0.075134277 0.059753418 -0.32617188 0 0 0 0
0.07635498 0.059936523 -0.32714844 0 0 0 0
0.077636719 0.060119629 -0.328125 0 0 0 0
0.078857422 0.060302734 -0.32910156 0 0 0 0
0.08013916 0.06048584 -0.33007812 0 0 0 0
0.081420898 0.060668945 -0.33105469 0 0 0 0
0.082946777 0.061035156 -0.33325195 0 0 0 0
0.084716797 0.061584473 -0.33618164 0 0 0 0
0.08605957 0.061767578 -0.3371582 0 0 0 0
0.087585449 0.062133789 -0.33911133 0 0 0 0
0.088928223 0.062316895 -0.34008789 0 0 0 0
0.090209961 0.0625 -0.34130859 0 0 0 0
0.09185791 0.062866211 -0.34326172 0 0 0 0
0.093200684 0.063049316 -0.34423828 0 0 0 0
0.094543457 0.063232422 -0.34521484 0 0 0 0
0.09588623 0.063415527 -0.34619141 0 0 0 0
0.097229004 0.063598633 -0.34716797 0 0 0 0
0.099182129 0.064147949 -0.3503418 0 0 0 0
0.10137939 0.064880371 -0.35424805 0 0 0 0
0.1027832 0.065063477 -0.35522461 0 0 0 0
0.10418701 0.065246582 -0.35620117 0 0 0 0
0.10559082 0.065429688 -0.35717773 0 0 0 0
0.1072998 0.065795898 -0.359375 0 0 0 0
0.10870361 0.065979004 -0.36035156 0 0 0 0
0.11016846 0.066162109 -0.36132812 0 0 0 0
0.11157227 0.066345215 -0.36230469 0 0 0 0
0.11303711 0.06652832 -0.36328125 0 0 0 0
0.11474609 0.066894531 -0.36523438 0 0 0 0
0.11621094 0.067077637 -0.36621094 0 0 0 0
0.11737061 0.067077637 -0.36621094 0 0 0 0
0.11914062 0.067443848 -0.3684082 0 0 0 0
0.12060547 0.067626953 -0.36938477 0 0 0 0
-0.021957397 0.071166992 -0.39550781 0 0 0 0
-0.020736694 0.071166992 -0.39550781 0 0 0 0
-0.019454956 0.070983887 -0.39453125 0 0 0 0
-0.018234253 0.070983887 -0.39453125 0 0 0 0
-0.016998291 0.070983887 -0.39453125 0 0 0 0
-0.015777588 0.070983887 -0.39453125 0 0 0 0
-0.014556885 0.070983887 -0.39453125 0 0 0 0
-0.013328552 0.070983887 -0.39453125 0 0 0 0
0.012657166 0.07244873 -0.40234375 0 0 0 0
0.013839722 0.07208252 -0.40039062 0 0 0 0
0.021514893 0.061981201 -0.34423828 0 0 0 0
0.022521973 0.061798096 -0.34326172 0 0 0 0
0.023590088 0.061798096 -0.34326172 0 0 0 0
0.024581909 0.06161499 -0.34228516 0 0 0 0
0.025650024 0.06161499 -0.34228516 0 0 0 0
0.026641846 0.061462402 -0.34130859 0 0 0 0
0.027618408 0.061279297 -0.34008789 0 0 0 0
0.028579712 0.061096191 -0.33911133 0 0 0 0
0.029556274 0.060913086 -0.33813477 0 0 0 0
0.030517578 0.06072998 -0.3371582 0 0 0 0
0.031463623 0.060546875 -0.33618164 0 0 0 0
0.032409668 0.06036377 -0.33520508 0 0 0 0
0.033355713 0.060180664 -0.33422852 0 0 0 0
0.03427124 0.059997559 -0.33325195 0 0 0 0
0.035217285 0.059814453 -0.33227539 0 0 0 0
0.036132812 0.059631348 -0.33105469 0 0 0 0
0.03704834 0.059448242 -0.33007812 0 0 0 0
0.037963867 0.059265137 -0.32910156 0 0 0 0
0.038879395 0.059112549 -0.328125 0 0 0 0
0.039764404 0.058929443 -0.32714844 0 0 0 0
0.040771484 0.058929443 -0.32714844 0 0 0 0
0.041656494 0.058746338 -0.32617188 0 0 0 0
0.042541504 0.058563232 -0.32519531 0 0 0 0
0.043548584 0.058563232 -0.32519531 0 0 0 0
0.044433594 0.058380127 -0.32421875 0 0 0 0
0.045288086 0.058197021 -0.32324219 0 0 0 0
0.046295166 0.058197021 -0.32324219 0 0 0 0
0.047149658 0.058013916 -0.32202148 0 0 0 0
0.04800415 0.057830811 -0.32104492 0 0 0 0
0.048858643 0.057647705 -0.32006836 0 0 0 0
0.049713135 0.0574646 -0.3190918 0 0 0 0
0.050537109 0.057281494 -0.31811523 0 0 0 0
0.051361084 0.057098389 -0.31713867 0 0 0 0
0.052185059 0.056915283 -0.31616211 0 0 0 0
0.052978516 0.056762695 -0.31518555 0 0 0 0
0.05380249 0.05657959 -0.31420898 0 0 0 0
0.054595947 0.056396484 -0.31298828 0 0 0 0
0.05557251 0.056396484 -0.31298828 0 0 0 0
0.056365967 0.056213379 -0.31201172 0 0 0 0
0.057342529 0.056213379 -0.31201172 0 0 0 0
0.058319092 0.056213379 -0.31201172 0 0 0 0
0.059082031 0.056030273 -0.31103516 0 0 0 0
0.060058594 0.056030273 -0.31103516 0 0 0 0
0.061218262 0.056213379 -0.31201172 0 0 0 0
0.062194824 0.056213379 -0.31201172 0 0 0 0
0.063354492 0.056396484 -0.31298828 0 0 0 0
0.06451416 0.05657959 -0.31420898 0 0 0 0
0.065734863 0.056762695 -0.31518555 0 0 0 0
0.066711426 0.056762695 -0.31518555 0 0 0 0
0.067871094 0.056915283 -0.31616211 0 0 0 0
0.069091797 0.057098389 -0.31713867 0 0 0 0
0.0703125 0.057281494 -0.31811523 0 0 0 0
0.071289062 0.057281494 -0.31811523 0 0 0 0
0.072265625 0.057281494 -0.31811523 0 0 0 0
0.075134277 0.058746338 -0.32617188 0 0 0 0
0.07635498 0.058929443 -0.32714844 0 0 0 0
0.077392578 0.058929443 -0.32714844 0 0 0 0
0.078857422 0.059265137 -0.32910156 0 0 0 0
0.08013916 0.059448242 -0.33007812 0 0 0 0
0.081420898 0.059631348 -0.33105469 0 0 0 0
0.082702637 0.059814453 -0.33227539 0 0 0 0
0.084716797 0.060546875 -0.33618164 0 0 0 0
0.08605957 0.06072998 -0.3371582 0 0 0 0
0.087585449 0.061096191 -0.33911133 0 0 0 0
0.088928223 0.061279297 -0.34008789 0 0 0 0
0.090209961 0.061462402 -0.34130859 0 0 0 0
0.09185791 0.061798096 -0.34326172 0 0 0 0
0.093200684 0.061981201 -0.34423828 0 0 0 0
0.094543457 0.062164307 -0.34521484 0 0 0 0
0.09588623 0.062347412 -0.34619141 0 0 0 0
0.097229004 0.0625 -0.34716797 0 0 0 0
0.10003662 0.063598633 -0.35327148 0 0 0 0
0.10137939 0.063781738 -0.35424805 0 0 0 0
0.1027832 0.063964844 -0.35522461 0 0 0 0
0.10418701 0.064147949 -0.35620117 0 0 0 0
0.10559082 0.064331055 -0.35717773 0 0 0 0
0.1072998 0.064697266 -0.359375 0 0 0 0
0.10870361 0.064880371 -0.36035156 0 0 0 0
0.11016846 0.065063477 -0.36132812 0 0 0 0
0.11157227 0.065246582 -0.36230469 0 0 0 0
0.11303711 0.065429688 -0.36328125 0 0 0 0
0.11474609 0.065795898 -0.36523438 0 0 0 0
0.11621094 0.065979004 -0.36621094 0 0 0 0
0.11737061 0.065979004 -0.36621094 0 0 0 0
0.11914062 0.06628418 -0.3684082 0 0 0 0
-0.021957397 0.069946289 -0.39550781 0 0 0 0
-0.020736694 0.069946289 -0.39550781 0 0 0 0
-0.019454956 0.069763184 -0.39453125 0 0 0 0
-0.018234253 0.069763184 -0.39453125 0 0 0 0
-0.016998291 0.069763184 -0.39453125 0 0 0 0
-0.015777588 0.069763184 -0.39453125 0 0 0 0
-0.014556885 0.069763184 -0.39453125 0 0 0 0
-0.013328552 0.069763184 -0.39453125 0 0 0 0
0.011260986 0.0703125 -0.39746094 0 0 0 0
0.012527466 0.070495605 -0.3984375 0 0 0 0
0.013771057 0.070495605 -0.3984375 0 0 0 0
0.014930725 0.070129395 -0.39648438 0 0 0 0
0.021514893 0.060913086 -0.34423828 0 0 0 0
0.022521973 0.06072998 -0.34326172 0 0 0 0
0.023590088 0.06072998 -0.34326172 0 0 0 0
0.024581909 0.060577393 -0.34228516 0 0 0 0
0.025650024 0.060577393 -0.34228516 0 0 0 0
0.026641846 0.060394287 -0.34130859 0 0 0 0
0.027618408 0.060211182 -0.34008789 0 0 0 0
0.028579712 0.060028076 -0.33911133 0 0 0 0
0.029556274 0.059844971 -0.33813477 0 0 0 0
0.030517578 0.059692383 -0.3371582 0 0 0 0
0.031463623 0.059509277 -0.33618164 0 0 0 0
0.032409668 0.059326172 -0.33520508 0 0 0 0
0.033355713 0.059143066 -0.33422852 0 0 0 0
0.03427124 0.058959961 -0.33325195 0 0 0 0
0.035217285 0.058776855 -0.33227539 0 0 0 0
0.036132812 0.058624268 -0.33105469 0 0 0 0
0.03704834 0.058441162 -0.33007812 0 0 0 0
0.037963867 0.058258057 -0.32910156 0 0 0 0
0.038879395 0.058074951 -0.328125 0 0 0 0
0.039764404 0.057891846 -0.32714844 0 0 0 0
0.040649414 0.05770874 -0.32617188 0 0 0 0
0.041656494 0.05770874 -0.32617188 0 0 0 0
0.042541504 0.057556152 -0.32519531 0 0 0 0
0.043426514 0.057373047 -0.32421875 0 0 0 0
0.044433594 0.057373047 -0.32421875 0 0 0 0
0.045288086 0.057189941 -0.32324219 0 0 0 0
0.046295166 0.057189941 -0.32324219 0 0 0 0
0.047149658 0.057006836 -0.32202148 0 0 0 0
0.04800415 0.05682373 -0.32104492 0 0 0 0
0.048858643 0.056671143 -0.32006836 0 0 0 0
0.049713135 0.056488037 -0.3190918 0 0 0 0
0.050384521 0.056121826 -0.31713867 0 0 0 0
0.051361084 0.056121826 -0.31713867 0 0 0 0
0.052185059 0.055938721 -0.31616211 0 0 0 0
0.052978516 0.055755615 -0.31518555 0 0 0 0
0.05380249 0.055603027 -0.31420898 0 0 0 0
0.054595947 0.055419922 -0.31298828 0 0 0 0
0.05557251 0.055419922 -0.31298828 0 0 0 0
0.056365967 0.055236816 -0.31201172 0 0 0 0
0.057342529 0.055236816 -0.31201172 0 0 0 0
0.058105469 0.055053711 -0.31103516 0 0 0 0
0.059082031 0.055053711 -0.31103516 0 0 0 0
0.060058594 0.055053711 -0.31103516 0 0 0 0
0.061218262 0.055236816 -0.31201172 0 0 0 0
0.062194824 0.055236816 -0.31201172 0 0 0 0
0.063354492 0.055419922 -0.31298828 0 0 0 0
0.06451416 0.055603027 -0.31420898 0 0 0 0
0.065734863 0.055755615 -0.31518555 0 0 0 0
0.066894531 0.055938721 -0.31616211 0 0 0 0
0.067871094 0.055938721 -0.31616211 0 0 0 0
0.069091797 0.056121826 -0.31713867 0 0 0 0
0.0703125 0.056304932 -0.31811523 0 0 0 0
0.071289062 0.056304932 -0.31811523 0 0 0 0
0.072265625 0.056304932 -0.31811523 0 0 0 0
0.075134277 0.05770874 -0.32617188 0 0 0 0
0.07611084 0.05770874 -0.32617188 0 0 0 0
0.077392578 0.057891846 -0.32714844 0 0 0 0
0.078613281 0.058074951 -0.328125 0 0 0 0
0.08013916 0.058441162 -0.33007812 0 0 0 0
0.081420898 0.058624268 -0.33105469 0 0 0 0
0.082702637 0.058776855 -0.33227539 0 0 0 0
0.084716797 0.059509277 -0.33618164 0 0 0 0
0.086303711 0.059844971 -0.33813477 0 0 0 0
0.087585449 0.060028076 -0.33911133 0 0 0 0
0.088928223 0.060211182 -0.34008789 0 0 0 0
0.090209961 0.060394287 -0.34130859 0 0 0 0
0.09185791 0.06072998 -0.34326172 0 0 0 0
0.093200684 0.060913086 -0.34423828 0 0 0 0
0.094543457 0.061096191 -0.34521484 0 0 0 0
0.09588623 0.061279297 -0.34619141 0 0 0 0
0.097229004 0.061462402 -0.34716797 0 0 0 0
0.09942627 0.062164307 -0.35131836 0 0 0 0
0.10137939 0.062683105 -0.35424805 0 0 0 0
0.1027832 0.062866211 -0.35522461 0 0 0 0
0.10418701 0.063049316 -0.35620117 0 0 0 0
0.10559082 0.063232422 -0.35717773 0 0 0 0
0.10699463 0.063415527 -0.35839844 0 0 0 0
0.10839844 0.063598633 -0.359375 0 0 0 0
0.11016846 0.063903809 -0.36132812 0 0 0 0
0.11157227 0.064086914 -0.36230469 0 0 0 0
0.11303711 0.06427002 -0.36328125 0 0 0 0
0.11444092 0.064453125 -0.36425781 0 0 0 0
0.11590576 0.06463623 -0.36523438 0 0 0 0
0.11737061 0.064819336 -0.36621094 0 0 0 0
0.11914062 0.065185547 -0.3684082 0 0 0 0
-0.021957397 0.068725586 -0.39550781 0 0 0 0
-0.020736694 0.068725586 -0.39550781 0 0 0 0
-0.019500732 0.068725586 -0.39550781 0 0 0 0
-0.018234253 0.06854248 -0.39453125 0 0 0 0
-0.016998291 0.06854248 -0.39453125 0 0 0 0
-0.015777588 0.06854248 -0.39453125 0 0 0 0
-0.014556885 0.06854248 -0.39453125 0 0 0 0
-0.013328552 0.06854248 -0.39453125 0 0 0 0
-0.01210022 0.06854248 -0.39453125 0 0 0 0
0.010002136 0.068908691 -0.39648438 0 0 0 0
0.011238098 0.068908691 -0.39648438 0 0 0 0
0.012466431 0.068908691 -0.39648438 0 0 0 0
0.013702393 0.068908691 -0.39648438 0 0 0 0
0.014892578 0.068725586 -0.39550781 0 0 0 0
0.021514893 0.059844971 -0.34423828 0 0 0 0
0.022521973 0.059661865 -0.34326172 0 0 0 0
0.023590088 0.059661865 -0.34326172 0 0 0 0
0.024581909 0.059509277 -0.34228516 0 0 0 0
0.02557373 0.059326172 -0.34130859 0 0 0 0
0.026641846 0.059326172 -0.34130859 0 0 0 0
0.027618408 0.059143066 -0.34008789 0 0 0 0
0.028579712 0.058990479 -0.33911133 0 0 0 0
0.029556274 0.058807373 -0.33813477 0 0 0 0
0.030517578 0.058624268 -0.3371582 0 0 0 0
0.031463623 0.058441162 -0.33618164 0 0 0 0
0.032409668 0.058288574 -0.33520508 0 0 0 0
0.033355713 0.058105469 -0.33422852 0 0 0 0
0.03427124 0.057922363 -0.33325195 0 0 0 0
0.035217285 0.057769775 -0.33227539 0 0 0 0
0.036132812 0.05758667 -0.33105469 0 0 0 0
0.03704834 0.057403564 -0.33007812 0 0 0 0
0.037963867 0.057220459 -0.32910156 0 0 0 0
0.038879395 0.057067871 -0.328125 0 0 0 0
0.039764404 0.056884766 -0.32714844 0 0 0 0
0.040649414 0.05670166 -0.32617188 0 0 0 0
0.041656494 0.05670166 -0.32617188 0 0 0 0
0.042541504 0.056549072 -0.32519531 0 0 0 0
0.043426514 0.056365967 -0.32421875 0 0 0 0
0.044433594 0.056365967 -0.32421875 0 0 0 0
0.045288086 0.056182861 -0.32324219 0 0 0 0
0.046173096 0.055999756 -0.32202148 0 0 0 0
0.047149658 0.055999756 -0.32202148 0 0 0 0
0.04800415 0.055847168 -0.32104492 0 0 0 0
0.048858643 0.055664062 -0.32006836 0 0 0 0
0.049530029 0.055328369 -0.31811523 0 0 0 0
0.050384521 0.055145264 -0.31713867 0 0 0 0
0.051208496 0.054962158 -0.31616211 0 0 0 0
0.052185059 0.054962158 -0.31616211 0 0 0 0
0.052978516 0.054779053 -0.31518555 0 0 0 0
0.05380249 0.054626465 -0.31420898 0 0 0 0
0.054595947 0.054443359 -0.31298828 0 0 0 0
0.05557251 0.054443359 -0.31298828 0 0 0 0
0.056365967 0.054260254 -0.31201172 0 0 0 0
0.057342529 0.054260254 -0.31201172 0 0 0 0
0.058105469 0.054077148 -0.31103516 0 0 0 0
0.059082031 0.054077148 -0.31103516 0 0 0 0
0.060058594 0.054077148 -0.31103516 0 0 0 0
0.061218262 0.054260254 -0.31201172 0 0 0 0
0.062194824 0.054260254 -0.31201172 0 0 0 0
0.063354492 0.054443359 -0.31298828 0 0 0 0
0.06451416 0.054626465 -0.31420898 0 0 0 0
0.065734863 0.054779053 -0.31518555 0 0 0 0
0.066894531 0.054962158 -0.31616211 0 0 0 0
0.067871094 0.054962158 -0.31616211 0 0 0 0
0.069091797 0.055145264 -0.31713867 0 0 0 0
0.0703125 0.055328369 -0.31811523 0 0 0 0
0.071533203 0.055480957 -0.3190918 0 0 0 0
0.072265625 0.055328369 -0.31811523 0 0 0 0
0.075134277 0.05670166 -0.32617188 0 0 0 0
0.07611084 0.05670166 -0.32617188 0 0 0 0
0.077392578 0.056884766 -0.32714844 0 0 0 0
0.078613281 0.057067871 -0.328125 0 0 0 0
0.08013916 0.057403564 -0.33007812 0 0 0 0
0.081420898 0.05758667 -0.33105469 0 0 0 0
0.082702637 0.057769775 -0.33227539 0 0 0 0
0.084716797 0.058441162 -0.33618164 0 0 0 0
0.08605957 0.058624268 -0.3371582 0 0 0 0
0.087585449 0.058990479 -0.33911133 0 0 0 0
0.088928223 0.059143066 -0.34008789 0 0 0 0
0.090209961 0.059326172 -0.34130859 0 0 0 0
0.09185791 0.059661865 -0.34326172 0 0 0 0
0.093200684 0.059844971 -0.34423828 0 0 0 0
0.094543457 0.060028076 -0.34521484 0 0 0 0
0.09588623 0.060211182 -0.34619141 0 0 0 0
0.097229004 0.06036377 -0.34716797 0 0 0 0
0.09942627 0.061065674 -0.35131836 0 0 0 0
0.10113525 0.061431885 -0.35327148 0 0 0 0
0.1027832 0.061767578 -0.35522461 0 0 0 0
0.10418701 0.061950684 -0.35620117 0 0 0 0
0.10559082 0.062133789 -0.35717773 0 0 0 0
0.10699463 0.062286377 -0.35839844 0 0 0 0
0.10839844 0.062469482 -0.359375 0 0 0 0
0.10986328 0.06262207 -0.36035156 0 0 0 0
0.11157227 0.062988281 -0.36230469 0 0 0 0
0.11303711 0.063171387 -0.36328125 0 0 0 0
0.11444092 0.063354492 -0.36425781 0 0 0 0
0.11621094 0.063659668 -0.36621094 0 0 0 0
0.11767578 0.063842773 -0.36743164 0 0 0 0
0.11914062 0.064025879 -0.3684082 0 0 0 0
-0.021957397 0.067504883 -0.39550781 0 0 0 0
-0.020736694 0.067504883 -0.39550781 0 0 0 0
-0.019500732 0.067504883 -0.39550781 0 0 0 0
-0.018234253 0.067321777 -0.39453125 0 0 0 0
-0.016998291 0.067321777 -0.39453125 0 0 0 0
-0.015777588 0.067321777 -0.39453125 0 0 0 0
-0.014556885 0.067321777 -0.39453125 0 0 0 0
-0.013328552 0.067321777 -0.39453125 0 0 0 0
-0.01210022 0.067321777 -0.39453125 0 0 0 0
0.0087051392 0.067138672 -0.39331055 0 0 0 0
0.0099563599 0.067321777 -0.39453125 0 0 0 0
0.011207581 0.067504883 -0.39550781 0 0 0 0
0.012435913 0.067504883 -0.39550781 0 0 0 0
0.013664246 0.067504883 -0.39550781 0 0 0 0
0.014854431 0.067321777 -0.39453125 0 0 0 0
0.016082764 0.067321777 -0.39453125 0 0 0 0
0.021453857 0.058624268 -0.34326172 0 0 0 0
0.022521973 0.058624268 -0.34326172 0 0 0 0
0.023590088 0.058624268 -0.34326172 0 0 0 0
0.024581909 0.058441162 -0.34228516 0 0 0 0
0.02557373 0.058258057 -0.34130859 0 0 0 0
0.026550293 0.058105469 -0.34008789 0 0 0 0
0.027618408 0.058105469 -0.34008789 0 0 0 0
0.028579712 0.057922363 -0.33911133 0 0 0 0
0.029556274 0.057739258 -0.33813477 0 0 0 0
0.030517578 0.05758667 -0.3371582 0 0 0 0
0.031463623 0.057403564 -0.33618164 0 0 0 0
0.032409668 0.057250977 -0.33520508 0 0 0 0
0.033355713 0.057067871 -0.33422852 0 0 0 0
0.03427124 0.056884766 -0.33325195 0 0 0 0
0.035217285 0.056732178 -0.33227539 0 0 0 0
