ply
format ascii 1.0
comment PCL generated
element vertex 1068
property float x
property float y
property float z
property float nx
property float ny
property float nz
property float curvature
element face 0
element camera 0
property float view_px
property float view_py
property float view_pz
property float x_axisx
property float x_axisy
property float x_axisz
property float y_axisx
property float y_axisy
property float y_axisz
property float z_axisx
property float z_axisy
property float z_axisz
property float focal
property float scalex
property float scaley
property float centerx
property float centery
property int viewportx
property int viewporty
property float k1
property float k2
end_header
0.045135498 0.062255859 -0.37133789 0 0 0 0
0.083496094 0.066101074 -0.39453125 0 0 0 0
0.084716797 0.066101074 -0.39453125 0 0 0 0
0.0859375 0.066101074 -0.39453125 0 0 0 0
0.086914062 0.065917969 -0.39331055 0 0 0 0
0.088134766 0.065917969 -0.39331055 0 0 0 0
0.089355469 0.065917969 -0.39331055 0 0 0 0
0.090576172 0.065917969 -0.39331055 0 0 0 0
0.091796875 0.065917969 -0.39331055 0 0 0 0
0.093261719 0.066101074 -0.39453125 0 0 0 0
0.094482422 0.066101074 -0.39453125 0 0 0 0
0.095703125 0.066101074 -0.39453125 0 0 0 0
0.097229004 0.06628418 -0.39550781 0 0 0 0
-0.090332031 0.061431885 -0.37329102 0 0 0 0
-0.088928223 0.061279297 -0.37231445 0 0 0 0
-0.087768555 0.061279297 -0.37231445 0 0 0 0
-0.086364746 0.061096191 -0.37133789 0 0 0 0
-0.085205078 0.061096191 -0.37133789 0 0 0 0
-0.08404541 0.061096191 -0.37133789 0 0 0 0
-0.082702637 0.060943604 -0.37036133 0 0 0 0
-0.081542969 0.060943604 -0.37036133 0 0 0 0
-0.080200195 0.060760498 -0.36938477 0 0 0 0
-0.079040527 0.060760498 -0.36938477 0 0 0 0
-0.077880859 0.060760498 -0.36938477 0 0 0 0
-0.076965332 0.060943604 -0.37036133 0 0 0 0
-0.075805664 0.060943604 -0.37036133 0 0 0 0
-0.074645996 0.060943604 -0.37036133 0 0 0 0
-0.073303223 0.060760498 -0.36938477 0 0 0 0
-0.072692871 0.063232422 -0.38427734 0 0 0 0
-0.071472168 0.063232422 -0.38427734 0 0 0 0
-0.070129395 0.063049316 -0.38330078 0 0 0 0
-0.068908691 0.063049316 -0.38330078 0 0 0 0
-0.067749023 0.063049316 -0.38330078 0 0 0 0
-0.066345215 0.062927246 -0.38232422 0 0 0 0
-0.065185547 0.062927246 -0.38232422 0 0 0 0
-0.063964844 0.062927246 -0.38232422 0 0 0 0
-0.062805176 0.062927246 -0.38232422 0 0 0 0
-0.061645508 0.062927246 -0.38232422 0 0 0 0
-0.060455322 0.062927246 -0.38232422 0 0 0 0
-0.059265137 0.062927246 -0.38232422 0 0 0 0
-0.058074951 0.062927246 -0.38232422 0 0 0 0
-0.056884766 0.062927246 -0.38232422 0 0 0 0
-0.055847168 0.063049316 -0.38330078 0 0 0 0
-0.054656982 0.063049316 -0.38330078 0 0 0 0
-0.053588867 0.063232422 -0.38427734 0 0 0 0
-0.052398682 0.063232422 -0.38427734 0 0 0 0
-0.051330566 0.063415527 -0.38549805 0 0 0 0
-0.050262451 0.063537598 -0.38647461 0 0 0 0
-0.049072266 0.063537598 -0.38647461 0 0 0 0
-0.04800415 0.063720703 -0.38745117 0 0 0 0
-0.046905518 0.063903809 -0.38842773 0 0 0 0
-0.045928955 0.064208984 -0.39038086 0 0 0 0
-0.02381897 0.060455322 -0.36743164 0 0 0 0
-0.022689819 0.060455322 -0.36743164 0 0 0 0
-0.02154541 0.060455322 -0.36743164 0 0 0 0
-0.020401001 0.060455322 -0.36743164 0 0 0 0
-0.019210815 0.060272217 -0.36621094 0 0 0 0
-0.01802063 0.060119629 -0.36523438 0 0 0 0
-0.016830444 0.059936523 -0.36425781 0 0 0 0
-0.015655518 0.059783936 -0.36328125 0 0 0 0
-0.01449585 0.05960083 -0.36230469 0 0 0 0
-0.013336182 0.059448242 -0.36132812 0 0 0 0
-0.012207031 0.059448242 -0.36132812 0 0 0 0
-0.011054993 0.059295654 -0.36035156 0 0 0 0
-0.0099334717 0.059295654 -0.36035156 0 0 0 0
-0.0087890625 0.059112549 -0.359375 0 0 0 0
-0.0076789856 0.059112549 -0.359375 0 0 0 0
-0.0065422058 0.058959961 -0.35839844 0 0 0 0
-0.0054283142 0.058959961 -0.35839844 0 0 0 0
-0.0043144226 0.058959961 -0.35839844 0 0 0 0
-0.0032024384 0.058959961 -0.35839844 0 0 0 0
-0.0020828247 0.058776855 -0.35717773 0 0 0 0
-0.00097370148 0.058776855 -0.35717773 0 0 0 0
0.0078353882 0.058288574 -0.35424805 0 0 0 0
0.0089416504 0.058288574 -0.35424805 0 0 0 0
0.010040283 0.058288574 -0.35424805 0 0 0 0
0.011169434 0.05847168 -0.35522461 0 0 0 0
0.012275696 0.05847168 -0.35522461 0 0 0 0
0.013381958 0.05847168 -0.35522461 0 0 0 0
0.01448822 0.05847168 -0.35522461 0 0 0 0
0.015586853 0.05847168 -0.35522461 0 0 0 0
0.016738892 0.058624268 -0.35620117 0 0 0 0
0.017837524 0.058624268 -0.35620117 0 0 0 0
0.018951416 0.058624268 -0.35620117 0 0 0 0
0.020065308 0.058624268 -0.35620117 0 0 0 0
0.02116394 0.058624268 -0.35620117 0 0 0 0
0.022277832 0.058624268 -0.35620117 0 0 0 0
0.023452759 0.058776855 -0.35717773 0 0 0 0
0.024551392 0.058776855 -0.35717773 0 0 0 0
0.025741577 0.058959961 -0.35839844 0 0 0 0
0.026931763 0.059112549 -0.359375 0 0 0 0
0.028045654 0.059112549 -0.359375 0 0 0 0
0.02923584 0.059295654 -0.36035156 0 0 0 0
0.03036499 0.059295654 -0.36035156 0 0 0 0
0.031555176 0.059448242 -0.36132812 0 0 0 0
0.032684326 0.059448242 -0.36132812 0 0 0 0
0.033905029 0.05960083 -0.36230469 0 0 0 0
0.03503418 0.05960083 -0.36230469 0 0 0 0
0.036254883 0.059783936 -0.36328125 0 0 0 0
0.037475586 0.059936523 -0.36425781 0 0 0 0
0.038726807 0.060119629 -0.36523438 0 0 0 0
0.04006958 0.060455322 -0.36743164 0 0 0 0
0.041320801 0.06060791 -0.3684082 0 0 0 0
0.042724609 0.060943604 -0.37036133 0 0 0 0
0.04397583 0.061096191 -0.37133789 0 0 0 0
0.08392334 0.065185547 -0.39648438 0 0 0 0
0.084899902 0.065063477 -0.39550781 0 0 0 0
0.086120605 0.065063477 -0.39550781 0 0 0 0
0.087158203 0.064880371 -0.39453125 0 0 0 0
0.088378906 0.064880371 -0.39453125 0 0 0 0
0.089355469 0.064697266 -0.39331055 0 0 0 0
0.090820312 0.064880371 -0.39453125 0 0 0 0
0.092041016 0.064880371 -0.39453125 0 0 0 0
0.093261719 0.064880371 -0.39453125 0 0 0 0
0.094482422 0.064880371 -0.39453125 0 0 0 0
0.095947266 0.065063477 -0.39550781 0 0 0 0
0.097229004 0.065063477 -0.39550781 0 0 0 0
0.098693848 0.065185547 -0.39648438 0 0 0 0
-0.089172363 0.060272217 -0.37329102 0 0 0 0
-0.087768555 0.060119629 -0.37231445 0 0 0 0
-0.086608887 0.060119629 -0.37231445 0 0 0 0
-0.085449219 0.060119629 -0.37231445 0 0 0 0
-0.08404541 0.059936523 -0.37133789 0 0 0 0
-0.082946777 0.059936523 -0.37133789 0 0 0 0
-0.081542969 0.059783936 -0.37036133 0 0 0 0
-0.080383301 0.059783936 -0.37036133 0 0 0 0
-0.079223633 0.059783936 -0.37036133 0 0 0 0
-0.078063965 0.059783936 -0.37036133 0 0 0 0
-0.076965332 0.059783936 -0.37036133 0 0 0 0
-0.075805664 0.059783936 -0.37036133 0 0 0 0
-0.074645996 0.059783936 -0.37036133 0 0 0 0
-0.072692871 0.062042236 -0.38427734 0 0 0 0
-0.071472168 0.062042236 -0.38427734 0 0 0 0
-0.070129395 0.061889648 -0.38330078 0 0 0 0
-0.068908691 0.061889648 -0.38330078 0 0 0 0
-0.067565918 0.061737061 -0.38232422 0 0 0 0
-0.066345215 0.061737061 -0.38232422 0 0 0 0
-0.065185547 0.061737061 -0.38232422 0 0 0 0
-0.063842773 0.061553955 -0.38134766 0 0 0 0
-0.06262207 0.061553955 -0.38134766 0 0 0 0
-0.061462402 0.061553955 -0.38134766 0 0 0 0
-0.060272217 0.061553955 -0.38134766 0 0 0 0
-0.059265137 0.061737061 -0.38232422 0 0 0 0
-0.058074951 0.061737061 -0.38232422 0 0 0 0
-0.056884766 0.061737061 -0.38232422 0 0 0 0
-0.05569458 0.061737061 -0.38232422 0 0 0 0
-0.054656982 0.061889648 -0.38330078 0 0 0 0
-0.053466797 0.061889648 -0.38330078 0 0 0 0
-0.052398682 0.062042236 -0.38427734 0 0 0 0
-0.051208496 0.062042236 -0.38427734 0 0 0 0
-0.050140381 0.062225342 -0.38549805 0 0 0 0
-0.049072266 0.06237793 -0.38647461 0 0 0 0
-0.04788208 0.06237793 -0.38647461 0 0 0 0
-0.046783447 0.0625 -0.38745117 0 0 0 0
-0.024963379 0.059295654 -0.36743164 0 0 0 0
-0.02381897 0.059295654 -0.36743164 0 0 0 0
-0.022689819 0.059295654 -0.36743164 0 0 0 0
-0.02154541 0.059295654 -0.36743164 0 0 0 0
-0.020339966 0.059143066 -0.36621094 0 0 0 0
-0.019210815 0.059143066 -0.36621094 0 0 0 0
-0.01802063 0.058959961 -0.36523438 0 0 0 0
-0.016876221 0.058959961 -0.36523438 0 0 0 0
-0.015701294 0.058807373 -0.36425781 0 0 0 0
-0.014533997 0.058654785 -0.36328125 0 0 0 0
-0.013366699 0.058502197 -0.36230469 0 0 0 0
-0.012207031 0.058319092 -0.36132812 0 0 0 0
-0.011054993 0.058166504 -0.36035156 0 0 0 0
-0.0099334717 0.058166504 -0.36035156 0 0 0 0
-0.0087890625 0.058013916 -0.359375 0 0 0 0
-0.0076789856 0.058013916 -0.359375 0 0 0 0
-0.0065612793 0.058013916 -0.359375 0 0 0 0
-0.0054283142 0.057830811 -0.35839844 0 0 0 0
-0.0043144226 0.057830811 -0.35839844 0 0 0 0
-0.0032024384 0.057830811 -0.35839844 0 0 0 0
-0.0020828247 0.057678223 -0.35717773 0 0 0 0
0.0078353882 0.057189941 -0.35424805 0 0 0 0
0.0089416504 0.057189941 -0.35424805 0 0 0 0
0.010040283 0.057189941 -0.35424805 0 0 0 0
0.011138916 0.057189941 -0.35424805 0 0 0 0
0.012275696 0.057342529 -0.35522461 0 0 0 0
0.013381958 0.057342529 -0.35522461 0 0 0 0
0.01448822 0.057342529 -0.35522461 0 0 0 0
0.015586853 0.057342529 -0.35522461 0 0 0 0
0.016738892 0.057525635 -0.35620117 0 0 0 0
0.017837524 0.057525635 -0.35620117 0 0 0 0
0.018951416 0.057525635 -0.35620117 0 0 0 0
0.020065308 0.057525635 -0.35620117 0 0 0 0
0.021224976 0.057678223 -0.35717773 0 0 0 0
0.022338867 0.057678223 -0.35717773 0 0 0 0
0.023452759 0.057678223 -0.35717773 0 0 0 0
0.024551392 0.057678223 -0.35717773 0 0 0 0
0.025741577 0.057830811 -0.35839844 0 0 0 0
0.027008057 0.058166504 -0.36035156 0 0 0 0
0.028198242 0.058319092 -0.36132812 0 0 0 0
0.029327393 0.058319092 -0.36132812 0 0 0 0
0.030532837 0.058502197 -0.36230469 0 0 0 0
0.031646729 0.058502197 -0.36230469 0 0 0 0
0.032775879 0.058502197 -0.36230469 0 0 0 0
0.033996582 0.058654785 -0.36328125 0 0 0 0
0.035125732 0.058654785 -0.36328125 0 0 0 0
0.036346436 0.058807373 -0.36425781 0 0 0 0
0.037475586 0.058807373 -0.36425781 0 0 0 0
0.038726807 0.058959961 -0.36523438 0 0 0 0
0.039978027 0.059143066 -0.36621094 0 0 0 0
0.041229248 0.059295654 -0.36743164 0 0 0 0
0.084106445 0.064147949 -0.39746094 0 0 0 0
0.085327148 0.064147949 -0.39746094 0 0 0 0
0.086364746 0.063964844 -0.39648438 0 0 0 0
0.087341309 0.063842773 -0.39550781 0 0 0 0
0.088623047 0.063842773 -0.39550781 0 0 0 0
0.089599609 0.063659668 -0.39453125 0 0 0 0
0.090820312 0.063659668 -0.39453125 0 0 0 0
0.092041016 0.063659668 -0.39453125 0 0 0 0
0.093505859 0.063842773 -0.39550781 0 0 0 0
0.094726562 0.063842773 -0.39550781 0 0 0 0
0.095947266 0.063842773 -0.39550781 0 0 0 0
0.097229004 0.063842773 -0.39550781 0 0 0 0
0.098693848 0.063964844 -0.39648438 0 0 0 0
-0.089172363 0.059112549 -0.37329102 0 0 0 0
-0.088012695 0.059112549 -0.37329102 0 0 0 0
-0.086608887 0.058959961 -0.37231445 0 0 0 0
-0.085693359 0.059112549 -0.37329102 0 0 0 0
-0.084289551 0.058959961 -0.37231445 0 0 0 0
-0.083129883 0.058959961 -0.37231445 0 0 0 0
-0.081787109 0.058807373 -0.37133789 0 0 0 0
-0.080627441 0.058807373 -0.37133789 0 0 0 0
-0.079467773 0.058807373 -0.37133789 0 0 0 0
-0.078308105 0.058807373 -0.37133789 0 0 0 0
-0.077148438 0.058807373 -0.37133789 0 0 0 0
-0.07598877 0.058807373 -0.37133789 0 0 0 0
-0.074645996 0.058624268 -0.37036133 0 0 0 0
-0.071472168 0.060852051 -0.38427734 0 0 0 0
-0.070129395 0.060699463 -0.38330078 0 0 0 0
-0.068908691 0.060699463 -0.38330078 0 0 0 0
-0.067565918 0.060546875 -0.38232422 0 0 0 0
-0.066345215 0.060546875 -0.38232422 0 0 0 0
-0.065002441 0.060394287 -0.38134766 0 0 0 0
-0.063842773 0.060394287 -0.38134766 0 0 0 0
-0.06262207 0.060394287 -0.38134766 0 0 0 0
-0.061462402 0.060394287 -0.38134766 0 0 0 0
-0.060272217 0.060394287 -0.38134766 0 0 0 0
-0.059112549 0.060394287 -0.38134766 0 0 0 0
-0.058074951 0.060546875 -0.38232422 0 0 0 0
-0.056884766 0.060546875 -0.38232422 0 0 0 0
-0.05569458 0.060546875 -0.38232422 0 0 0 0
-0.054504395 0.060546875 -0.38232422 0 0 0 0
-0.053466797 0.060699463 -0.38330078 0 0 0 0
-0.052276611 0.060699463 -0.38330078 0 0 0 0
-0.051208496 0.060852051 -0.38427734 0 0 0 0
-0.050018311 0.060852051 -0.38427734 0 0 0 0
-0.048950195 0.061004639 -0.38549805 0 0 0 0
-0.04776001 0.061004639 -0.38549805 0 0 0 0
-0.046661377 0.061187744 -0.38647461 0 0 0 0
-0.024963379 0.058166504 -0.36743164 0 0 0 0
-0.02381897 0.058166504 -0.36743164 0 0 0 0
-0.022689819 0.058166504 -0.36743164 0 0 0 0
-0.02154541 0.058166504 -0.36743164 0 0 0 0
-0.020339966 0.058013916 -0.36621094 0 0 0 0
-0.019210815 0.058013916 -0.36621094 0 0 0 0
-0.01802063 0.057830811 -0.36523438 0 0 0 0
-0.016876221 0.057830811 -0.36523438 0 0 0 0
-0.015701294 0.057678223 -0.36425781 0 0 0 0
-0.014533997 0.057525635 -0.36328125 0 0 0 0
-0.013366699 0.057373047 -0.36230469 0 0 0 0
-0.012245178 0.057373047 -0.36230469 0 0 0 0
-0.01108551 0.057189941 -0.36132812 0 0 0 0
-0.0099334717 0.057037354 -0.36035156 0 0 0 0
-0.0087890625 0.056884766 -0.359375 0 0 0 0
-0.0076789856 0.056884766 -0.359375 0 0 0 0
-0.0065612793 0.056884766 -0.359375 0 0 0 0
-0.0054283142 0.056732178 -0.35839844 0 0 0 0
-0.0043144226 0.056732178 -0.35839844 0 0 0 0
-0.0032024384 0.056732178 -0.35839844 0 0 0 0
-0.0020885468 0.056732178 -0.35839844 0 0 0 0
0.0056381226 0.056091309 -0.35424805 0 0 0 0
0.0067405701 0.056091309 -0.35424805 0 0 0 0
0.0078353882 0.056091309 -0.35424805 0 0 0 0
0.0089416504 0.056091309 -0.35424805 0 0 0 0
0.010040283 0.056091309 -0.35424805 0 0 0 0
0.011138916 0.056091309 -0.35424805 0 0 0 0
0.012245178 0.056091309 -0.35424805 0 0 0 0
0.013381958 0.056243896 -0.35522461 0 0 0 0
0.01448822 0.056243896 -0.35522461 0 0 0 0
0.015586853 0.056243896 -0.35522461 0 0 0 0
0.016738892 0.056396484 -0.35620117 0 0 0 0
0.017837524 0.056396484 -0.35620117 0 0 0 0
0.018951416 0.056396484 -0.35620117 0 0 0 0
0.020111084 0.05657959 -0.35717773 0 0 0 0
0.021224976 0.05657959 -0.35717773 0 0 0 0
0.022338867 0.05657959 -0.35717773 0 0 0 0
0.023452759 0.05657959 -0.35717773 0 0 0 0
0.024627686 0.056732178 -0.35839844 0 0 0 0
0.025741577 0.056732178 -0.35839844 0 0 0 0
0.027084351 0.057189941 -0.36132812 0 0 0 0
0.028274536 0.057373047 -0.36230469 0 0 0 0
0.02947998 0.057525635 -0.36328125 0 0 0 0
0.030609131 0.057525635 -0.36328125 0 0 0 0
0.031738281 0.057525635 -0.36328125 0 0 0 0
0.032958984 0.057678223 -0.36425781 0 0 0 0
0.034088135 0.057678223 -0.36425781 0 0 0 0
0.035217285 0.057678223 -0.36425781 0 0 0 0
0.036468506 0.057830811 -0.36523438 0 0 0 0
0.037597656 0.057830811 -0.36523438 0 0 0 0
0.038726807 0.057830811 -0.36523438 0 0 0 0
0.039978027 0.058013916 -0.36621094 0 0 0 0
0.084350586 0.063049316 -0.3984375 0 0 0 0
0.085571289 0.063049316 -0.3984375 0 0 0 0
0.086608887 0.062927246 -0.39746094 0 0 0 0
0.087585449 0.062744141 -0.39648438 0 0 0 0
0.088806152 0.062744141 -0.39648438 0 0 0 0
0.08984375 0.06262207 -0.39550781 0 0 0 0
0.091064453 0.06262207 -0.39550781 0 0 0 0
0.092285156 0.06262207 -0.39550781 0 0 0 0
0.093505859 0.06262207 -0.39550781 0 0 0 0
0.094726562 0.06262207 -0.39550781 0 0 0 0
0.096191406 0.062744141 -0.39648438 0 0 0 0
0.097473145 0.062744141 -0.39648438 0 0 0 0
0.098693848 0.062744141 -0.39648438 0 0 0 0
-0.087097168 0.058105469 -0.37426758 0 0 0 0
-0.0859375 0.058105469 -0.37426758 0 0 0 0
-0.084533691 0.057952881 -0.37329102 0 0 0 0
-0.083374023 0.057952881 -0.37329102 0 0 0 0
-0.081970215 0.057800293 -0.37231445 0 0 0 0
-0.080810547 0.057800293 -0.37231445 0 0 0 0
-0.079650879 0.057800293 -0.37231445 0 0 0 0
-0.078308105 0.057647705 -0.37133789 0 0 0 0
-0.077148438 0.057647705 -0.37133789 0 0 0 0
-0.076171875 0.057800293 -0.37231445 0 0 0 0
-0.071289062 0.059509277 -0.38330078 0 0 0 0
-0.070129395 0.059509277 -0.38330078 0 0 0 0
-0.068725586 0.059356689 -0.38232422 0 0 0 0
-0.067565918 0.059356689 -0.38232422 0 0 0 0
-0.066223145 0.059204102 -0.38134766 0 0 0 0
-0.065002441 0.059204102 -0.38134766 0 0 0 0
-0.063842773 0.059204102 -0.38134766 0 0 0 0
-0.06262207 0.059204102 -0.38134766 0 0 0 0
-0.061462402 0.059204102 -0.38134766 0 0 0 0
-0.060272217 0.059204102 -0.38134766 0 0 0 0
-0.059112549 0.059204102 -0.38134766 0 0 0 0
-0.057922363 0.059204102 -0.38134766 0 0 0 0
-0.056884766 0.059356689 -0.38232422 0 0 0 0
-0.05569458 0.059356689 -0.38232422 0 0 0 0
-0.054504395 0.059356689 -0.38232422 0 0 0 0
-0.053314209 0.059356689 -0.38232422 0 0 0 0
-0.052276611 0.059509277 -0.38330078 0 0 0 0
-0.051086426 0.059509277 -0.38330078 0 0 0 0
-0.050018311 0.059661865 -0.38427734 0 0 0 0
-0.048828125 0.059661865 -0.38427734 0 0 0 0
-0.04776001 0.059814453 -0.38549805 0 0 0 0
-0.046539307 0.059814453 -0.38549805 0 0 0 0
-0.026107788 0.057006836 -0.36743164 0 0 0 0
-0.024963379 0.057006836 -0.36743164 0 0 0 0
-0.02381897 0.057006836 -0.36743164 0 0 0 0
-0.022628784 0.056854248 -0.36621094 0 0 0 0
-0.021484375 0.056854248 -0.36621094 0 0 0 0
-0.020339966 0.056854248 -0.36621094 0 0 0 0
-0.01914978 0.05670166 -0.36523438 0 0 0 0
-0.01802063 0.05670166 -0.36523438 0 0 0 0
-0.016876221 0.05670166 -0.36523438 0 0 0 0
-0.015701294 0.056549072 -0.36425781 0 0 0 0
-0.014533997 0.056396484 -0.36328125 0 0 0 0
-0.013404846 0.056396484 -0.36328125 0 0 0 0
-0.012245178 0.056243896 -0.36230469 0 0 0 0
-0.01108551 0.056091309 -0.36132812 0 0 0 0
-0.0099334717 0.055938721 -0.36035156 0 0 0 0
-0.0088195801 0.055938721 -0.36035156 0 0 0 0
-0.0076789856 0.055755615 -0.359375 0 0 0 0
-0.0065612793 0.055755615 -0.359375 0 0 0 0
-0.005443573 0.055755615 -0.359375 0 0 0 0
-0.0043258667 0.055755615 -0.359375 0 0 0 0
-0.0032024384 0.055603027 -0.35839844 0 0 0 0
0.004535675 0.054992676 -0.35424805 0 0 0 0
0.0056381226 0.054992676 -0.35424805 0 0 0 0
0.0067405701 0.054992676 -0.35424805 0 0 0 0
0.0078353882 0.054992676 -0.35424805 0 0 0 0
0.0089416504 0.054992676 -0.35424805 0 0 0 0
0.010040283 0.054992676 -0.35424805 0 0 0 0
0.011138916 0.054992676 -0.35424805 0 0 0 0
0.012245178 0.054992676 -0.35424805 0 0 0 0
0.013381958 0.055145264 -0.35522461 0 0 0 0
0.01448822 0.055145264 -0.35522461 0 0 0 0
0.015586853 0.055145264 -0.35522461 0 0 0 0
0.016738892 0.055297852 -0.35620117 0 0 0 0
0.017837524 0.055297852 -0.35620117 0 0 0 0
0.019012451 0.055450439 -0.35717773 0 0 0 0
0.020111084 0.055450439 -0.35717773 0 0 0 0
0.021224976 0.055450439 -0.35717773 0 0 0 0
0.022338867 0.055450439 -0.35717773 0 0 0 0
0.023513794 0.055603027 -0.35839844 0 0 0 0
0.024627686 0.055603027 -0.35839844 0 0 0 0
0.026382446 0.057006836 -0.36743164 0 0 0 0
0.027374268 0.05670166 -0.36523438 0 0 0 0
0.028442383 0.056549072 -0.36425781 0 0 0 0
0.029571533 0.056549072 -0.36425781 0 0 0 0
0.030792236 0.05670166 -0.36523438 0 0 0 0
0.031921387 0.05670166 -0.36523438 0 0 0 0
0.033050537 0.05670166 -0.36523438 0 0 0 0
0.034179688 0.05670166 -0.36523438 0 0 0 0
0.035308838 0.05670166 -0.36523438 0 0 0 0
0.036468506 0.05670166 -0.36523438 0 0 0 0
0.037689209 0.056854248 -0.36621094 0 0 0 0
0.038818359 0.056854248 -0.36621094 0 0 0 0
0.039978027 0.056854248 -0.36621094 0 0 0 0
0.087036133 0.062011719 -0.39941406 0 0 0 0
0.08782959 0.061676025 -0.39746094 0 0 0 0
0.089050293 0.061676025 -0.39746094 0 0 0 0
0.090087891 0.061523438 -0.39648438 0 0 0 0
0.091308594 0.061523438 -0.39648438 0 0 0 0
0.092529297 0.061523438 -0.39648438 0 0 0 0
0.09375 0.061523438 -0.39648438 0 0 0 0
0.094970703 0.061523438 -0.39648438 0 0 0 0
0.096191406 0.061523438 -0.39648438 0 0 0 0
0.097473145 0.061523438 -0.39648438 0 0 0 0
0.098937988 0.061676025 -0.39746094 0 0 0 0
0.10040283 0.061859131 -0.3984375 0 0 0 0
-0.086120605 0.057098389 -0.37524414 0 0 0 0
-0.084777832 0.056945801 -0.37426758 0 0 0 0
-0.083618164 0.056945801 -0.37426758 0 0 0 0
-0.082214355 0.056793213 -0.37329102 0 0 0 0
-0.081054688 0.056793213 -0.37329102 0 0 0 0
-0.079650879 0.056640625 -0.37231445 0 0 0 0
-0.078491211 0.056640625 -0.37231445 0 0 0 0
-0.077331543 0.056640625 -0.37231445 0 0 0 0
-0.076171875 0.056640625 -0.37231445 0 0 0 0
-0.071289062 0.058319092 -0.38330078 0 0 0 0
-0.070129395 0.058319092 -0.38330078 0 0 0 0
-0.068725586 0.058166504 -0.38232422 0 0 0 0
-0.067565918 0.058166504 -0.38232422 0 0 0 0
-0.066223145 0.058013916 -0.38134766 0 0 0 0
-0.065002441 0.058013916 -0.38134766 0 0 0 0
-0.063842773 0.058013916 -0.38134766 0 0 0 0
-0.06262207 0.058013916 -0.38134766 0 0 0 0
-0.061462402 0.058013916 -0.38134766 0 0 0 0
-0.060272217 0.058013916 -0.38134766 0 0 0 0
-0.059112549 0.058013916 -0.38134766 0 0 0 0
-0.057922363 0.058013916 -0.38134766 0 0 0 0
-0.056732178 0.058013916 -0.38134766 0 0 0 0
-0.05569458 0.058166504 -0.38232422 0 0 0 0
-0.054504395 0.058166504 -0.38232422 0 0 0 0
-0.053314209 0.058166504 -0.38232422 0 0 0 0
-0.052276611 0.058319092 -0.38330078 0 0 0 0
-0.051086426 0.058319092 -0.38330078 0 0 0 0
-0.050018311 0.05847168 -0.38427734 0 0 0 0
-0.048828125 0.05847168 -0.38427734 0 0 0 0
-0.047607422 0.05847168 -0.38427734 0 0 0 0
-0.046539307 0.058624268 -0.38549805 0 0 0 0
-0.045349121 0.058624268 -0.38549805 0 0 0 0
-0.027252197 0.055877686 -0.36743164 0 0 0 0
-0.026107788 0.055877686 -0.36743164 0 0 0 0
-0.024902344 0.055725098 -0.36621094 0 0 0 0
-0.023757935 0.055725098 -0.36621094 0 0 0 0
-0.022628784 0.055725098 -0.36621094 0 0 0 0
-0.021484375 0.055725098 -0.36621094 0 0 0 0
-0.020294189 0.05557251 -0.36523438 0 0 0 0
-0.01914978 0.05557251 -0.36523438 0 0 0 0
-0.01802063 0.05557251 -0.36523438 0 0 0 0
-0.016830444 0.055419922 -0.36425781 0 0 0 0
-0.015701294 0.055419922 -0.36425781 0 0 0 0
-0.014572144 0.055419922 -0.36425781 0 0 0 0
-0.013404846 0.055267334 -0.36328125 0 0 0 0
-0.012275696 0.055267334 -0.36328125 0 0 0 0
-0.01108551 0.054962158 -0.36132812 0 0 0 0
-0.0099639893 0.054962158 -0.36132812 0 0 0 0
-0.0088195801 0.05480957 -0.36035156 0 0 0 0
-0.0076980591 0.05480957 -0.36035156 0 0 0 0
-0.0065612793 0.054656982 -0.359375 0 0 0 0
-0.005443573 0.054656982 -0.359375 0 0 0 0
-0.0043258667 0.054656982 -0.359375 0 0 0 0
0.0034370422 0.053894043 -0.35424805 0 0 0 0
0.004535675 0.053894043 -0.35424805 0 0 0 0
0.0056381226 0.053894043 -0.35424805 0 0 0 0
0.0067405701 0.053894043 -0.35424805 0 0 0 0
0.0078353882 0.053894043 -0.35424805 0 0 0 0
0.0089416504 0.053894043 -0.35424805 0 0 0 0
0.010040283 0.053894043 -0.35424805 0 0 0 0
0.011138916 0.053894043 -0.35424805 0 0 0 0
0.012245178 0.053894043 -0.35424805 0 0 0 0
0.013381958 0.054046631 -0.35522461 0 0 0 0
0.01448822 0.054046631 -0.35522461 0 0 0 0
0.015625 0.054199219 -0.35620117 0 0 0 0
0.016738892 0.054199219 -0.35620117 0 0 0 0
0.01789856 0.054351807 -0.35717773 0 0 0 0
0.019012451 0.054351807 -0.35717773 0 0 0 0
0.020111084 0.054351807 -0.35717773 0 0 0 0
0.021286011 0.054504395 -0.35839844 0 0 0 0
0.022399902 0.054504395 -0.35839844 0 0 0 0
0.023513794 0.054504395 -0.35839844 0 0 0 0
0.024627686 0.054504395 -0.35839844 0 0 0 0
0.026535034 0.056182861 -0.36938477 0 0 0 0
0.027526855 0.055877686 -0.36743164 0 0 0 0
0.028594971 0.055725098 -0.36621094 0 0 0 0
0.029724121 0.055725098 -0.36621094 0 0 0 0
0.03086853 0.055725098 -0.36621094 0 0 0 0
0.032012939 0.055725098 -0.36621094 0 0 0 0
0.03314209 0.055725098 -0.36621094 0 0 0 0
0.03427124 0.055725098 -0.36621094 0 0 0 0
0.035430908 0.055725098 -0.36621094 0 0 0 0
0.036651611 0.055877686 -0.36743164 0 0 0 0
0.037811279 0.055877686 -0.36743164 0 0 0 0
0.03894043 0.055877686 -0.36743164 0 0 0 0
0.088256836 0.060760498 -0.39941406 0 0 0 0
0.089294434 0.06060791 -0.3984375 0 0 0 0
0.090270996 0.060455322 -0.39746094 0 0 0 0
0.091491699 0.060455322 -0.39746094 0 0 0 0
0.092529297 0.060302734 -0.39648438 0 0 0 0
0.09375 0.060302734 -0.39648438 0 0 0 0
0.094970703 0.060302734 -0.39648438 0 0 0 0
0.096435547 0.060455322 -0.39746094 0 0 0 0
0.097717285 0.060455322 -0.39746094 0 0 0 0
0.099182129 0.06060791 -0.3984375 0 0 0 0
0.10064697 0.060760498 -0.39941406 0 0 0 0
0.13696289 0.057250977 -0.37646484 0 0 0 0
0.13806152 0.057250977 -0.37646484 0 0 0 0
0.13891602 0.057098389 -0.37524414 0 0 0 0
0.14001465 0.057098389 -0.37524414 0 0 0 0
-0.087768555 0.056243896 -0.37744141 0 0 0 0
-0.086364746 0.056091309 -0.37646484 0 0 0 0
-0.084960938 0.055938721 -0.37524414 0 0 0 0
-0.08380127 0.055938721 -0.37524414 0 0 0 0
-0.082397461 0.055786133 -0.37426758 0 0 0 0
-0.081237793 0.055786133 -0.37426758 0 0 0 0
-0.07989502 0.055633545 -0.37329102 0 0 0 0
-0.078735352 0.055633545 -0.37329102 0 0 0 0
-0.077575684 0.055633545 -0.37329102 0 0 0 0
-0.076599121 0.055786133 -0.37426758 0 0 0 0
-0.075439453 0.055786133 -0.37426758 0 0 0 0
-0.072509766 0.057128906 -0.38330078 0 0 0 0
-0.071289062 0.057128906 -0.38330078 0 0 0 0
-0.070129395 0.057128906 -0.38330078 0 0 0 0
-0.068725586 0.056976318 -0.38232422 0 0 0 0
-0.067565918 0.056976318 -0.38232422 0 0 0 0
-0.066223145 0.05682373 -0.38134766 0 0 0 0
-0.065002441 0.05682373 -0.38134766 0 0 0 0
-0.063659668 0.056671143 -0.38037109 0 0 0 0
-0.0625 0.056671143 -0.38037109 0 0 0 0
-0.061462402 0.05682373 -0.38134766 0 0 0 0
-0.060272217 0.05682373 -0.38134766 0 0 0 0
-0.059112549 0.05682373 -0.38134766 0 0 0 0
-0.057922363 0.05682373 -0.38134766 0 0 0 0
-0.056732178 0.05682373 -0.38134766 0 0 0 0
-0.055541992 0.05682373 -0.38134766 0 0 0 0
-0.054504395 0.056976318 -0.38232422 0 0 0 0
-0.053314209 0.056976318 -0.38232422 0 0 0 0
-0.052124023 0.056976318 -0.38232422 0 0 0 0
-0.051086426 0.057128906 -0.38330078 0 0 0 0
-0.049865723 0.057128906 -0.38330078 0 0 0 0
-0.048828125 0.057281494 -0.38427734 0 0 0 0
-0.047607422 0.057281494 -0.38427734 0 0 0 0
-0.046417236 0.057281494 -0.38427734 0 0 0 0
-0.045227051 0.057281494 -0.38427734 0 0 0 0
-0.02961731 0.054870605 -0.3684082 0 0 0 0
-0.028396606 0.054718018 -0.36743164 0 0 0 0
-0.027252197 0.054718018 -0.36743164 0 0 0 0
-0.026031494 0.054595947 -0.36621094 0 0 0 0
-0.024902344 0.054595947 -0.36621094 0 0 0 0
-0.023757935 0.054595947 -0.36621094 0 0 0 0
-0.02255249 0.054443359 -0.36523438 0 0 0 0
-0.02142334 0.054443359 -0.36523438 0 0 0 0
-0.020294189 0.054443359 -0.36523438 0 0 0 0
-0.019104004 0.054290771 -0.36425781 0 0 0 0
-0.017974854 0.054290771 -0.36425781 0 0 0 0
-0.016830444 0.054290771 -0.36425781 0 0 0 0
-0.015701294 0.054290771 -0.36425781 0 0 0 0
-0.014572144 0.054290771 -0.36425781 0 0 0 0
-0.013404846 0.054138184 -0.36328125 0 0 0 0
-0.012275696 0.054138184 -0.36328125 0 0 0 0
-0.011116028 0.053985596 -0.36230469 0 0 0 0
-0.0065803528 0.05368042 -0.36035156 0 0 0 0
0.0023365021 0.05279541 -0.35424805 0 0 0 0
0.0034370422 0.05279541 -0.35424805 0 0 0 0
0.004535675 0.05279541 -0.35424805 0 0 0 0
0.0056381226 0.05279541 -0.35424805 0 0 0 0
0.0067405701 0.05279541 -0.35424805 0 0 0 0
0.0078353882 0.05279541 -0.35424805 0 0 0 0
0.0089416504 0.05279541 -0.35424805 0 0 0 0
0.010040283 0.05279541 -0.35424805 0 0 0 0
0.011138916 0.05279541 -0.35424805 0 0 0 0
0.012245178 0.05279541 -0.35424805 0 0 0 0
0.013381958 0.052947998 -0.35522461 0 0 0 0
0.01448822 0.052947998 -0.35522461 0 0 0 0
0.015625 0.053100586 -0.35620117 0 0 0 0
0.016738892 0.053100586 -0.35620117 0 0 0 0
0.01789856 0.053222656 -0.35717773 0 0 0 0
0.019012451 0.053222656 -0.35717773 0 0 0 0
0.020172119 0.053375244 -0.35839844 0 0 0 0
0.021286011 0.053375244 -0.35839844 0 0 0 0
0.022399902 0.053375244 -0.35839844 0 0 0 0
0.023513794 0.053375244 -0.35839844 0 0 0 0
0.025527954 0.055328369 -0.37133789 0 0 0 0
0.026611328 0.055175781 -0.37036133 0 0 0 0
0.027603149 0.054870605 -0.3684082 0 0 0 0
0.028747559 0.054870605 -0.3684082 0 0 0 0
0.029891968 0.054870605 -0.3684082 0 0 0 0
0.030960083 0.054718018 -0.36743164 0 0 0 0
0.032073975 0.054718018 -0.36743164 0 0 0 0
0.033233643 0.054718018 -0.36743164 0 0 0 0
0.034362793 0.054718018 -0.36743164 0 0 0 0
0.035522461 0.054718018 -0.36743164 0 0 0 0
0.036743164 0.054870605 -0.3684082 0 0 0 0
0.037902832 0.054870605 -0.3684082 0 0 0 0
0.039031982 0.054870605 -0.3684082 0 0 0 0
0.046356201 0.058319092 -0.39135742 0 0 0 0
0.047576904 0.058319092 -0.39135742 0 0 0 0
0.048919678 0.05847168 -0.39233398 0 0 0 0
0.089477539 0.059509277 -0.39941406 0 0 0 0
0.090515137 0.059356689 -0.3984375 0 0 0 0
0.091491699 0.059234619 -0.39746094 0 0 0 0
0.092773438 0.059234619 -0.39746094 0 0 0 0
0.093994141 0.059234619 -0.39746094 0 0 0 0
0.095214844 0.059234619 -0.39746094 0 0 0 0
0.096435547 0.059234619 -0.39746094 0 0 0 0
0.097717285 0.059234619 -0.39746094 0 0 0 0
0.099182129 0.059356689 -0.3984375 0 0 0 0
0.10064697 0.059509277 -0.39941406 0 0 0 0
0.13696289 0.056091309 -0.37646484 0 0 0 0
0.13769531 0.055938721 -0.37524414 0 0 0 0
0.13891602 0.055938721 -0.37524414 0 0 0 0
0.14001465 0.055938721 -0.37524414 0 0 0 0
0.14086914 0.055786133 -0.37426758 0 0 0 0
-0.087768555 0.055053711 -0.37744141 0 0 0 0
-0.086364746 0.054901123 -0.37646484 0 0 0 0
-0.085205078 0.054901123 -0.37646484 0 0 0 0
-0.08380127 0.054748535 -0.37524414 0 0 0 0
-0.082641602 0.054748535 -0.37524414 0 0 0 0
-0.081481934 0.054748535 -0.37524414 0 0 0 0
-0.080078125 0.054626465 -0.37426758 0 0 0 0
-0.078918457 0.054626465 -0.37426758 0 0 0 0
-0.077758789 0.054626465 -0.37426758 0 0 0 0
-0.076843262 0.054748535 -0.37524414 0 0 0 0
-0.075622559 0.054748535 -0.37524414 0 0 0 0
-0.072692871 0.056091309 -0.38427734 0 0 0 0
-0.071289062 0.055938721 -0.38330078 0 0 0 0
-0.070129395 0.055938721 -0.38330078 0 0 0 0
-0.068725586 0.055786133 -0.38232422 0 0 0 0
-0.067382812 0.055633545 -0.38134766 0 0 0 0
-0.066223145 0.055633545 -0.38134766 0 0 0 0
-0.065002441 0.055633545 -0.38134766 0 0 0 0
-0.063659668 0.055480957 -0.38037109 0 0 0 0
-0.0625 0.055480957 -0.38037109 0 0 0 0
-0.061309814 0.055480957 -0.38037109 0 0 0 0
-0.060119629 0.055480957 -0.38037109 0 0 0 0
-0.059112549 0.055633545 -0.38134766 0 0 0 0
-0.057922363 0.055633545 -0.38134766 0 0 0 0
-0.056732178 0.055633545 -0.38134766 0 0 0 0
-0.055541992 0.055633545 -0.38134766 0 0 0 0
-0.054351807 0.055633545 -0.38134766 0 0 0 0
-0.053314209 0.055786133 -0.38232422 0 0 0 0
-0.052124023 0.055786133 -0.38232422 0 0 0 0
-0.051086426 0.055938721 -0.38330078 0 0 0 0
-0.049865723 0.055938721 -0.38330078 0 0 0 0
-0.048828125 0.056091309 -0.38427734 0 0 0 0
-0.047607422 0.056091309 -0.38427734 0 0 0 0
-0.046417236 0.056091309 -0.38427734 0 0 0 0
-0.045227051 0.056091309 -0.38427734 0 0 0 0
-0.030761719 0.053741455 -0.3684082 0 0 0 0
-0.02961731 0.053741455 -0.3684082 0 0 0 0
-0.028396606 0.053588867 -0.36743164 0 0 0 0
-0.027175903 0.053436279 -0.36621094 0 0 0 0
-0.026031494 0.053436279 -0.36621094 0 0 0 0
-0.024902344 0.053436279 -0.36621094 0 0 0 0
-0.023696899 0.053283691 -0.36523438 0 0 0 0
-0.02255249 0.053283691 -0.36523438 0 0 0 0
-0.021362305 0.053161621 -0.36425781 0 0 0 0
-0.020233154 0.053161621 -0.36425781 0 0 0 0
-0.019104004 0.053161621 -0.36425781 0 0 0 0
-0.017913818 0.053009033 -0.36328125 0 0 0 0
-0.016738892 0.052856445 -0.36230469 0 0 0 0
-0.015533447 0.05255127 -0.36035156 0 0 0 0
-0.014411926 0.05255127 -0.36035156 0 0 0 0
-0.011116028 0.052856445 -0.36230469 0 0 0 0
-0.0088195801 0.05255127 -0.36035156 0 0 0 0
-0.0076980591 0.05255127 -0.36035156 0 0 0 0
-0.0065803528 0.05255127 -0.36035156 0 0 0 0
0.0012359619 0.051696777 -0.35424805 0 0 0 0
0.0023288727 0.051544189 -0.35327148 0 0 0 0
0.0034275055 0.051544189 -0.35327148 0 0 0 0
0.004524231 0.051544189 -0.35327148 0 0 0 0
0.0056228638 0.051544189 -0.35327148 0 0 0 0
0.0067214966 0.051544189 -0.35327148 0 0 0 0
0.0078201294 0.051544189 -0.35327148 0 0 0 0
0.0089111328 0.051544189 -0.35327148 0 0 0 0
0.010040283 0.051696777 -0.35424805 0 0 0 0
0.011138916 0.051696777 -0.35424805 0 0 0 0
0.012245178 0.051696777 -0.35424805 0 0 0 0
0.013381958 0.051818848 -0.35522461 0 0 0 0
0.01448822 0.051818848 -0.35522461 0 0 0 0
0.015625 0.051971436 -0.35620117 0 0 0 0
0.016738892 0.051971436 -0.35620117 0 0 0 0
0.01789856 0.052124023 -0.35717773 0 0 0 0
0.019012451 0.052124023 -0.35717773 0 0 0 0
0.020172119 0.052276611 -0.35839844 0 0 0 0
0.021286011 0.052276611 -0.35839844 0 0 0 0
0.022399902 0.052276611 -0.35839844 0 0 0 0
0.023513794 0.052276611 -0.35839844 0 0 0 0
0.025588989 0.054321289 -0.37231445 0 0 0 0
0.026672363 0.054168701 -0.37133789 0 0 0 0
0.027755737 0.054016113 -0.37036133 0 0 0 0
0.028823853 0.053894043 -0.36938477 0 0 0 0
0.029983521 0.053894043 -0.36938477 0 0 0 0
0.03112793 0.053894043 -0.36938477 0 0 0 0
0.03225708 0.053894043 -0.36938477 0 0 0 0
0.033325195 0.053741455 -0.3684082 0 0 0 0
0.034545898 0.053894043 -0.36938477 0 0 0 0
0.035705566 0.053894043 -0.36938477 0 0 0 0
0.036865234 0.053894043 -0.36938477 0 0 0 0
0.037994385 0.053894043 -0.36938477 0 0 0 0
0.039154053 0.053894043 -0.36938477 0 0 0 0
0.045135498 0.057098389 -0.39135742 0 0 0 0
0.046356201 0.057098389 -0.39135742 0 0 0 0
0.047698975 0.057250977 -0.39233398 0 0 0 0
0.048919678 0.057250977 -0.39233398 0 0 0 0
0.050140381 0.057250977 -0.39233398 0 0 0 0
0.051483154 0.057403564 -0.39331055 0 0 0 0
0.089477539 0.058288574 -0.39941406 0 0 0 0
0.090515137 0.058135986 -0.3984375 0 0 0 0
0.09173584 0.058135986 -0.3984375 0 0 0 0
0.092773438 0.057983398 -0.39746094 0 0 0 0
0.093994141 0.057983398 -0.39746094 0 0 0 0
0.095214844 0.057983398 -0.39746094 0 0 0 0
0.096435547 0.057983398 -0.39746094 0 0 0 0
0.097717285 0.057983398 -0.39746094 0 0 0 0
0.099182129 0.058135986 -0.3984375 0 0 0 0
0.10064697 0.058288574 -0.39941406 0 0 0 0
0.11950684 0.053894043 -0.36938477 0 0 0 0
0.12030029 0.053741455 -0.3684082 0 0 0 0
0.12176514 0.053894043 -0.36938477 0 0 0 0
0.1229248 0.053894043 -0.36938477 0 0 0 0
0.1361084 0.055053711 -0.37744141 0 0 0 0
0.13696289 0.054901123 -0.37646484 0 0 0 0
0.13769531 0.054748535 -0.37524414 0 0 0 0
0.13891602 0.054748535 -0.37524414 0 0 0 0
0.13964844 0.054626465 -0.37426758 0 0 0 0
0.14086914 0.054626465 -0.37426758 0 0 0 0
0.14160156 0.054473877 -0.37329102 0 0 0 0
-0.086608887 0.053894043 -0.37744141 0 0 0 0
-0.085205078 0.053741455 -0.37646484 0 0 0 0
-0.08404541 0.053741455 -0.37646484 0 0 0 0
-0.082885742 0.053741455 -0.37646484 0 0 0 0
-0.081726074 0.053741455 -0.37646484 0 0 0 0
-0.080505371 0.053741455 -0.37646484 0 0 0 0
-0.079162598 0.053588867 -0.37524414 0 0 0 0
-0.078186035 0.053741455 -0.37646484 0 0 0 0
-0.077026367 0.053741455 -0.37646484 0 0 0 0
-0.075866699 0.053741455 -0.37646484 0 0 0 0
-0.075073242 0.054901123 -0.38427734 0 0 0 0
-0.073913574 0.054901123 -0.38427734 0 0 0 0
-0.072692871 0.054901123 -0.38427734 0 0 0 0
-0.071289062 0.054748535 -0.38330078 0 0 0 0
-0.070129395 0.054748535 -0.38330078 0 0 0 0
-0.068725586 0.054595947 -0.38232422 0 0 0 0
-0.067565918 0.054595947 -0.38232422 0 0 0 0
-0.066223145 0.054443359 -0.38134766 0 0 0 0
-0.065002441 0.054443359 -0.38134766 0 0 0 0
-0.063659668 0.054321289 -0.38037109 0 0 0 0
-0.0625 0.054321289 -0.38037109 0 0 0 0
-0.061309814 0.054321289 -0.38037109 0 0 0 0
-0.060119629 0.054321289 -0.38037109 0 0 0 0
-0.058959961 0.054321289 -0.38037109 0 0 0 0
-0.057922363 0.054443359 -0.38134766 0 0 0 0
-0.056732178 0.054443359 -0.38134766 0 0 0 0
-0.055541992 0.054443359 -0.38134766 0 0 0 0
-0.054351807 0.054443359 -0.38134766 0 0 0 0
-0.053314209 0.054595947 -0.38232422 0 0 0 0
-0.052124023 0.054595947 -0.38232422 0 0 0 0
-0.050933838 0.054595947 -0.38232422 0 0 0 0
-0.049865723 0.054748535 -0.38330078 0 0 0 0
-0.048675537 0.054748535 -0.38330078 0 0 0 0
-0.047607422 0.054901123 -0.38427734 0 0 0 0
-0.046417236 0.054901123 -0.38427734 0 0 0 0
-0.045227051 0.054901123 -0.38427734 0 0 0 0
-0.031982422 0.052734375 -0.36938477 0 0 0 0
-0.030761719 0.052581787 -0.3684082 0 0 0 0
-0.02961731 0.052581787 -0.3684082 0 0 0 0
-0.028396606 0.052459717 -0.36743164 0 0 0 0
-0.027175903 0.052307129 -0.36621094 0 0 0 0
-0.026031494 0.052307129 -0.36621094 0 0 0 0
-0.02482605 0.052154541 -0.36523438 0 0 0 0
-0.023635864 0.052032471 -0.36425781 0 0 0 0
-0.022491455 0.052032471 -0.36425781 0 0 0 0
-0.02130127 0.051879883 -0.36328125 0 0 0 0
-0.020126343 0.051727295 -0.36230469 0 0 0 0
-0.018997192 0.051727295 -0.36230469 0 0 0 0
-0.017822266 0.051574707 -0.36132812 0 0 0 0
-0.016647339 0.051452637 -0.36035156 0 0 0 0
-0.015533447 0.051452637 -0.36035156 0 0 0 0
-0.014411926 0.051452637 -0.36035156 0 0 0 0
-0.013298035 0.051452637 -0.36035156 0 0 0 0
-0.012207031 0.051574707 -0.36132812 0 0 0 0
-0.011116028 0.051727295 -0.36230469 0 0 0 0
-0.0099639893 0.051574707 -0.36132812 0 0 0 0
0.00013446808 0.050292969 -0.35229492 0 0 0 0
0.0012292862 0.050292969 -0.35229492 0 0 0 0
0.0023231506 0.050292969 -0.35229492 0 0 0 0
0.0034275055 0.050445557 -0.35327148 0 0 0 0
0.004524231 0.050445557 -0.35327148 0 0 0 0
0.0056228638 0.050445557 -0.35327148 0 0 0 0
0.0067214966 0.050445557 -0.35327148 0 0 0 0
0.0078201294 0.050445557 -0.35327148 0 0 0 0
0.0089111328 0.050445557 -0.35327148 0 0 0 0
0.010040283 0.050598145 -0.35424805 0 0 0 0
0.011138916 0.050598145 -0.35424805 0 0 0 0
0.012245178 0.050598145 -0.35424805 0 0 0 0
0.013381958 0.050720215 -0.35522461 0 0 0 0
0.01448822 0.050720215 -0.35522461 0 0 0 0
0.015625 0.050872803 -0.35620117 0 0 0 0
0.016784668 0.051025391 -0.35717773 0 0 0 0
0.01789856 0.051025391 -0.35717773 0 0 0 0
0.019058228 0.051147461 -0.35839844 0 0 0 0
0.020172119 0.051147461 -0.35839844 0 0 0 0
0.021286011 0.051147461 -0.35839844 0 0 0 0
0.022399902 0.051147461 -0.35839844 0 0 0 0
0.024505615 0.053314209 -0.37329102 0 0 0 0
0.025588989 0.053161621 -0.37231445 0 0 0 0
0.026748657 0.053161621 -0.37231445 0 0 0 0
0.027832031 0.053009033 -0.37133789 0 0 0 0
0.028991699 0.053009033 -0.37133789 0 0 0 0
0.030059814 0.052886963 -0.37036133 0 0 0 0
0.031204224 0.052886963 -0.37036133 0 0 0 0
0.032348633 0.052886963 -0.37036133 0 0 0 0
0.033508301 0.052886963 -0.37036133 0 0 0 0
0.034667969 0.052886963 -0.37036133 0 0 0 0
0.035797119 0.052886963 -0.37036133 0 0 0 0
0.036956787 0.052886963 -0.37036133 0 0 0 0
0.038116455 0.052886963 -0.37036133 0 0 0 0
0.039154053 0.052734375 -0.36938477 0 0 0 0
0.044036865 0.056030273 -0.39233398 0 0 0 0
0.045135498 0.055877686 -0.39135742 0 0 0 0
0.046478271 0.056030273 -0.39233398 0 0 0 0
0.047698975 0.056030273 -0.39233398 0 0 0 0
0.048919678 0.056030273 -0.39233398 0 0 0 0
0.050140381 0.056030273 -0.39233398 0 0 0 0
0.051483154 0.056182861 -0.39331055 0 0 0 0
0.090759277 0.057037354 -0.39941406 0 0 0 0
0.09173584 0.056884766 -0.3984375 0 0 0 0
0.093017578 0.056884766 -0.3984375 0 0 0 0
0.093994141 0.056762695 -0.39746094 0 0 0 0
0.095214844 0.056762695 -0.39746094 0 0 0 0
0.096435547 0.056762695 -0.39746094 0 0 0 0
0.097961426 0.056884766 -0.3984375 0 0 0 0
0.099182129 0.056884766 -0.3984375 0 0 0 0
0.10064697 0.057037354 -0.39941406 0 0 0 0
0.11779785 0.053009033 -0.37133789 0 0 0 0
0.11865234 0.052886963 -0.37036133 0 0 0 0
0.11950684 0.052734375 -0.36938477 0 0 0 0
0.12030029 0.052581787 -0.3684082 0 0 0 0
0.12145996 0.052581787 -0.3684082 0 0 0 0
0.12261963 0.052581787 -0.3684082 0 0 0 0
0.12371826 0.052581787 -0.3684082 0 0 0 0
0.12487793 0.052581787 -0.3684082 0 0 0 0
0.13574219 0.053741455 -0.37646484 0 0 0 0
0.13696289 0.053741455 -0.37646484 0 0 0 0
0.13769531 0.053588867 -0.37524414 0 0 0 0
0.13891602 0.053588867 -0.37524414 0 0 0 0
0.13964844 0.053466797 -0.37426758 0 0 0 0
0.14050293 0.053314209 -0.37329102 0 0 0 0
0.14160156 0.053314209 -0.37329102 0 0 0 0
0.14245605 0.053161621 -0.37231445 0 0 0 0
0.14318848 0.053009033 -0.37133789 0 0 0 0
-0.085449219 0.052703857 -0.37744141 0 0 0 0
-0.084289551 0.052703857 -0.37744141 0 0 0 0
-0.083068848 0.052703857 -0.37744141 0 0 0 0
-0.08190918 0.052703857 -0.37744141 0 0 0 0
-0.080749512 0.052703857 -0.37744141 0 0 0 0
-0.079589844 0.052703857 -0.37744141 0 0 0 0
-0.078369141 0.052703857 -0.37744141 0 0 0 0
-0.077209473 0.052703857 -0.37744141 0 0 0 0
-0.076049805 0.052703857 -0.37744141 0 0 0 0
-0.075500488 0.053131104 -0.38037109 0 0 0 0
-0.074890137 0.05355835 -0.38330078 0 0 0 0
-0.073913574 0.05368042 -0.38427734 0 0 0 0
-0.072509766 0.05355835 -0.38330078 0 0 0 0
-0.071289062 0.05355835 -0.38330078 0 0 0 0
-0.070129395 0.05355835 -0.38330078 0 0 0 0
-0.068725586 0.053405762 -0.38232422 0 0 0 0
-0.067565918 0.053405762 -0.38232422 0 0 0 0
-0.066223145 0.053283691 -0.38134766 0 0 0 0
-0.065002441 0.053283691 -0.38134766 0 0 0 0
-0.063659668 0.053131104 -0.38037109 0 0 0 0
-0.0625 0.053131104 -0.38037109 0 0 0 0
-0.061309814 0.053131104 -0.38037109 0 0 0 0
-0.060119629 0.053131104 -0.38037109 0 0 0 0
-0.058959961 0.053131104 -0.38037109 0 0 0 0
-0.057769775 0.053131104 -0.38037109 0 0 0 0
-0.05657959 0.053131104 -0.38037109 0 0 0 0
-0.055541992 0.053283691 -0.38134766 0 0 0 0
-0.054351807 0.053283691 -0.38134766 0 0 0 0
-0.053161621 0.053283691 -0.38134766 0 0 0 0
-0.052124023 0.053405762 -0.38232422 0 0 0 0
-0.050933838 0.053405762 -0.38232422 0 0 0 0
-0.049865723 0.05355835 -0.38330078 0 0 0 0
-0.048675537 0.05355835 -0.38330078 0 0 0 0
-0.047607422 0.05368042 -0.38427734 0 0 0 0
-0.046417236 0.05368042 -0.38427734 0 0 0 0
-0.045227051 0.05368042 -0.38427734 0 0 0 0
-0.03314209 0.051574707 -0.36938477 0 0 0 0
-0.031982422 0.051574707 -0.36938477 0 0 0 0
-0.030761719 0.051452637 -0.3684082 0 0 0 0
-0.029525757 0.051300049 -0.36743164 0 0 0 0
-0.028396606 0.051300049 -0.36743164 0 0 0 0
-0.027175903 0.051177979 -0.36621094 0 0 0 0
-0.025970459 0.051025391 -0.36523438 0 0 0 0
-0.02482605 0.051025391 -0.36523438 0 0 0 0
-0.023635864 0.050872803 -0.36425781 0 0 0 0
-0.02243042 0.050750732 -0.36328125 0 0 0 0
-0.02130127 0.050750732 -0.36328125 0 0 0 0
-0.020126343 0.050598145 -0.36230469 0 0 0 0
-0.018936157 0.050476074 -0.36132812 0 0 0 0
-0.017822266 0.050476074 -0.36132812 0 0 0 0
-0.016647339 0.050323486 -0.36035156 0 0 0 0
-0.0154953 0.050201416 -0.359375 0 0 0 0
-0.014373779 0.050201416 -0.359375 0 0 0 0
-0.013298035 0.050323486 -0.36035156 0 0 0 0
-0.012176514 0.050323486 -0.36035156 0 0 0 0
-0.011146545 0.050750732 -0.36328125 0 0 0 0
-0.0099639893 0.050476074 -0.36132812 0 0 0 0
-0.0009598732 0.049194336 -0.35229492 0 0 0 0
0.00013411045 0.049072266 -0.35131836 0 0 0 0
0.0012254715 0.049072266 -0.35131836 0 0 0 0
0.0023231506 0.049194336 -0.35229492 0 0 0 0
0.0034179688 0.049194336 -0.35229492 0 0 0 0
0.004524231 0.049346924 -0.35327148 0 0 0 0
0.0056228638 0.049346924 -0.35327148 0 0 0 0
0.0067214966 0.049346924 -0.35327148 0 0 0 0
0.0078201294 0.049346924 -0.35327148 0 0 0 0
0.0089416504 0.049499512 -0.35424805 0 0 0 0
0.010040283 0.049499512 -0.35424805 0 0 0 0
0.011138916 0.049499512 -0.35424805 0 0 0 0
0.012245178 0.049499512 -0.35424805 0 0 0 0
0.013381958 0.049621582 -0.35522461 0 0 0 0
0.01448822 0.049621582 -0.35522461 0 0 0 0
0.015625 0.04977417 -0.35620117 0 0 0 0
0.016784668 0.04989624 -0.35717773 0 0 0 0
0.01789856 0.04989624 -0.35717773 0 0 0 0
0.019058228 0.050048828 -0.35839844 0 0 0 0
0.020172119 0.050048828 -0.35839844 0 0 0 0
0.021286011 0.050048828 -0.35839844 0 0 0 0
0.022460938 0.050201416 -0.359375 0 0 0 0
0.024505615 0.052154541 -0.37329102 0 0 0 0
0.025665283 0.052154541 -0.37329102 0 0 0 0
0.026748657 0.052001953 -0.37231445 0 0 0 0
0.027908325 0.052001953 -0.37231445 0 0 0 0
0.028991699 0.051879883 -0.37133789 0 0 0 0
0.030136108 0.051879883 -0.37133789 0 0 0 0
0.031280518 0.051879883 -0.37133789 0 0 0 0
0.032348633 0.051727295 -0.37036133 0 0 0 0
0.033508301 0.051727295 -0.37036133 0 0 0 0
0.034667969 0.051727295 -0.37036133 0 0 0 0
0.035797119 0.051727295 -0.37036133 0 0 0 0
0.036956787 0.051727295 -0.37036133 0 0 0 0
0.038116455 0.051727295 -0.37036133 0 0 0 0
0.044036865 0.05480957 -0.39233398 0 0 0 0
0.045257568 0.05480957 -0.39233398 0 0 0 0
0.046478271 0.05480957 -0.39233398 0 0 0 0
0.047698975 0.05480957 -0.39233398 0 0 0 0
0.048919678 0.05480957 -0.39233398 0 0 0 0
0.050140381 0.05480957 -0.39233398 0 0 0 0
0.051483154 0.054962158 -0.39331055 0 0 0 0
0.052703857 0.054962158 -0.39331055 0 0 0 0
0.09197998 0.055786133 -0.39941406 0 0 0 0
0.093017578 0.055664062 -0.3984375 0 0 0 0
0.094238281 0.055664062 -0.3984375 0 0 0 0
0.095214844 0.055511475 -0.39746094 0 0 0 0
0.096435547 0.055511475 -0.39746094 0 0 0 0
0.097961426 0.055664062 -0.3984375 0 0 0 0
0.099182129 0.055664062 -0.3984375 0 0 0 0
0.10064697 0.055786133 -0.39941406 0 0 0 0
0.11779785 0.051879883 -0.37133789 0 0 0 0
0.11865234 0.051727295 -0.37036133 0 0 0 0
0.11950684 0.051574707 -0.36938477 0 0 0 0
0.12030029 0.051452637 -0.3684082 0 0 0 0
0.12145996 0.051452637 -0.3684082 0 0 0 0
0.12261963 0.051452637 -0.3684082 0 0 0 0
0.12371826 0.051452637 -0.3684082 0 0 0 0
0.12487793 0.051452637 -0.3684082 0 0 0 0
0.12597656 0.051452637 -0.3684082 0 0 0 0
0.13574219 0.052581787 -0.37646484 0 0 0 0
0.13696289 0.052581787 -0.37646484 0 0 0 0
0.13769531 0.052429199 -0.37524414 0 0 0 0
0.1385498 0.052276611 -0.37426758 0 0 0 0
0.13964844 0.052276611 -0.37426758 0 0 0 0
0.14050293 0.052154541 -0.37329102 0 0 0 0
0.14123535 0.052001953 -0.37231445 0 0 0 0
0.14196777 0.051879883 -0.37133789 0 0 0 0
0.14318848 0.051879883 -0.37133789 0 0 0 0
-0.084289551 0.051544189 -0.37744141 0 0 0 0
-0.083312988 0.05166626 -0.37841797 0 0 0 0
-0.08215332 0.05166626 -0.37841797 0 0 0 0
-0.080932617 0.05166626 -0.37841797 0 0 0 0
-0.079772949 0.05166626 -0.37841797 0 0 0 0
-0.078613281 0.05166626 -0.37841797 0 0 0 0
-0.077453613 0.05166626 -0.37841797 0 0 0 0
-0.076477051 0.051818848 -0.37939453 0 0 0 0
-0.075683594 0.052093506 -0.38134766 0 0 0 0
-0.074890137 0.052368164 -0.38330078 0 0 0 0
-0.073669434 0.052368164 -0.38330078 0 0 0 0
-0.072509766 0.052368164 -0.38330078 0 0 0 0
-0.071289062 0.052368164 -0.38330078 0 0 0 0
-0.070129395 0.052368164 -0.38330078 0 0 0 0
-0.068725586 0.052215576 -0.38232422 0 0 0 0
-0.067565918 0.052215576 -0.38232422 0 0 0 0
-0.066223145 0.052093506 -0.38134766 0 0 0 0
-0.065002441 0.052093506 -0.38134766 0 0 0 0
-0.063659668 0.051940918 -0.38037109 0 0 0 0
-0.0625 0.051940918 -0.38037109 0 0 0 0
-0.061309814 0.051940918 -0.38037109 0 0 0 0
-0.060119629 0.051940918 -0.38037109 0 0 0 0
-0.058959961 0.051940918 -0.38037109 0 0 0 0
-0.057769775 0.051940918 -0.38037109 0 0 0 0
-0.05657959 0.051940918 -0.38037109 0 0 0 0
-0.055541992 0.052093506 -0.38134766 0 0 0 0
-0.054351807 0.052093506 -0.38134766 0 0 0 0
-0.053161621 0.052093506 -0.38134766 0 0 0 0
-0.052124023 0.052215576 -0.38232422 0 0 0 0
-0.050933838 0.052215576 -0.38232422 0 0 0 0
-0.049865723 0.052368164 -0.38330078 0 0 0 0
-0.048675537 0.052368164 -0.38330078 0 0 0 0
-0.047607422 0.052490234 -0.38427734 0 0 0 0
-0.046417236 0.052490234 -0.38427734 0 0 0 0
-0.045227051 0.052490234 -0.38427734 0 0 0 0
-0.03314209 0.050445557 -0.36938477 0 0 0 0
-0.031982422 0.050445557 -0.36938477 0 0 0 0
-0.030761719 0.050292969 -0.3684082 0 0 0 0
-0.029525757 0.050170898 -0.36743164 0 0 0 0
-0.028320312 0.050018311 -0.36621094 0 0 0 0
-0.027175903 0.050018311 -0.36621094 0 0 0 0
-0.025970459 0.04989624 -0.36523438 0 0 0 0
-0.024765015 0.049743652 -0.36425781 0 0 0 0
-0.02355957 0.049621582 -0.36328125 0 0 0 0
-0.02243042 0.049621582 -0.36328125 0 0 0 0
-0.021240234 0.049468994 -0.36230469 0 0 0 0
-0.020065308 0.049346924 -0.36132812 0 0 0 0
-0.018936157 0.049346924 -0.36132812 0 0 0 0
-0.017776489 0.049194336 -0.36035156 0 0 0 0
-0.016601562 0.049072266 -0.359375 0 0 0 0
-0.0154953 0.049072266 -0.359375 0 0 0 0
-0.014411926 0.049194336 -0.36035156 0 0 0 0
-0.013298035 0.049194336 -0.36035156 0 0 0 0
-0.012207031 0.049346924 -0.36132812 0 0 0 0
-0.0064125061 0.047973633 -0.35131836 0 0 0 0
-0.0053215027 0.047973633 -0.35131836 0 0 0 0
-0.0031394958 0.047973633 -0.35131836 0 0 0 0
-0.0020484924 0.047973633 -0.35131836 0 0 0 0
-0.00095748901 0.047973633 -0.35131836 0 0 0 0
0.00013411045 0.047973633 -0.35131836 0 0 0 0
0.0012254715 0.047973633 -0.35131836 0 0 0 0
0.0023231506 0.048095703 -0.35229492 0 0 0 0
0.0034179688 0.048095703 -0.35229492 0 0 0 0
0.0045127869 0.048095703 -0.35229492 0 0 0 0
0.0056228638 0.048248291 -0.35327148 0 0 0 0
0.0067214966 0.048248291 -0.35327148 0 0 0 0
0.0078201294 0.048248291 -0.35327148 0 0 0 0
0.0089416504 0.048370361 -0.35424805 0 0 0 0
0.010040283 0.048370361 -0.35424805 0 0 0 0
0.011138916 0.048370361 -0.35424805 0 0 0 0
0.012275696 0.048522949 -0.35522461 0 0 0 0
0.013381958 0.048522949 -0.35522461 0 0 0 0
0.014526367 0.04864502 -0.35620117 0 0 0 0
0.015625 0.04864502 -0.35620117 0 0 0 0
0.016784668 0.048797607 -0.35717773 0 0 0 0
0.01789856 0.048797607 -0.35717773 0 0 0 0
0.019058228 0.048919678 -0.35839844 0 0 0 0
0.020172119 0.048919678 -0.35839844 0 0 0 0
0.021347046 0.049072266 -0.359375 0 0 0 0
0.022460938 0.049072266 -0.359375 0 0 0 0
0.025665283 0.050994873 -0.37329102 0 0 0 0
0.026824951 0.050994873 -0.37329102 0 0 0 0
0.027908325 0.050842285 -0.37231445 0 0 0 0
0.029067993 0.050842285 -0.37231445 0 0 0 0
