ply
format ascii 1.0
comment PCL generated
element vertex 1091
property float x
property float y
property float z
property float nx
property float ny
property float nz
property float curvature
element face 0
element camera 0
property float view_px
property float view_py
property float view_pz
property float x_axisx
property float x_axisy
property float x_axisz
property float y_axisx
property float y_axisy
property float y_axisz
property float z_axisx
property float z_axisy
property float z_axisz
property float focal
property float scalex
property float scaley
property float centerx
property float centery
property int viewportx
property int viewporty
property float k1
property float k2
end_header
0.19165039 0.073913574 -0.32617188 0 0 0 0
0.19262695 0.073913574 -0.32617188 0 0 0 0
0.19372559 0.073913574 -0.32617188 0 0 0 0
0.1953125 0.074157715 -0.32714844 0 0 0 0
0.19628906 0.074157715 -0.32714844 0 0 0 0
0.19726562 0.074157715 -0.32714844 0 0 0 0
0.19897461 0.074401855 -0.328125 0 0 0 0
0.19995117 0.074401855 -0.328125 0 0 0 0
0.20092773 0.074401855 -0.328125 0 0 0 0
0.20263672 0.074584961 -0.32910156 0 0 0 0
0.20361328 0.074584961 -0.32910156 0 0 0 0
0.20471191 0.074584961 -0.32910156 0 0 0 0
0.20629883 0.074829102 -0.33007812 0 0 0 0
0.20739746 0.074829102 -0.33007812 0 0 0 0
0.20837402 0.074829102 -0.33007812 0 0 0 0
0.20935059 0.074829102 -0.33007812 0 0 0 0
0.21105957 0.075073242 -0.33105469 0 0 0 0
0.21203613 0.075073242 -0.33105469 0 0 0 0
0.21313477 0.075073242 -0.33105469 0 0 0 0
0.21411133 0.075073242 -0.33105469 0 0 0 0
0.21520996 0.075073242 -0.33105469 0 0 0 0
-0.019256592 0.082092285 -0.36743164 0 0 0 0
-0.018112183 0.082092285 -0.36743164 0 0 0 0
-0.016983032 0.082092285 -0.36743164 0 0 0 0
-0.015838623 0.082092285 -0.36743164 0 0 0 0
-0.014656067 0.08190918 -0.36621094 0 0 0 0
-0.013519287 0.08190918 -0.36621094 0 0 0 0
-0.01234436 0.081665039 -0.36523438 0 0 0 0
-0.011207581 0.081665039 -0.36523438 0 0 0 0
-0.010047913 0.081420898 -0.36425781 0 0 0 0
-0.0089111328 0.081420898 -0.36425781 0 0 0 0
-0.0077629089 0.081237793 -0.36328125 0 0 0 0
-0.0066337585 0.081237793 -0.36328125 0 0 0 0
-0.0055198669 0.081420898 -0.36425781 0 0 0 0
-0.0044250488 0.082092285 -0.36743164 0 0 0 0
-0.0033111572 0.082763672 -0.37036133 0 0 0 0
-0.0021591187 0.082763672 -0.37036133 0 0 0 0
-0.0010089874 0.082763672 -0.37036133 0 0 0 0
0.00014138222 0.082763672 -0.37036133 0 0 0 0
0.0012922287 0.082763672 -0.37036133 0 0 0 0
0.0024414062 0.082763672 -0.37036133 0 0 0 0
0.0035934448 0.082763672 -0.37036133 0 0 0 0
0.0047416687 0.082763672 -0.37036133 0 0 0 0
0.0058937073 0.082763672 -0.37036133 0 0 0 0
0.0070457458 0.082763672 -0.37036133 0 0 0 0
0.0081939697 0.082763672 -0.37036133 0 0 0 0
0.0093460083 0.082763672 -0.37036133 0 0 0 0
0.010498047 0.082763672 -0.37036133 0 0 0 0
0.011650085 0.082763672 -0.37036133 0 0 0 0
0.012794495 0.082763672 -0.37036133 0 0 0 0
0.013946533 0.082763672 -0.37036133 0 0 0 0
0.015098572 0.082763672 -0.37036133 0 0 0 0
0.01625061 0.082763672 -0.37036133 0 0 0 0
0.01739502 0.082763672 -0.37036133 0 0 0 0
0.018554688 0.082763672 -0.37036133 0 0 0 0
0.019699097 0.082763672 -0.37036133 0 0 0 0
0.020843506 0.082763672 -0.37036133 0 0 0 0
0.022003174 0.082763672 -0.37036133 0 0 0 0
0.023147583 0.082763672 -0.37036133 0 0 0 0
0.024230957 0.082580566 -0.36938477 0 0 0 0
0.025390625 0.082580566 -0.36938477 0 0 0 0
0.026535034 0.082580566 -0.36938477 0 0 0 0
0.027679443 0.082580566 -0.36938477 0 0 0 0
0.028823853 0.082580566 -0.36938477 0 0 0 0
0.030059814 0.082763672 -0.37036133 0 0 0 0
0.031204224 0.082763672 -0.37036133 0 0 0 0
0.032531738 0.083251953 -0.37231445 0 0 0 0
0.033782959 0.083435059 -0.37329102 0 0 0 0
0.03503418 0.083679199 -0.37426758 0 0 0 0
0.036193848 0.083679199 -0.37426758 0 0 0 0
0.037445068 0.08392334 -0.37524414 0 0 0 0
0.038635254 0.08392334 -0.37524414 0 0 0 0
0.039672852 0.083679199 -0.37426758 0 0 0 0
0.04083252 0.083679199 -0.37426758 0 0 0 0
0.042022705 0.083679199 -0.37426758 0 0 0 0
0.043060303 0.083435059 -0.37329102 0 0 0 0
0.044219971 0.083435059 -0.37329102 0 0 0 0
0.045257568 0.083251953 -0.37231445 0 0 0 0
0.046417236 0.083251953 -0.37231445 0 0 0 0
0.047576904 0.083251953 -0.37231445 0 0 0 0
0.048736572 0.083251953 -0.37231445 0 0 0 0
0.04989624 0.083251953 -0.37231445 0 0 0 0
0.051055908 0.083251953 -0.37231445 0 0 0 0
0.052185059 0.083251953 -0.37231445 0 0 0 0
0.053497314 0.083435059 -0.37329102 0 0 0 0
0.054656982 0.083435059 -0.37329102 0 0 0 0
0.05581665 0.083435059 -0.37329102 0 0 0 0
0.056976318 0.083435059 -0.37329102 0 0 0 0
0.058288574 0.083679199 -0.37426758 0 0 0 0
0.059448242 0.083679199 -0.37426758 0 0 0 0
0.060333252 0.078735352 -0.35229492 0 0 0 0
0.061248779 0.078552246 -0.35131836 0 0 0 0
0.062347412 0.078552246 -0.35131836 0 0 0 0
0.063415527 0.078552246 -0.35131836 0 0 0 0
0.06451416 0.078552246 -0.35131836 0 0 0 0
0.065429688 0.078308105 -0.3503418 0 0 0 0
0.06652832 0.078308105 -0.3503418 0 0 0 0
0.067565918 0.078308105 -0.3503418 0 0 0 0
0.068664551 0.078308105 -0.3503418 0 0 0 0
0.069946289 0.078552246 -0.35131836 0 0 0 0
0.071289062 0.078735352 -0.35229492 0 0 0 0
0.072143555 0.078552246 -0.35131836 0 0 0 0
0.073242188 0.078552246 -0.35131836 0 0 0 0
0.076049805 0.080322266 -0.359375 0 0 0 0
0.077392578 0.080566406 -0.36035156 0 0 0 0
0.078735352 0.080749512 -0.36132812 0 0 0 0
0.079833984 0.080749512 -0.36132812 0 0 0 0
0.081176758 0.080993652 -0.36230469 0 0 0 0
0.082519531 0.081237793 -0.36328125 0 0 0 0
0.087585449 0.08392334 -0.37524414 0 0 0 0
0.088989258 0.084106445 -0.37646484 0 0 0 0
0.090148926 0.084106445 -0.37646484 0 0 0 0
0.091369629 0.084106445 -0.37646484 0 0 0 0
0.092529297 0.084106445 -0.37646484 0 0 0 0
0.093933105 0.084350586 -0.37744141 0 0 0 0
0.095092773 0.084350586 -0.37744141 0 0 0 0
0.096252441 0.084350586 -0.37744141 0 0 0 0
0.097717285 0.084594727 -0.37841797 0 0 0 0
0.098876953 0.084594727 -0.37841797 0 0 0 0
0.10003662 0.084594727 -0.37841797 0 0 0 0
0.10125732 0.084594727 -0.37841797 0 0 0 0
0.10217285 0.084350586 -0.37744141 0 0 0 0
0.10333252 0.084350586 -0.37744141 0 0 0 0
0.10418701 0.084106445 -0.37646484 0 0 0 0
0.10540771 0.084106445 -0.37646484 0 0 0 0
0.10626221 0.08392334 -0.37524414 0 0 0 0
0.10742188 0.08392334 -0.37524414 0 0 0 0
0.1083374 0.083679199 -0.37426758 0 0 0 0
0.10919189 0.083435059 -0.37329102 0 0 0 0
0.11035156 0.083435059 -0.37329102 0 0 0 0
0.11151123 0.083435059 -0.37329102 0 0 0 0
0.11236572 0.083251953 -0.37231445 0 0 0 0
0.11352539 0.083251953 -0.37231445 0 0 0 0
0.11468506 0.083251953 -0.37231445 0 0 0 0
0.11584473 0.083251953 -0.37231445 0 0 0 0
0.11700439 0.083251953 -0.37231445 0 0 0 0
0.11816406 0.083251953 -0.37231445 0 0 0 0
0.11932373 0.083251953 -0.37231445 0 0 0 0
0.1204834 0.083251953 -0.37231445 0 0 0 0
0.12164307 0.083251953 -0.37231445 0 0 0 0
0.12243652 0.083007812 -0.37133789 0 0 0 0
0.12359619 0.083007812 -0.37133789 0 0 0 0
0.12475586 0.083007812 -0.37133789 0 0 0 0
0.12585449 0.083007812 -0.37133789 0 0 0 0
0.1270752 0.083007812 -0.37133789 0 0 0 0
0.12780762 0.082763672 -0.37036133 0 0 0 0
0.12902832 0.082763672 -0.37036133 0 0 0 0
0.13012695 0.082763672 -0.37036133 0 0 0 0
0.13098145 0.082580566 -0.36938477 0 0 0 0
0.13208008 0.082580566 -0.36938477 0 0 0 0
0.1328125 0.082336426 -0.3684082 0 0 0 0
0.1340332 0.082336426 -0.3684082 0 0 0 0
0.13476562 0.082092285 -0.36743164 0 0 0 0
0.13586426 0.082092285 -0.36743164 0 0 0 0
0.13671875 0.08190918 -0.36621094 0 0 0 0
0.13781738 0.08190918 -0.36621094 0 0 0 0
0.13891602 0.08190918 -0.36621094 0 0 0 0
0.13977051 0.081665039 -0.36523438 0 0 0 0
0.14086914 0.081665039 -0.36523438 0 0 0 0
0.14160156 0.081420898 -0.36425781 0 0 0 0
0.1427002 0.081420898 -0.36425781 0 0 0 0
0.1439209 0.081420898 -0.36425781 0 0 0 0
0.14465332 0.081237793 -0.36328125 0 0 0 0
0.14575195 0.081237793 -0.36328125 0 0 0 0
0.14685059 0.081237793 -0.36328125 0 0 0 0
0.1484375 0.081420898 -0.36425781 0 0 0 0
0.14526367 0.078552246 -0.35131836 0 0 0 0
0.14672852 0.078735352 -0.35229492 0 0 0 0
0.14782715 0.078735352 -0.35229492 0 0 0 0
0.14892578 0.078735352 -0.35229492 0 0 0 0
0.14916992 0.078308105 -0.3503418 0 0 0 0
0.14990234 0.078063965 -0.34912109 0 0 0 0
0.1505127 0.077880859 -0.34814453 0 0 0 0
0.15112305 0.077636719 -0.34716797 0 0 0 0
0.15185547 0.077392578 -0.34619141 0 0 0 0
0.15246582 0.077148438 -0.34521484 0 0 0 0
0.15307617 0.076965332 -0.34423828 0 0 0 0
0.15368652 0.076721191 -0.34326172 0 0 0 0
0.15429688 0.076477051 -0.34228516 0 0 0 0
0.15490723 0.076293945 -0.34130859 0 0 0 0
0.15551758 0.076049805 -0.34008789 0 0 0 0
0.15612793 0.075805664 -0.33911133 0 0 0 0
0.15673828 0.075622559 -0.33813477 0 0 0 0
0.15722656 0.075378418 -0.3371582 0 0 0 0
0.15734863 0.074951172 -0.33520508 0 0 0 0
0.15795898 0.074707031 -0.33422852 0 0 0 0
0.15844727 0.074462891 -0.33325195 0 0 0 0
0.1595459 0.074462891 -0.33325195 0 0 0 0
0.16003418 0.074279785 -0.33227539 0 0 0 0
0.16064453 0.074035645 -0.33105469 0 0 0 0
0.16113281 0.073791504 -0.33007812 0 0 0 0
0.16174316 0.073608398 -0.32910156 0 0 0 0
0.16223145 0.073364258 -0.328125 0 0 0 0
0.16271973 0.073120117 -0.32714844 0 0 0 0
0.16320801 0.072937012 -0.32617188 0 0 0 0
0.16430664 0.072937012 -0.32617188 0 0 0 0
0.16479492 0.072692871 -0.32519531 0 0 0 0
0.16577148 0.072692871 -0.32519531 0 0 0 0
0.16625977 0.07244873 -0.32421875 0 0 0 0
0.1673584 0.07244873 -0.32421875 0 0 0 0
0.16833496 0.07244873 -0.32421875 0 0 0 0
0.16931152 0.07244873 -0.32421875 0 0 0 0
0.1697998 0.072265625 -0.32324219 0 0 0 0
0.17077637 0.072265625 -0.32324219 0 0 0 0
0.17175293 0.072265625 -0.32324219 0 0 0 0
0.17285156 0.072265625 -0.32324219 0 0 0 0
0.17382812 0.072265625 -0.32324219 0 0 0 0
0.17480469 0.072265625 -0.32324219 0 0 0 0
0.17578125 0.072265625 -0.32324219 0 0 0 0
0.17687988 0.072265625 -0.32324219 0 0 0 0
0.17785645 0.072265625 -0.32324219 0 0 0 0
0.17944336 0.07244873 -0.32421875 0 0 0 0
0.18041992 0.07244873 -0.32421875 0 0 0 0
0.18139648 0.07244873 -0.32421875 0 0 0 0
0.18237305 0.07244873 -0.32421875 0 0 0 0
0.18347168 0.07244873 -0.32421875 0 0 0 0
0.18493652 0.072692871 -0.32519531 0 0 0 0
0.18603516 0.072692871 -0.32519531 0 0 0 0
0.18701172 0.072692871 -0.32519531 0 0 0 0
0.18798828 0.072692871 -0.32519531 0 0 0 0
0.18908691 0.072692871 -0.32519531 0 0 0 0
0.19067383 0.072937012 -0.32617188 0 0 0 0
0.19165039 0.072937012 -0.32617188 0 0 0 0
0.19262695 0.072937012 -0.32617188 0 0 0 0
0.19421387 0.073120117 -0.32714844 0 0 0 0
0.1953125 0.073120117 -0.32714844 0 0 0 0
0.19628906 0.073120117 -0.32714844 0 0 0 0
0.19787598 0.073364258 -0.328125 0 0 0 0
0.19897461 0.073364258 -0.328125 0 0 0 0
0.19995117 0.073364258 -0.328125 0 0 0 0
0.20166016 0.073608398 -0.32910156 0 0 0 0
0.20263672 0.073608398 -0.32910156 0 0 0 0
0.20361328 0.073608398 -0.32910156 0 0 0 0
0.20532227 0.073791504 -0.33007812 0 0 0 0
0.20629883 0.073791504 -0.33007812 0 0 0 0
0.20739746 0.073791504 -0.33007812 0 0 0 0
0.20837402 0.073791504 -0.33007812 0 0 0 0
0.21008301 0.074035645 -0.33105469 0 0 0 0
0.21105957 0.074035645 -0.33105469 0 0 0 0
0.21203613 0.074035645 -0.33105469 0 0 0 0
0.21313477 0.074035645 -0.33105469 0 0 0 0
0.21484375 0.074279785 -0.33227539 0 0 0 0
0.21582031 0.074279785 -0.33227539 0 0 0 0
-0.019256592 0.080993652 -0.36743164 0 0 0 0
-0.018112183 0.080993652 -0.36743164 0 0 0 0
-0.016983032 0.080993652 -0.36743164 0 0 0 0
-0.015838623 0.080993652 -0.36743164 0 0 0 0
-0.014656067 0.080749512 -0.36621094 0 0 0 0
-0.013519287 0.080749512 -0.36621094 0 0 0 0
-0.01234436 0.080505371 -0.36523438 0 0 0 0
-0.011207581 0.080505371 -0.36523438 0 0 0 0
-0.010047913 0.080322266 -0.36425781 0 0 0 0
-0.0089111328 0.080322266 -0.36425781 0 0 0 0
-0.0077629089 0.080078125 -0.36328125 0 0 0 0
-0.0066337585 0.080078125 -0.36328125 0 0 0 0
-0.0055198669 0.080322266 -0.36425781 0 0 0 0
-0.0044364929 0.081176758 -0.3684082 0 0 0 0
-0.0033016205 0.081420898 -0.36938477 0 0 0 0
-0.0021591187 0.081665039 -0.37036133 0 0 0 0
-0.0010089874 0.081665039 -0.37036133 0 0 0 0
0.00014138222 0.081665039 -0.37036133 0 0 0 0
0.0012922287 0.081665039 -0.37036133 0 0 0 0
0.0024414062 0.081665039 -0.37036133 0 0 0 0
0.0035934448 0.081665039 -0.37036133 0 0 0 0
0.0047416687 0.081665039 -0.37036133 0 0 0 0
0.0058937073 0.081665039 -0.37036133 0 0 0 0
0.0070457458 0.081665039 -0.37036133 0 0 0 0
0.0081939697 0.081665039 -0.37036133 0 0 0 0
0.0093460083 0.081665039 -0.37036133 0 0 0 0
0.010498047 0.081665039 -0.37036133 0 0 0 0
0.011650085 0.081665039 -0.37036133 0 0 0 0
0.012794495 0.081665039 -0.37036133 0 0 0 0
0.013946533 0.081665039 -0.37036133 0 0 0 0
0.015098572 0.081665039 -0.37036133 0 0 0 0
0.01625061 0.081665039 -0.37036133 0 0 0 0
0.01739502 0.081665039 -0.37036133 0 0 0 0
0.018554688 0.081665039 -0.37036133 0 0 0 0
0.019699097 0.081665039 -0.37036133 0 0 0 0
0.020843506 0.081665039 -0.37036133 0 0 0 0
0.022003174 0.081665039 -0.37036133 0 0 0 0
0.023147583 0.081665039 -0.37036133 0 0 0 0
0.024307251 0.081665039 -0.37036133 0 0 0 0
0.025390625 0.081420898 -0.36938477 0 0 0 0
0.026535034 0.081420898 -0.36938477 0 0 0 0
0.027679443 0.081420898 -0.36938477 0 0 0 0
0.028900146 0.081665039 -0.37036133 0 0 0 0
0.030059814 0.081665039 -0.37036133 0 0 0 0
0.031280518 0.081848145 -0.37133789 0 0 0 0
0.032623291 0.082275391 -0.37329102 0 0 0 0
0.033874512 0.082519531 -0.37426758 0 0 0 0
0.035125732 0.082763672 -0.37524414 0 0 0 0
0.0362854 0.082763672 -0.37524414 0 0 0 0
0.037445068 0.082763672 -0.37524414 0 0 0 0
0.038635254 0.082763672 -0.37524414 0 0 0 0
0.039794922 0.082763672 -0.37524414 0 0 0 0
0.04083252 0.082519531 -0.37426758 0 0 0 0
0.042022705 0.082519531 -0.37426758 0 0 0 0
0.043060303 0.082275391 -0.37329102 0 0 0 0
0.044219971 0.082275391 -0.37329102 0 0 0 0
0.045257568 0.082092285 -0.37231445 0 0 0 0
0.046417236 0.082092285 -0.37231445 0 0 0 0
0.047576904 0.082092285 -0.37231445 0 0 0 0
0.048736572 0.082092285 -0.37231445 0 0 0 0
0.04989624 0.082092285 -0.37231445 0 0 0 0
0.051055908 0.082092285 -0.37231445 0 0 0 0
0.052185059 0.082092285 -0.37231445 0 0 0 0
0.053344727 0.082092285 -0.37231445 0 0 0 0
0.054504395 0.082092285 -0.37231445 0 0 0 0
0.055664062 0.082092285 -0.37231445 0 0 0 0
0.056976318 0.082275391 -0.37329102 0 0 0 0
0.058135986 0.082275391 -0.37329102 0 0 0 0
0.059448242 0.082519531 -0.37426758 0 0 0 0
0.059417725 0.077880859 -0.35327148 0 0 0 0
0.060333252 0.077636719 -0.35229492 0 0 0 0
0.061248779 0.077453613 -0.35131836 0 0 0 0
0.062347412 0.077453613 -0.35131836 0 0 0 0
0.063232422 0.077209473 -0.3503418 0 0 0 0
0.064331055 0.077209473 -0.3503418 0 0 0 0
0.065429688 0.077209473 -0.3503418 0 0 0 0
0.06652832 0.077209473 -0.3503418 0 0 0 0
0.067565918 0.077209473 -0.3503418 0 0 0 0
0.068664551 0.077209473 -0.3503418 0 0 0 0
0.069946289 0.077453613 -0.35131836 0 0 0 0
0.071044922 0.077453613 -0.35131836 0 0 0 0
0.072143555 0.077453613 -0.35131836 0 0 0 0
0.073425293 0.077636719 -0.35229492 0 0 0 0
0.075805664 0.078979492 -0.35839844 0 0 0 0
0.077148438 0.079223633 -0.359375 0 0 0 0
0.078491211 0.079406738 -0.36035156 0 0 0 0
0.079833984 0.079650879 -0.36132812 0 0 0 0
0.081176758 0.07989502 -0.36230469 0 0 0 0
0.082519531 0.080078125 -0.36328125 0 0 0 0
0.084106445 0.080505371 -0.36523438 0 0 0 0
0.087341309 0.082519531 -0.37426758 0 0 0 0
0.088745117 0.082763672 -0.37524414 0 0 0 0
0.089904785 0.082763672 -0.37524414 0 0 0 0
0.091125488 0.082763672 -0.37524414 0 0 0 0
0.092529297 0.082946777 -0.37646484 0 0 0 0
0.093688965 0.082946777 -0.37646484 0 0 0 0
0.094848633 0.082946777 -0.37646484 0 0 0 0
0.096252441 0.083190918 -0.37744141 0 0 0 0
0.097473145 0.083190918 -0.37744141 0 0 0 0
0.098876953 0.083435059 -0.37841797 0 0 0 0
0.10003662 0.083435059 -0.37841797 0 0 0 0
0.10125732 0.083435059 -0.37841797 0 0 0 0
0.10217285 0.083190918 -0.37744141 0 0 0 0
0.10333252 0.083190918 -0.37744141 0 0 0 0
0.10418701 0.082946777 -0.37646484 0 0 0 0
0.10540771 0.082946777 -0.37646484 0 0 0 0
0.10626221 0.082763672 -0.37524414 0 0 0 0
0.10742188 0.082763672 -0.37524414 0 0 0 0
0.1083374 0.082519531 -0.37426758 0 0 0 0
0.10949707 0.082519531 -0.37426758 0 0 0 0
0.11035156 0.082275391 -0.37329102 0 0 0 0
0.11151123 0.082275391 -0.37329102 0 0 0 0
0.11236572 0.082092285 -0.37231445 0 0 0 0
0.11352539 0.082092285 -0.37231445 0 0 0 0
0.11468506 0.082092285 -0.37231445 0 0 0 0
0.11584473 0.082092285 -0.37231445 0 0 0 0
0.11700439 0.082092285 -0.37231445 0 0 0 0
0.11816406 0.082092285 -0.37231445 0 0 0 0
0.11932373 0.082092285 -0.37231445 0 0 0 0
0.1204834 0.082092285 -0.37231445 0 0 0 0
0.12127686 0.081848145 -0.37133789 0 0 0 0
0.12243652 0.081848145 -0.37133789 0 0 0 0
0.12359619 0.081848145 -0.37133789 0 0 0 0
0.12475586 0.081848145 -0.37133789 0 0 0 0
0.12585449 0.081848145 -0.37133789 0 0 0 0
0.1270752 0.081848145 -0.37133789 0 0 0 0
0.12780762 0.081665039 -0.37036133 0 0 0 0
0.12902832 0.081665039 -0.37036133 0 0 0 0
0.13012695 0.081665039 -0.37036133 0 0 0 0
0.13098145 0.081420898 -0.36938477 0 0 0 0
0.13208008 0.081420898 -0.36938477 0 0 0 0
0.1328125 0.081176758 -0.3684082 0 0 0 0
0.1340332 0.081176758 -0.3684082 0 0 0 0
0.13476562 0.080993652 -0.36743164 0 0 0 0
0.13549805 0.080749512 -0.36621094 0 0 0 0
0.13671875 0.080749512 -0.36621094 0 0 0 0
0.13745117 0.080505371 -0.36523438 0 0 0 0
0.1385498 0.080505371 -0.36523438 0 0 0 0
0.13928223 0.080322266 -0.36425781 0 0 0 0
0.14050293 0.080322266 -0.36425781 0 0 0 0
0.14123535 0.080078125 -0.36328125 0 0 0 0
0.14233398 0.080078125 -0.36328125 0 0 0 0
0.14343262 0.080078125 -0.36328125 0 0 0 0
0.14465332 0.080078125 -0.36328125 0 0 0 0
0.14575195 0.080078125 -0.36328125 0 0 0 0
0.1472168 0.080322266 -0.36425781 0 0 0 0
0.14794922 0.080078125 -0.36328125 0 0 0 0
0.14379883 0.077209473 -0.3503418 0 0 0 0
0.14440918 0.076965332 -0.34912109 0 0 0 0
0.14550781 0.076965332 -0.34912109 0 0 0 0
0.14624023 0.076782227 -0.34814453 0 0 0 0
0.1472168 0.076782227 -0.34814453 0 0 0 0
0.14831543 0.076782227 -0.34814453 0 0 0 0
0.14904785 0.076538086 -0.34716797 0 0 0 0
0.15002441 0.076538086 -0.34716797 0 0 0 0
0.15075684 0.07635498 -0.34619141 0 0 0 0
0.15136719 0.07611084 -0.34521484 0 0 0 0
0.15197754 0.075866699 -0.34423828 0 0 0 0
0.15258789 0.075683594 -0.34326172 0 0 0 0
0.15319824 0.075439453 -0.34228516 0 0 0 0
0.15380859 0.075195312 -0.34130859 0 0 0 0
0.15441895 0.075012207 -0.34008789 0 0 0 0
0.1550293 0.074768066 -0.33911133 0 0 0 0
0.15563965 0.074584961 -0.33813477 0 0 0 0
0.15625 0.07434082 -0.3371582 0 0 0 0
0.15637207 0.073913574 -0.33520508 0 0 0 0
0.15686035 0.073669434 -0.33422852 0 0 0 0
0.1574707 0.073425293 -0.33325195 0 0 0 0
0.15808105 0.073242188 -0.33227539 0 0 0 0
0.15856934 0.072998047 -0.33105469 0 0 0 0
0.1595459 0.072998047 -0.33105469 0 0 0 0
0.16015625 0.072814941 -0.33007812 0 0 0 0
0.16064453 0.072570801 -0.32910156 0 0 0 0
0.16125488 0.07232666 -0.328125 0 0 0 0
0.16174316 0.072143555 -0.32714844 0 0 0 0
0.16223145 0.071899414 -0.32617188 0 0 0 0
0.16271973 0.071655273 -0.32519531 0 0 0 0
0.16381836 0.071655273 -0.32519531 0 0 0 0
0.16430664 0.071472168 -0.32421875 0 0 0 0
0.1652832 0.071472168 -0.32421875 0 0 0 0
0.16625977 0.071472168 -0.32421875 0 0 0 0
0.1673584 0.071472168 -0.32421875 0 0 0 0
0.16772461 0.071228027 -0.32324219 0 0 0 0
0.16882324 0.071228027 -0.32324219 0 0 0 0
0.1697998 0.071228027 -0.32324219 0 0 0 0
0.17077637 0.071228027 -0.32324219 0 0 0 0
0.17175293 0.071228027 -0.32324219 0 0 0 0
0.17285156 0.071228027 -0.32324219 0 0 0 0
0.17382812 0.071228027 -0.32324219 0 0 0 0
0.17480469 0.071228027 -0.32324219 0 0 0 0
0.17578125 0.071228027 -0.32324219 0 0 0 0
0.17687988 0.071228027 -0.32324219 0 0 0 0
0.17834473 0.071472168 -0.32421875 0 0 0 0
0.17944336 0.071472168 -0.32421875 0 0 0 0
0.18041992 0.071472168 -0.32421875 0 0 0 0
0.18139648 0.071472168 -0.32421875 0 0 0 0
0.18237305 0.071472168 -0.32421875 0 0 0 0
0.18395996 0.071655273 -0.32519531 0 0 0 0
0.18493652 0.071655273 -0.32519531 0 0 0 0
0.18603516 0.071655273 -0.32519531 0 0 0 0
0.18701172 0.071655273 -0.32519531 0 0 0 0
0.18859863 0.071899414 -0.32617188 0 0 0 0
0.1895752 0.071899414 -0.32617188 0 0 0 0
0.19067383 0.071899414 -0.32617188 0 0 0 0
0.19165039 0.071899414 -0.32617188 0 0 0 0
0.1932373 0.072143555 -0.32714844 0 0 0 0
0.19421387 0.072143555 -0.32714844 0 0 0 0
0.1953125 0.072143555 -0.32714844 0 0 0 0
0.19689941 0.07232666 -0.328125 0 0 0 0
0.19787598 0.07232666 -0.328125 0 0 0 0
0.19897461 0.07232666 -0.328125 0 0 0 0
0.20056152 0.072570801 -0.32910156 0 0 0 0
0.20166016 0.072570801 -0.32910156 0 0 0 0
0.20263672 0.072570801 -0.32910156 0 0 0 0
0.20422363 0.072814941 -0.33007812 0 0 0 0
0.20532227 0.072814941 -0.33007812 0 0 0 0
0.20629883 0.072814941 -0.33007812 0 0 0 0
0.20800781 0.072998047 -0.33105469 0 0 0 0
0.20898438 0.072998047 -0.33105469 0 0 0 0
0.21008301 0.072998047 -0.33105469 0 0 0 0
0.21105957 0.072998047 -0.33105469 0 0 0 0
0.21276855 0.073242188 -0.33227539 0 0 0 0
0.21374512 0.073242188 -0.33227539 0 0 0 0
0.21484375 0.073242188 -0.33227539 0 0 0 0
0.21582031 0.073242188 -0.33227539 0 0 0 0
0.21691895 0.073242188 -0.33227539 0 0 0 0
-0.018112183 0.079833984 -0.36743164 0 0 0 0
-0.016983032 0.079833984 -0.36743164 0 0 0 0
-0.015838623 0.079833984 -0.36743164 0 0 0 0
-0.014656067 0.079589844 -0.36621094 0 0 0 0
-0.013519287 0.079589844 -0.36621094 0 0 0 0
-0.01234436 0.079406738 -0.36523438 0 0 0 0
-0.011207581 0.079406738 -0.36523438 0 0 0 0
-0.010047913 0.079162598 -0.36425781 0 0 0 0
-0.0089111328 0.079162598 -0.36425781 0 0 0 0
-0.0077629089 0.078979492 -0.36328125 0 0 0 0
-0.0066337585 0.078979492 -0.36328125 0 0 0 0
-0.0054893494 0.078735352 -0.36230469 0 0 0 0
-0.003282547 0.079833984 -0.36743164 0 0 0 0
-0.0021533966 0.08026123 -0.36938477 0 0 0 0
-0.0010061264 0.08026123 -0.36938477 0 0 0 0
0.00014138222 0.080505371 -0.37036133 0 0 0 0
0.0012922287 0.080505371 -0.37036133 0 0 0 0
0.0024414062 0.080505371 -0.37036133 0 0 0 0
0.0035934448 0.080505371 -0.37036133 0 0 0 0
0.0047416687 0.080505371 -0.37036133 0 0 0 0
0.0058937073 0.080505371 -0.37036133 0 0 0 0
0.0070457458 0.080505371 -0.37036133 0 0 0 0
0.0081939697 0.080505371 -0.37036133 0 0 0 0
0.0093460083 0.080505371 -0.37036133 0 0 0 0
0.010498047 0.080505371 -0.37036133 0 0 0 0
0.011650085 0.080505371 -0.37036133 0 0 0 0
0.012794495 0.080505371 -0.37036133 0 0 0 0
0.013946533 0.080505371 -0.37036133 0 0 0 0
0.015098572 0.080505371 -0.37036133 0 0 0 0
0.01625061 0.080505371 -0.37036133 0 0 0 0
0.01739502 0.080505371 -0.37036133 0 0 0 0
0.018554688 0.080505371 -0.37036133 0 0 0 0
0.019699097 0.080505371 -0.37036133 0 0 0 0
0.020843506 0.080505371 -0.37036133 0 0 0 0
0.022003174 0.080505371 -0.37036133 0 0 0 0
0.023147583 0.080505371 -0.37036133 0 0 0 0
0.024307251 0.080505371 -0.37036133 0 0 0 0
0.02545166 0.080505371 -0.37036133 0 0 0 0
0.026611328 0.080505371 -0.37036133 0 0 0 0
0.027755737 0.080505371 -0.37036133 0 0 0 0
0.028900146 0.080505371 -0.37036133 0 0 0 0
0.030136108 0.080688477 -0.37133789 0 0 0 0
0.031280518 0.080688477 -0.37133789 0 0 0 0
0.032623291 0.081115723 -0.37329102 0 0 0 0
0.033874512 0.081359863 -0.37426758 0 0 0 0
0.035125732 0.081604004 -0.37524414 0 0 0 0
0.036376953 0.081787109 -0.37646484 0 0 0 0
0.037567139 0.081787109 -0.37646484 0 0 0 0
0.038726807 0.081787109 -0.37646484 0 0 0 0
0.039794922 0.081604004 -0.37524414 0 0 0 0
0.04095459 0.081604004 -0.37524414 0 0 0 0
0.042022705 0.081359863 -0.37426758 0 0 0 0
0.043182373 0.081359863 -0.37426758 0 0 0 0
0.044219971 0.081115723 -0.37329102 0 0 0 0
0.045379639 0.081115723 -0.37329102 0 0 0 0
0.046417236 0.080932617 -0.37231445 0 0 0 0
0.047576904 0.080932617 -0.37231445 0 0 0 0
0.048736572 0.080932617 -0.37231445 0 0 0 0
0.04989624 0.080932617 -0.37231445 0 0 0 0
0.051055908 0.080932617 -0.37231445 0 0 0 0
0.052185059 0.080932617 -0.37231445 0 0 0 0
0.053344727 0.080932617 -0.37231445 0 0 0 0
0.054504395 0.080932617 -0.37231445 0 0 0 0
0.055664062 0.080932617 -0.37231445 0 0 0 0
0.05682373 0.080932617 -0.37231445 0 0 0 0
0.057983398 0.080932617 -0.37231445 0 0 0 0
0.059295654 0.081115723 -0.37329102 0 0 0 0
0.05847168 0.076965332 -0.35424805 0 0 0 0
0.059417725 0.076782227 -0.35327148 0 0 0 0
0.060333252 0.076538086 -0.35229492 0 0 0 0
0.061248779 0.07635498 -0.35131836 0 0 0 0
0.062164307 0.07611084 -0.3503418 0 0 0 0
0.063232422 0.07611084 -0.3503418 0 0 0 0
0.064331055 0.07611084 -0.3503418 0 0 0 0
0.065429688 0.07611084 -0.3503418 0 0 0 0
0.06628418 0.075927734 -0.34912109 0 0 0 0
0.067565918 0.07611084 -0.3503418 0 0 0 0
0.068664551 0.07611084 -0.3503418 0 0 0 0
0.069763184 0.07611084 -0.3503418 0 0 0 0
0.071044922 0.07635498 -0.35131836 0 0 0 0
0.072387695 0.076538086 -0.35229492 0 0 0 0
0.073852539 0.076965332 -0.35424805 0 0 0 0
0.075622559 0.077636719 -0.35717773 0 0 0 0
0.076965332 0.077880859 -0.35839844 0 0 0 0
0.078491211 0.078308105 -0.36035156 0 0 0 0
0.079833984 0.078552246 -0.36132812 0 0 0 0
0.081176758 0.078735352 -0.36230469 0 0 0 0
0.082763672 0.079162598 -0.36425781 0 0 0 0
0.084594727 0.079833984 -0.36743164 0 0 0 0
0.087341309 0.081359863 -0.37426758 0 0 0 0
0.088500977 0.081359863 -0.37426758 0 0 0 0
0.08972168 0.081359863 -0.37426758 0 0 0 0
0.091125488 0.081604004 -0.37524414 0 0 0 0
0.092285156 0.081604004 -0.37524414 0 0 0 0
0.093444824 0.081604004 -0.37524414 0 0 0 0
0.094848633 0.081787109 -0.37646484 0 0 0 0
0.096008301 0.081787109 -0.37646484 0 0 0 0
0.097473145 0.08203125 -0.37744141 0 0 0 0
0.098632812 0.08203125 -0.37744141 0 0 0 0
0.09979248 0.08203125 -0.37744141 0 0 0 0
0.10095215 0.08203125 -0.37744141 0 0 0 0
0.10217285 0.08203125 -0.37744141 0 0 0 0
0.10333252 0.08203125 -0.37744141 0 0 0 0
0.10449219 0.08203125 -0.37744141 0 0 0 0
0.10540771 0.081787109 -0.37646484 0 0 0 0
0.10626221 0.081604004 -0.37524414 0 0 0 0
0.10742188 0.081604004 -0.37524414 0 0 0 0
0.1083374 0.081359863 -0.37426758 0 0 0 0
0.10949707 0.081359863 -0.37426758 0 0 0 0
0.11035156 0.081115723 -0.37329102 0 0 0 0
0.11151123 0.081115723 -0.37329102 0 0 0 0
0.1126709 0.081115723 -0.37329102 0 0 0 0
0.11352539 0.080932617 -0.37231445 0 0 0 0
0.11468506 0.080932617 -0.37231445 0 0 0 0
0.11584473 0.080932617 -0.37231445 0 0 0 0
0.11700439 0.080932617 -0.37231445 0 0 0 0
0.11816406 0.080932617 -0.37231445 0 0 0 0
0.11932373 0.080932617 -0.37231445 0 0 0 0
0.1204834 0.080932617 -0.37231445 0 0 0 0
0.12164307 0.080932617 -0.37231445 0 0 0 0
0.1227417 0.080932617 -0.37231445 0 0 0 0
0.12359619 0.080688477 -0.37133789 0 0 0 0
0.12475586 0.080688477 -0.37133789 0 0 0 0
0.12585449 0.080688477 -0.37133789 0 0 0 0
0.1270752 0.080688477 -0.37133789 0 0 0 0
0.12780762 0.080505371 -0.37036133 0 0 0 0
0.12902832 0.080505371 -0.37036133 0 0 0 0
0.12976074 0.08026123 -0.36938477 0 0 0 0
0.13098145 0.08026123 -0.36938477 0 0 0 0
0.13171387 0.080078125 -0.3684082 0 0 0 0
0.1328125 0.080078125 -0.3684082 0 0 0 0
0.13366699 0.079833984 -0.36743164 0 0 0 0
0.13439941 0.079589844 -0.36621094 0 0 0 0
0.13549805 0.079589844 -0.36621094 0 0 0 0
0.13635254 0.079406738 -0.36523438 0 0 0 0
0.13708496 0.079162598 -0.36425781 0 0 0 0
0.13818359 0.079162598 -0.36425781 0 0 0 0
0.13891602 0.078979492 -0.36328125 0 0 0 0
0.14013672 0.078979492 -0.36328125 0 0 0 0
0.14086914 0.078735352 -0.36230469 0 0 0 0
0.14196777 0.078735352 -0.36230469 0 0 0 0
0.14343262 0.078979492 -0.36328125 0 0 0 0
0.14465332 0.078979492 -0.36328125 0 0 0 0
0.14538574 0.078735352 -0.36230469 0 0 0 0
0.14160156 0.07611084 -0.3503418 0 0 0 0
0.1427002 0.07611084 -0.3503418 0 0 0 0
0.14331055 0.075927734 -0.34912109 0 0 0 0
0.14440918 0.075927734 -0.34912109 0 0 0 0
0.1451416 0.075683594 -0.34814453 0 0 0 0
0.14575195 0.075439453 -0.34716797 0 0 0 0
0.14685059 0.075439453 -0.34716797 0 0 0 0
0.14794922 0.075439453 -0.34716797 0 0 0 0
0.14855957 0.075256348 -0.34619141 0 0 0 0
0.14916992 0.075012207 -0.34521484 0 0 0 0
0.14990234 0.074829102 -0.34423828 0 0 0 0
0.1505127 0.074584961 -0.34326172 0 0 0 0
0.15112305 0.074401855 -0.34228516 0 0 0 0
0.1517334 0.074157715 -0.34130859 0 0 0 0
0.15283203 0.074157715 -0.34130859 0 0 0 0
0.15344238 0.073913574 -0.34008789 0 0 0 0
0.15393066 0.073730469 -0.33911133 0 0 0 0
0.15454102 0.073486328 -0.33813477 0 0 0 0
0.15515137 0.073303223 -0.3371582 0 0 0 0
0.15576172 0.073059082 -0.33618164 0 0 0 0
0.15588379 0.072631836 -0.33422852 0 0 0 0
0.15637207 0.072387695 -0.33325195 0 0 0 0
0.15698242 0.07220459 -0.33227539 0 0 0 0
0.15759277 0.071960449 -0.33105469 0 0 0 0
0.15808105 0.071777344 -0.33007812 0 0 0 0
0.15917969 0.071777344 -0.33007812 0 0 0 0
0.15966797 0.071533203 -0.32910156 0 0 0 0
0.16064453 0.071533203 -0.32910156 0 0 0 0
0.16125488 0.071350098 -0.328125 0 0 0 0
0.16125488 0.070861816 -0.32617188 0 0 0 0
0.16174316 0.070678711 -0.32519531 0 0 0 0
0.16223145 0.07043457 -0.32421875 0 0 0 0
0.16320801 0.07043457 -0.32421875 0 0 0 0
0.16430664 0.07043457 -0.32421875 0 0 0 0
0.16479492 0.070251465 -0.32324219 0 0 0 0
0.16577148 0.070251465 -0.32324219 0 0 0 0
0.16674805 0.070251465 -0.32324219 0 0 0 0
0.16772461 0.070251465 -0.32324219 0 0 0 0
0.16882324 0.070251465 -0.32324219 0 0 0 0
0.1697998 0.070251465 -0.32324219 0 0 0 0
0.17077637 0.070251465 -0.32324219 0 0 0 0
0.17175293 0.070251465 -0.32324219 0 0 0 0
0.17285156 0.070251465 -0.32324219 0 0 0 0
0.17382812 0.070251465 -0.32324219 0 0 0 0
0.17480469 0.070251465 -0.32324219 0 0 0 0
0.1763916 0.07043457 -0.32421875 0 0 0 0
0.17736816 0.07043457 -0.32421875 0 0 0 0
0.17834473 0.07043457 -0.32421875 0 0 0 0
0.17944336 0.07043457 -0.32421875 0 0 0 0
0.18041992 0.07043457 -0.32421875 0 0 0 0
0.18200684 0.070678711 -0.32519531 0 0 0 0
0.1829834 0.070678711 -0.32519531 0 0 0 0
0.18395996 0.070678711 -0.32519531 0 0 0 0
0.18493652 0.070678711 -0.32519531 0 0 0 0
0.18652344 0.070861816 -0.32617188 0 0 0 0
0.18762207 0.070861816 -0.32617188 0 0 0 0
0.18859863 0.070861816 -0.32617188 0 0 0 0
0.1895752 0.070861816 -0.32617188 0 0 0 0
0.19116211 0.071105957 -0.32714844 0 0 0 0
0.19226074 0.071105957 -0.32714844 0 0 0 0
0.1932373 0.071105957 -0.32714844 0 0 0 0
0.19482422 0.071350098 -0.328125 0 0 0 0
0.19592285 0.071350098 -0.328125 0 0 0 0
0.19689941 0.071350098 -0.328125 0 0 0 0
0.19787598 0.071350098 -0.328125 0 0 0 0
0.19958496 0.071533203 -0.32910156 0 0 0 0
0.20056152 0.071533203 -0.32910156 0 0 0 0
0.20166016 0.071533203 -0.32910156 0 0 0 0
0.20324707 0.071777344 -0.33007812 0 0 0 0
0.20422363 0.071777344 -0.33007812 0 0 0 0
0.20532227 0.071777344 -0.33007812 0 0 0 0
0.20690918 0.071960449 -0.33105469 0 0 0 0
0.20800781 0.071960449 -0.33105469 0 0 0 0
0.20898438 0.071960449 -0.33105469 0 0 0 0
0.21069336 0.07220459 -0.33227539 0 0 0 0
0.21166992 0.07220459 -0.33227539 0 0 0 0
0.21276855 0.07220459 -0.33227539 0 0 0 0
0.21374512 0.07220459 -0.33227539 0 0 0 0
0.2154541 0.072387695 -0.33325195 0 0 0 0
0.21643066 0.072387695 -0.33325195 0 0 0 0
0.2175293 0.072387695 -0.33325195 0 0 0 0
-0.018112183 0.078674316 -0.36743164 0 0 0 0
-0.016983032 0.078674316 -0.36743164 0 0 0 0
-0.015838623 0.078674316 -0.36743164 0 0 0 0
-0.014656067 0.078491211 -0.36621094 0 0 0 0
-0.013519287 0.078491211 -0.36621094 0 0 0 0
-0.01234436 0.07824707 -0.36523438 0 0 0 0
-0.011207581 0.07824707 -0.36523438 0 0 0 0
-0.010047913 0.078063965 -0.36425781 0 0 0 0
-0.0089111328 0.078063965 -0.36425781 0 0 0 0
-0.0077629089 0.077819824 -0.36328125 0 0 0 0
-0.0066337585 0.077819824 -0.36328125 0 0 0 0
-0.0055046082 0.077819824 -0.36328125 0 0 0 0
-0.0043754578 0.077819824 -0.36328125 0 0 0 0
-0.0032558441 0.078063965 -0.36425781 0 0 0 0
-0.0021419525 0.078674316 -0.36743164 0 0 0 0
-0.0010061264 0.079101562 -0.36938477 0 0 0 0
0.00014090538 0.079101562 -0.36938477 0 0 0 0
0.0012922287 0.079345703 -0.37036133 0 0 0 0
0.0024414062 0.079345703 -0.37036133 0 0 0 0
0.0035934448 0.079345703 -0.37036133 0 0 0 0
0.0047416687 0.079345703 -0.37036133 0 0 0 0
0.0058937073 0.079345703 -0.37036133 0 0 0 0
0.0070457458 0.079345703 -0.37036133 0 0 0 0
0.0081939697 0.079345703 -0.37036133 0 0 0 0
0.0093460083 0.079345703 -0.37036133 0 0 0 0
0.010498047 0.079345703 -0.37036133 0 0 0 0
0.011650085 0.079345703 -0.37036133 0 0 0 0
0.012794495 0.079345703 -0.37036133 0 0 0 0
0.013946533 0.079345703 -0.37036133 0 0 0 0
0.015098572 0.079345703 -0.37036133 0 0 0 0
0.01625061 0.079345703 -0.37036133 0 0 0 0
0.01739502 0.079345703 -0.37036133 0 0 0 0
0.018554688 0.079345703 -0.37036133 0 0 0 0
0.019699097 0.079345703 -0.37036133 0 0 0 0
0.020843506 0.079345703 -0.37036133 0 0 0 0
0.022003174 0.079345703 -0.37036133 0 0 0 0
0.023147583 0.079345703 -0.37036133 0 0 0 0
0.024307251 0.079345703 -0.37036133 0 0 0 0
0.02545166 0.079345703 -0.37036133 0 0 0 0
0.026611328 0.079345703 -0.37036133 0 0 0 0
0.027755737 0.079345703 -0.37036133 0 0 0 0
0.028900146 0.079345703 -0.37036133 0 0 0 0
0.030136108 0.079528809 -0.37133789 0 0 0 0
0.03137207 0.079772949 -0.37231445 0 0 0 0
0.032623291 0.079956055 -0.37329102 0 0 0 0
0.033966064 0.080383301 -0.37524414 0 0 0 0
0.035217285 0.080627441 -0.37646484 0 0 0 0
0.036376953 0.080627441 -0.37646484 0 0 0 0
0.037567139 0.080627441 -0.37646484 0 0 0 0
0.038726807 0.080627441 -0.37646484 0 0 0 0
0.039886475 0.080627441 -0.37646484 0 0 0 0
0.04107666 0.080627441 -0.37646484 0 0 0 0
0.042114258 0.080383301 -0.37524414 0 0 0 0
0.043182373 0.080200195 -0.37426758 0 0 0 0
0.044342041 0.080200195 -0.37426758 0 0 0 0
0.045379639 0.079956055 -0.37329102 0 0 0 0
0.046539307 0.079956055 -0.37329102 0 0 0 0
0.047576904 0.079772949 -0.37231445 0 0 0 0
0.048736572 0.079772949 -0.37231445 0 0 0 0
0.04989624 0.079772949 -0.37231445 0 0 0 0
0.051055908 0.079772949 -0.37231445 0 0 0 0
0.052062988 0.079528809 -0.37133789 0 0 0 0
0.053222656 0.079528809 -0.37133789 0 0 0 0
0.054351807 0.079528809 -0.37133789 0 0 0 0
0.055511475 0.079528809 -0.37133789 0 0 0 0
0.056671143 0.079528809 -0.37133789 0 0 0 0
0.057830811 0.079528809 -0.37133789 0 0 0 0
0.05847168 0.075866699 -0.35424805 0 0 0 0
0.059570312 0.075866699 -0.35424805 0 0 0 0
0.060333252 0.075439453 -0.35229492 0 0 0 0
0.061248779 0.075256348 -0.35131836 0 0 0 0
0.062164307 0.075012207 -0.3503418 0 0 0 0
0.063232422 0.075012207 -0.3503418 0 0 0 0
0.064147949 0.074829102 -0.34912109 0 0 0 0
0.065246582 0.074829102 -0.34912109 0 0 0 0
0.06628418 0.074829102 -0.34912109 0 0 0 0
0.067382812 0.074829102 -0.34912109 0 0 0 0
0.068664551 0.075012207 -0.3503418 0 0 0 0
0.069763184 0.075012207 -0.3503418 0 0 0 0
0.071044922 0.075256348 -0.35131836 0 0 0 0
0.072387695 0.075439453 -0.35229492 0 0 0 0
0.073669434 0.075683594 -0.35327148 0 0 0 0
0.075378418 0.07635498 -0.35620117 0 0 0 0
0.076721191 0.076538086 -0.35717773 0 0 0 0
0.07824707 0.076965332 -0.359375 0 0 0 0
0.079833984 0.077392578 -0.36132812 0 0 0 0
0.081176758 0.077636719 -0.36230469 0 0 0 0
0.082763672 0.078063965 -0.36425781 0 0 0 0
0.084106445 0.07824707 -0.36523438 0 0 0 0
0.087158203 0.079956055 -0.37329102 0 0 0 0
0.088317871 0.079956055 -0.37329102 0 0 0 0
0.08972168 0.080200195 -0.37426758 0 0 0 0
0.090881348 0.080200195 -0.37426758 0 0 0 0
0.092041016 0.080200195 -0.37426758 0 0 0 0
0.093444824 0.080383301 -0.37524414 0 0 0 0
0.094604492 0.080383301 -0.37524414 0 0 0 0
0.096008301 0.080627441 -0.37646484 0 0 0 0
0.097167969 0.080627441 -0.37646484 0 0 0 0
0.098632812 0.080871582 -0.37744141 0 0 0 0
0.09979248 0.080871582 -0.37744141 0 0 0 0
0.10095215 0.080871582 -0.37744141 0 0 0 0
0.10217285 0.080871582 -0.37744141 0 0 0 0
0.10333252 0.080871582 -0.37744141 0 0 0 0
0.10449219 0.080871582 -0.37744141 0 0 0 0
0.10540771 0.080627441 -0.37646484 0 0 0 0
0.10656738 0.080627441 -0.37646484 0 0 0 0
0.10742188 0.080383301 -0.37524414 0 0 0 0
0.10858154 0.080383301 -0.37524414 0 0 0 0
0.10949707 0.080200195 -0.37426758 0 0 0 0
0.11065674 0.080200195 -0.37426758 0 0 0 0
0.11151123 0.079956055 -0.37329102 0 0 0 0
0.1126709 0.079956055 -0.37329102 0 0 0 0
0.11352539 0.079772949 -0.37231445 0 0 0 0
0.11468506 0.079772949 -0.37231445 0 0 0 0
0.11584473 0.079772949 -0.37231445 0 0 0 0
0.11700439 0.079772949 -0.37231445 0 0 0 0
0.11816406 0.079772949 -0.37231445 0 0 0 0
0.11932373 0.079772949 -0.37231445 0 0 0 0
0.1204834 0.079772949 -0.37231445 0 0 0 0
0.12164307 0.079772949 -0.37231445 0 0 0 0
0.1227417 0.079772949 -0.37231445 0 0 0 0
0.12359619 0.079528809 -0.37133789 0 0 0 0
0.12475586 0.079528809 -0.37133789 0 0 0 0
0.12585449 0.079528809 -0.37133789 0 0 0 0
0.1270752 0.079528809 -0.37133789 0 0 0 0
0.12780762 0.079345703 -0.37036133 0 0 0 0
0.12902832 0.079345703 -0.37036133 0 0 0 0
0.12976074 0.079101562 -0.36938477 0 0 0 0
0.13098145 0.079101562 -0.36938477 0 0 0 0
0.13171387 0.078918457 -0.3684082 0 0 0 0
0.13244629 0.078674316 -0.36743164 0 0 0 0
0.13330078 0.078491211 -0.36621094 0 0 0 0
0.13439941 0.078491211 -0.36621094 0 0 0 0
0.13513184 0.07824707 -0.36523438 0 0 0 0
0.13598633 0.078063965 -0.36425781 0 0 0 0
0.13671875 0.077819824 -0.36328125 0 0 0 0
0.13781738 0.077819824 -0.36328125 0 0 0 0
0.1385498 0.077636719 -0.36230469 0 0 0 0
0.13928223 0.077392578 -0.36132812 0 0 0 0
0.14038086 0.077392578 -0.36132812 0 0 0 0
0.14196777 0.077636719 -0.36230469 0 0 0 0
0.14306641 0.077636719 -0.36230469 0 0 0 0
0.13977051 0.075256348 -0.35131836 0 0 0 0
0.14050293 0.075012207 -0.3503418 0 0 0 0
0.14160156 0.075012207 -0.3503418 0 0 0 0
0.14221191 0.074829102 -0.34912109 0 0 0 0
0.14294434 0.074584961 -0.34814453 0 0 0 0
0.14404297 0.074584961 -0.34814453 0 0 0 0
0.14465332 0.074401855 -0.34716797 0 0 0 0
0.14575195 0.074401855 -0.34716797 0 0 0 0
0.1463623 0.074157715 -0.34619141 0 0 0 0
0.14709473 0.073974609 -0.34521484 0 0 0 0
0.14819336 0.073974609 -0.34521484 0 0 0 0
0.14880371 0.073730469 -0.34423828 0 0 0 0
0.14941406 0.073547363 -0.34326172 0 0 0 0
0.15002441 0.073303223 -0.34228516 0 0 0 0
0.15063477 0.073120117 -0.34130859 0 0 0 0
0.15124512 0.072875977 -0.34008789 0 0 0 0
0.15234375 0.072875977 -0.34008789 0 0 0 0
0.1529541 0.072692871 -0.33911133 0 0 0 0
0.15356445 0.07244873 -0.33813477 0 0 0 0
0.1541748 0.072265625 -0.3371582 0 0 0 0
0.15466309 0.072021484 -0.33618164 0 0 0 0
0.15527344 0.071777344 -0.33520508 0 0 0 0
0.15539551 0.071350098 -0.33325195 0 0 0 0
0.15600586 0.071166992 -0.33227539 0 0 0 0
0.15600586 0.070739746 -0.33007812 0 0 0 0
0.15710449 0.070739746 -0.33007812 0 0 0 0
0.15759277 0.070495605 -0.32910156 0 0 0 0
0.15869141 0.070495605 -0.32910156 0 0 0 0
0.15966797 0.070495605 -0.32910156 0 0 0 0
0.16015625 0.0703125 -0.328125 0 0 0 0
0.15917969 0.069458008 -0.32421875 0 0 0 0
0.16027832 0.069458008 -0.32421875 0 0 0 0
0.16125488 0.069458008 -0.32421875 0 0 0 0
0.16223145 0.069458008 -0.32421875 0 0 0 0
0.16271973 0.069213867 -0.32324219 0 0 0 0
0.16381836 0.069213867 -0.32324219 0 0 0 0
0.16479492 0.069213867 -0.32324219 0 0 0 0
0.16577148 0.069213867 -0.32324219 0 0 0 0
0.16674805 0.069213867 -0.32324219 0 0 0 0
0.16772461 0.069213867 -0.32324219 0 0 0 0
0.16882324 0.069213867 -0.32324219 0 0 0 0
0.1697998 0.069213867 -0.32324219 0 0 0 0
0.17077637 0.069213867 -0.32324219 0 0 0 0
0.17175293 0.069213867 -0.32324219 0 0 0 0
0.17285156 0.069213867 -0.32324219 0 0 0 0
0.17431641 0.069458008 -0.32421875 0 0 0 0
0.17541504 0.069458008 -0.32421875 0 0 0 0
0.1763916 0.069458008 -0.32421875 0 0 0 0
0.17736816 0.069458008 -0.32421875 0 0 0 0
0.17834473 0.069458008 -0.32421875 0 0 0 0
0.17993164 0.069641113 -0.32519531 0 0 0 0
0.1809082 0.069641113 -0.32519531 0 0 0 0
0.18200684 0.069641113 -0.32519531 0 0 0 0
0.1829834 0.069641113 -0.32519531 0 0 0 0
0.18457031 0.069885254 -0.32617188 0 0 0 0
0.18554688 0.069885254 -0.32617188 0 0 0 0
0.18652344 0.069885254 -0.32617188 0 0 0 0
0.18762207 0.069885254 -0.32617188 0 0 0 0
0.18920898 0.070068359 -0.32714844 0 0 0 0
0.19018555 0.070068359 -0.32714844 0 0 0 0
0.19116211 0.070068359 -0.32714844 0 0 0 0
0.19226074 0.070068359 -0.32714844 0 0 0 0
0.19384766 0.0703125 -0.328125 0 0 0 0
0.19482422 0.0703125 -0.328125 0 0 0 0
0.19592285 0.0703125 -0.328125 0 0 0 0
0.19750977 0.070495605 -0.32910156 0 0 0 0
0.19848633 0.070495605 -0.32910156 0 0 0 0
0.19958496 0.070495605 -0.32910156 0 0 0 0
0.20056152 0.070495605 -0.32910156 0 0 0 0
0.20227051 0.070739746 -0.33007812 0 0 0 0
0.20324707 0.070739746 -0.33007812 0 0 0 0
0.20422363 0.070739746 -0.33007812 0 0 0 0
0.20593262 0.070922852 -0.33105469 0 0 0 0
0.20690918 0.070922852 -0.33105469 0 0 0 0
0.20800781 0.070922852 -0.33105469 0 0 0 0
0.20959473 0.071166992 -0.33227539 0 0 0 0
0.21069336 0.071166992 -0.33227539 0 0 0 0
0.21166992 0.071166992 -0.33227539 0 0 0 0
0.21337891 0.071350098 -0.33325195 0 0 0 0
0.21447754 0.071350098 -0.33325195 0 0 0 0
0.2154541 0.071350098 -0.33325195 0 0 0 0
0.21643066 0.071350098 -0.33325195 0 0 0 0
0.2175293 0.071350098 -0.33325195 0 0 0 0
-0.018112183 0.077575684 -0.36743164 0 0 0 0
-0.016983032 0.077575684 -0.36743164 0 0 0 0
-0.015838623 0.077575684 -0.36743164 0 0 0 0
-0.014656067 0.077331543 -0.36621094 0 0 0 0
-0.013519287 0.077331543 -0.36621094 0 0 0 0
-0.01234436 0.077148438 -0.36523438 0 0 0 0
-0.011207581 0.077148438 -0.36523438 0 0 0 0
-0.010047913 0.076904297 -0.36425781 0 0 0 0
-0.0089111328 0.076904297 -0.36425781 0 0 0 0
-0.0077629089 0.076721191 -0.36328125 0 0 0 0
-0.0066337585 0.076721191 -0.36328125 0 0 0 0
-0.0055046082 0.076721191 -0.36328125 0 0 0 0
-0.0043754578 0.076721191 -0.36328125 0 0 0 0
-0.0032558441 0.076904297 -0.36425781 0 0 0 0
-0.0021419525 0.077575684 -0.36743164 0 0 0 0
-0.0010032654 0.077758789 -0.3684082 0 0 0 0
0.00014090538 0.07800293 -0.36938477 0 0 0 0
0.0012922287 0.078186035 -0.37036133 0 0 0 0
0.0024414062 0.078186035 -0.37036133 0 0 0 0
0.0035934448 0.078186035 -0.37036133 0 0 0 0
0.0047416687 0.078186035 -0.37036133 0 0 0 0
0.0058937073 0.078186035 -0.37036133 0 0 0 0
0.0070457458 0.078186035 -0.37036133 0 0 0 0
0.0081939697 0.078186035 -0.37036133 0 0 0 0
0.0093460083 0.078186035 -0.37036133 0 0 0 0
0.010498047 0.078186035 -0.37036133 0 0 0 0
0.011650085 0.078186035 -0.37036133 0 0 0 0
0.012794495 0.078186035 -0.37036133 0 0 0 0
0.013946533 0.078186035 -0.37036133 0 0 0 0
0.015098572 0.078186035 -0.37036133 0 0 0 0
0.01625061 0.078186035 -0.37036133 0 0 0 0
0.01739502 0.078186035 -0.37036133 0 0 0 0
0.018554688 0.078186035 -0.37036133 0 0 0 0
0.019699097 0.078186035 -0.37036133 0 0 0 0
0.020843506 0.078186035 -0.37036133 0 0 0 0
0.022003174 0.078186035 -0.37036133 0 0 0 0
0.023147583 0.078186035 -0.37036133 0 0 0 0
0.024307251 0.078186035 -0.37036133 0 0 0 0
0.02545166 0.078186035 -0.37036133 0 0 0 0
0.026611328 0.078186035 -0.37036133 0 0 0 0
0.027755737 0.078186035 -0.37036133 0 0 0 0
0.028900146 0.078186035 -0.37036133 0 0 0 0
0.030136108 0.078369141 -0.37133789 0 0 0 0
0.03137207 0.078613281 -0.37231445 0 0 0 0
0.032623291 0.078796387 -0.37329102 0 0 0 0
0.033966064 0.079223633 -0.37524414 0 0 0 0
0.035217285 0.079467773 -0.37646484 0 0 0 0
0.036376953 0.079467773 -0.37646484 0 0 0 0
0.037658691 0.079650879 -0.37744141 0 0 0 0
0.038818359 0.079650879 -0.37744141 0 0 0 0
0.040008545 0.079650879 -0.37744141 0 0 0 0
0.04107666 0.079467773 -0.37646484 0 0 0 0
0.042236328 0.079467773 -0.37646484 0 0 0 0
0.043273926 0.079223633 -0.37524414 0 0 0 0
0.044342041 0.079040527 -0.37426758 0 0 0 0
0.045379639 0.078796387 -0.37329102 0 0 0 0
0.046539307 0.078796387 -0.37329102 0 0 0 0
0.047576904 0.078613281 -0.37231445 0 0 0 0
0.048736572 0.078613281 -0.37231445 0 0 0 0
0.04989624 0.078613281 -0.37231445 0 0 0 0
0.051055908 0.078613281 -0.37231445 0 0 0 0
0.052062988 0.078369141 -0.37133789 0 0 0 0
0.053222656 0.078369141 -0.37133789 0 0 0 0
0.054351807 0.078369141 -0.37133789 0 0 0 0
0.055511475 0.078369141 -0.37133789 0 0 0 0
0.056671143 0.078369141 -0.37133789 0 0 0 0
0.057678223 0.078186035 -0.37036133 0 0 0 0
0.058624268 0.075012207 -0.35522461 0 0 0 0
0.059570312 0.074768066 -0.35424805 0 0 0 0
0.060333252 0.07434082 -0.35229492 0 0 0 0
0.061065674 0.073974609 -0.3503418 0 0 0 0
0.062164307 0.073974609 -0.3503418 0 0 0 0
0.063232422 0.073974609 -0.3503418 0 0 0 0
0.064147949 0.073730469 -0.34912109 0 0 0 0
0.065246582 0.073730469 -0.34912109 0 0 0 0
0.06628418 0.073730469 -0.34912109 0 0 0 0
0.067565918 0.073974609 -0.3503418 0 0 0 0
0.068664551 0.073974609 -0.3503418 0 0 0 0
0.069763184 0.073974609 -0.3503418 0 0 0 0
0.071044922 0.074157715 -0.35131836 0 0 0 0
0.072387695 0.07434082 -0.35229492 0 0 0 0
0.073669434 0.074584961 -0.35327148 0 0 0 0
0.075195312 0.075012207 -0.35522461 0 0 0 0
0.076477051 0.075195312 -0.35620117 0 0 0 0
0.07824707 0.075866699 -0.359375 0 0 0 0
0.079833984 0.076293945 -0.36132812 0 0 0 0
0.081420898 0.076721191 -0.36328125 0 0 0 0
0.08392334 0.07800293 -0.36938477 0 0 0 0
0.085266113 0.078186035 -0.37036133 0 0 0 0
0.086914062 0.078613281 -0.37231445 0 0 0 0
0.088317871 0.078796387 -0.37329102 0 0 0 0
0.089477539 0.078796387 -0.37329102 0 0 0 0
0.090637207 0.078796387 -0.37329102 0 0 0 0
0.092041016 0.079040527 -0.37426758 0 0 0 0
0.093200684 0.079040527 -0.37426758 0 0 0 0
0.094360352 0.079040527 -0.37426758 0 0 0 0
0.09576416 0.079223633 -0.37524414 0 0 0 0
0.096923828 0.079223633 -0.37524414 0 0 0 0
0.098388672 0.079467773 -0.37646484 0 0 0 0
0.09954834 0.079467773 -0.37646484 0 0 0 0
0.10095215 0.079650879 -0.37744141 0 0 0 0
0.10217285 0.079650879 -0.37744141 0 0 0 0
0.10333252 0.079650879 -0.37744141 0 0 0 0
0.10449219 0.079650879 -0.37744141 0 0 0 0
0.10540771 0.079467773 -0.37646484 0 0 0 0
0.10656738 0.079467773 -0.37646484 0 0 0 0
0.10772705 0.079467773 -0.37646484 0 0 0 0
0.10858154 0.079223633 -0.37524414 0 0 0 0
0.10949707 0.079040527 -0.37426758 0 0 0 0
0.11065674 0.079040527 -0.37426758 0 0 0 0
0.11151123 0.078796387 -0.37329102 0 0 0 0
0.1126709 0.078796387 -0.37329102 0 0 0 0
0.11383057 0.078796387 -0.37329102 0 0 0 0
0.11468506 0.078613281 -0.37231445 0 0 0 0
0.11584473 0.078613281 -0.37231445 0 0 0 0
0.11700439 0.078613281 -0.37231445 0 0 0 0
0.11816406 0.078613281 -0.37231445 0 0 0 0
0.11932373 0.078613281 -0.37231445 0 0 0 0
0.1204834 0.078613281 -0.37231445 0 0 0 0
0.12164307 0.078613281 -0.37231445 0 0 0 0
0.1227417 0.078613281 -0.37231445 0 0 0 0
0.12359619 0.078369141 -0.37133789 0 0 0 0
0.12475586 0.078369141 -0.37133789 0 0 0 0
0.12585449 0.078369141 -0.37133789 0 0 0 0
0.1270752 0.078369141 -0.37133789 0 0 0 0
0.12780762 0.078186035 -0.37036133 0 0 0 0
0.12902832 0.078186035 -0.37036133 0 0 0 0
0.12976074 0.07800293 -0.36938477 0 0 0 0
0.13061523 0.077758789 -0.3684082 0 0 0 0
0.13134766 0.077575684 -0.36743164 0 0 0 0
0.13208008 0.077331543 -0.36621094 0 0 0 0
0.13293457 0.077148438 -0.36523438 0 0 0 0
0.1340332 0.077148438 -0.36523438 0 0 0 0
0.13476562 0.076904297 -0.36425781 0 0 0 0
0.13562012 0.076721191 -0.36328125 0 0 0 0
0.13635254 0.076477051 -0.36230469 0 0 0 0
0.13708496 0.076293945 -0.36132812 0 0 0 0
0.13781738 0.076049805 -0.36035156 0 0 0 0
0.1385498 0.075866699 -0.359375 0 0 0 0
0.14086914 0.076477051 -0.36230469 0 0 0 0
0.13879395 0.074768066 -0.35424805 0 0 0 0
0.13916016 0.07434082 -0.35229492 0 0 0 0
0.13977051 0.074157715 -0.35131836 0 0 0 0
0.14050293 0.073974609 -0.3503418 0 0 0 0
0.14123535 0.073730469 -0.34912109 0 0 0 0
0.1418457 0.073547363 -0.34814453 0 0 0 0
0.14294434 0.073547363 -0.34814453 0 0 0 0
0.14355469 0.073303223 -0.34716797 0 0 0 0
0.14428711 0.073120117 -0.34619141 0 0 0 0
0.14538574 0.073120117 -0.34619141 0 0 0 0
0.14599609 0.072875977 -0.34521484 0 0 0 0
0.14660645 0.072692871 -0.34423828 0 0 0 0
0.14770508 0.072692871 -0.34423828 0 0 0 0
0.14831543 0.07244873 -0.34326172 0 0 0 0
0.14892578 0.072265625 -0.34228516 0 0 0 0
0.14953613 0.072021484 -0.34130859 0 0 0 0
0.15026855 0.071838379 -0.34008789 0 0 0 0
0.15124512 0.071838379 -0.34008789 0 0 0 0
0.15185547 0.071594238 -0.33911133 0 0 0 0
0.15246582 0.071411133 -0.33813477 0 0 0 0
0.15307617 0.071166992 -0.3371582 0 0 0 0
0.15368652 0.070983887 -0.33618164 0 0 0 0
0.15466309 0.070983887 -0.33618164 0 0 0 0
0.15478516 0.070556641 -0.33422852 0 0 0 0
0.15490723 0.070129395 -0.33227539 0 0 0 0
0.1550293 0.069702148 -0.33007812 0 0 0 0
0.15551758 0.069519043 -0.32910156 0 0 0 0
0.15612793 0.069274902 -0.328125 0 0 0 0
0.15661621 0.069091797 -0.32714844 0 0 0 0
0.15673828 0.068664551 -0.32519531 0 0 0 0
0.15771484 0.068664551 -0.32519531 0 0 0 0
0.15820312 0.06842041 -0.32421875 0 0 0 0
