ply
format ascii 1.0
comment PCL generated
element vertex 1032
property float x
property float y
property float z
property float nx
property float ny
property float nz
property float curvature
element face 0
element camera 0
property float view_px
property float view_py
property float view_pz
property float x_axisx
property float x_axisy
property float x_axisz
property float y_axisx
property float y_axisy
property float y_axisz
property float z_axisx
property float z_axisy
property float z_axisz
property float focal
property float scalex
property float scaley
property float centerx
property float centery
property int viewportx
property int viewporty
property float k1
property float k2
end_header
-0.10760498 0.0035438538 -0.38549805 0 0 0 0
-0.10699463 0.0035610199 -0.38745117 0 0 0 0
-0.097106934 0.0033855438 -0.3684082 0 0 0 0
-0.095703125 0.0033779144 -0.36743164 0 0 0 0
-0.094604492 0.0033779144 -0.36743164 0 0 0 0
-0.093200684 0.0033683777 -0.36621094 0 0 0 0
-0.092041016 0.0033683777 -0.36621094 0 0 0 0
-0.090637207 0.0033588409 -0.36523438 0 0 0 0
-0.088806152 0.0033302307 -0.36230469 0 0 0 0
-0.087646484 0.0033302307 -0.36230469 0 0 0 0
-0.087036133 0.0033493042 -0.36425781 0 0 0 0
-0.085876465 0.0033493042 -0.36425781 0 0 0 0
-0.083374023 0.0032939911 -0.35839844 0 0 0 0
-0.071289062 0.003156662 -0.34326172 0 0 0 0
-0.07043457 0.0031642914 -0.34423828 0 0 0 0
-0.069396973 0.0031642914 -0.34423828 0 0 0 0
-0.06829834 0.0031642914 -0.34423828 0 0 0 0
-0.067260742 0.0031642914 -0.34423828 0 0 0 0
-0.066162109 0.0031642914 -0.34423828 0 0 0 0
-0.065307617 0.0031738281 -0.34521484 0 0 0 0
-0.064208984 0.0031738281 -0.34521484 0 0 0 0
-0.063171387 0.0031738281 -0.34521484 0 0 0 0
-0.065673828 0.0033588409 -0.36523438 0 0 0 0
-0.06451416 0.0033588409 -0.36523438 0 0 0 0
-0.063232422 0.0033493042 -0.36425781 0 0 0 0
-0.062103271 0.0033493042 -0.36425781 0 0 0 0
-0.060821533 0.0033397675 -0.36328125 0 0 0 0
-0.059509277 0.0033302307 -0.36230469 0 0 0 0
-0.058227539 0.0033226013 -0.36132812 0 0 0 0
-0.056945801 0.0033130646 -0.36035156 0 0 0 0
-0.055664062 0.0033035278 -0.359375 0 0 0 0
-0.054412842 0.0032939911 -0.35839844 0 0 0 0
-0.053283691 0.0032939911 -0.35839844 0 0 0 0
-0.052032471 0.0032844543 -0.35717773 0 0 0 0
-0.050933838 0.0032844543 -0.35717773 0 0 0 0
-0.049682617 0.0032749176 -0.35620117 0 0 0 0
-0.048553467 0.0032749176 -0.35620117 0 0 0 0
-0.047332764 0.0032672882 -0.35522461 0 0 0 0
-0.046234131 0.0032672882 -0.35522461 0 0 0 0
-0.04498291 0.0032577515 -0.35424805 0 0 0 0
-0.043884277 0.0032577515 -0.35424805 0 0 0 0
-0.042663574 0.0032482147 -0.35327148 0 0 0 0
-0.041564941 0.0032482147 -0.35327148 0 0 0 0
-0.040466309 0.0032482147 -0.35327148 0 0 0 0
-0.031860352 0.0030536652 -0.33227539 0 0 0 0
-0.03074646 0.0030441284 -0.33105469 0 0 0 0
-0.029708862 0.0030441284 -0.33105469 0 0 0 0
-0.028594971 0.003036499 -0.33007812 0 0 0 0
-0.027572632 0.003036499 -0.33007812 0 0 0 0
-0.02645874 0.0030269623 -0.32910156 0 0 0 0
-0.025436401 0.0030269623 -0.32910156 0 0 0 0
-0.024414062 0.0030269623 -0.32910156 0 0 0 0
-0.023391724 0.0030269623 -0.32910156 0 0 0 0
-0.02230835 0.0030174255 -0.328125 0 0 0 0
-0.021286011 0.0030174255 -0.328125 0 0 0 0
-0.020263672 0.0030174255 -0.328125 0 0 0 0
-0.019241333 0.0030174255 -0.328125 0 0 0 0
-0.018173218 0.0030078888 -0.32714844 0 0 0 0
-0.017150879 0.0030078888 -0.32714844 0 0 0 0
-0.016143799 0.0030078888 -0.32714844 0 0 0 0
-0.01512146 0.0030078888 -0.32714844 0 0 0 0
-0.01410675 0.0030078888 -0.32714844 0 0 0 0
-0.013046265 0.0029983521 -0.32617188 0 0 0 0
-0.012039185 0.0029983521 -0.32617188 0 0 0 0
-0.011024475 0.0029983521 -0.32617188 0 0 0 0
-0.010009766 0.0029983521 -0.32617188 0 0 0 0
-0.0089645386 0.0029888153 -0.32519531 0 0 0 0
-0.0079574585 0.0029888153 -0.32519531 0 0 0 0
-0.0069465637 0.0029888153 -0.32519531 0 0 0 0
-0.0059356689 0.0029888153 -0.32519531 0 0 0 0
-0.0049285889 0.0029888153 -0.32519531 0 0 0 0
-0.0039176941 0.0029888153 -0.32519531 0 0 0 0
-0.0029067993 0.0029888153 -0.32519531 0 0 0 0
-0.0018901825 0.0029811859 -0.32421875 0 0 0 0
-0.00088357925 0.0029811859 -0.32421875 0 0 0 0
0.00012373924 0.0029811859 -0.32421875 0 0 0 0
0.001127243 0.0029716492 -0.32324219 0 0 0 0
0.0021305084 0.0029716492 -0.32324219 0 0 0 0
0.0031261444 0.0029621124 -0.32202148 0 0 0 0
0.0041275024 0.0029621124 -0.32202148 0 0 0 0
0.0051116943 0.0029525757 -0.32104492 0 0 0 0
0.006111145 0.0029525757 -0.32104492 0 0 0 0
0.0070838928 0.0029430389 -0.32006836 0 0 0 0
0.0080795288 0.0029430389 -0.32006836 0 0 0 0
0.0090408325 0.0029335022 -0.3190918 0 0 0 0
0.010040283 0.0029335022 -0.3190918 0 0 0 0
0.011032104 0.0029335022 -0.3190918 0 0 0 0
0.011985779 0.0029258728 -0.31811523 0 0 0 0
0.012969971 0.0029258728 -0.31811523 0 0 0 0
0.013961792 0.0029258728 -0.31811523 0 0 0 0
0.014945984 0.0029258728 -0.31811523 0 0 0 0
0.015930176 0.0029258728 -0.31811523 0 0 0 0
0.016876221 0.0029163361 -0.31713867 0 0 0 0
0.017852783 0.0029163361 -0.31713867 0 0 0 0
0.018844604 0.0029163361 -0.31713867 0 0 0 0
0.019821167 0.0029163361 -0.31713867 0 0 0 0
0.020812988 0.0029163361 -0.31713867 0 0 0 0
0.021789551 0.0029163361 -0.31713867 0 0 0 0
0.022781372 0.0029163361 -0.31713867 0 0 0 0
0.023773193 0.0029163361 -0.31713867 0 0 0 0
0.024749756 0.0029163361 -0.31713867 0 0 0 0
0.025665283 0.0029067993 -0.31616211 0 0 0 0
0.026641846 0.0029067993 -0.31616211 0 0 0 0
0.027618408 0.0029067993 -0.31616211 0 0 0 0
0.028610229 0.0029067993 -0.31616211 0 0 0 0
0.029586792 0.0029067993 -0.31616211 0 0 0 0
0.030563354 0.0029067993 -0.31616211 0 0 0 0
0.031555176 0.0029067993 -0.31616211 0 0 0 0
0.032531738 0.0029067993 -0.31616211 0 0 0 0
0.033508301 0.0029067993 -0.31616211 0 0 0 0
0.034606934 0.0029163361 -0.31713867 0 0 0 0
0.035583496 0.0029163361 -0.31713867 0 0 0 0
0.036560059 0.0029163361 -0.31713867 0 0 0 0
0.037567139 0.0029163361 -0.31713867 0 0 0 0
0.038543701 0.0029163361 -0.31713867 0 0 0 0
0.039520264 0.0029163361 -0.31713867 0 0 0 0
0.040374756 0.0029067993 -0.31616211 0 0 0 0
0.041381836 0.0029067993 -0.31616211 0 0 0 0
0.042205811 0.0028972626 -0.31518555 0 0 0 0
0.043182373 0.0028972626 -0.31518555 0 0 0 0
0.044036865 0.0028877258 -0.31420898 0 0 0 0
0.045013428 0.0028877258 -0.31420898 0 0 0 0
0.045837402 0.0028781891 -0.31298828 0 0 0 0
0.046813965 0.0028781891 -0.31298828 0 0 0 0
0.047790527 0.0028781891 -0.31298828 0 0 0 0
0.04876709 0.0028781891 -0.31298828 0 0 0 0
0.049743652 0.0028781891 -0.31298828 0 0 0 0
0.050537109 0.0028686523 -0.31201172 0 0 0 0
0.051513672 0.0028686523 -0.31201172 0 0 0 0
0.052490234 0.0028686523 -0.31201172 0 0 0 0
0.053466797 0.0028686523 -0.31201172 0 0 0 0
0.054412842 0.0028686523 -0.31201172 0 0 0 0
0.055389404 0.0028686523 -0.31201172 0 0 0 0
0.056365967 0.0028686523 -0.31201172 0 0 0 0
0.057342529 0.0028686523 -0.31201172 0 0 0 0
0.058319092 0.0028686523 -0.31201172 0 0 0 0
0.059265137 0.0028686523 -0.31201172 0 0 0 0
0.060241699 0.0028686523 -0.31201172 0 0 0 0
0.061004639 0.0028610229 -0.31103516 0 0 0 0
0.061981201 0.0028610229 -0.31103516 0 0 0 0
0.062927246 0.0028610229 -0.31103516 0 0 0 0
0.063903809 0.0028610229 -0.31103516 0 0 0 0
0.064880371 0.0028610229 -0.31103516 0 0 0 0
0.065856934 0.0028610229 -0.31103516 0 0 0 0
0.066833496 0.0028610229 -0.31103516 0 0 0 0
0.080505371 0.0032577515 -0.35424805 0 0 0 0
0.081604004 0.0032577515 -0.35424805 0 0 0 0
0.082702637 0.0032577515 -0.35424805 0 0 0 0
0.08380127 0.0032577515 -0.35424805 0 0 0 0
0.084899902 0.0032577515 -0.35424805 0 0 0 0
0.085998535 0.0032577515 -0.35424805 0 0 0 0
0.087097168 0.0032577515 -0.35424805 0 0 0 0
0.088195801 0.0032577515 -0.35424805 0 0 0 0
0.089294434 0.0032577515 -0.35424805 0 0 0 0
0.090393066 0.0032577515 -0.35424805 0 0 0 0
0.091491699 0.0032577515 -0.35424805 0 0 0 0
0.092590332 0.0032577515 -0.35424805 0 0 0 0
0.093688965 0.0032577515 -0.35424805 0 0 0 0
0.094787598 0.0032577515 -0.35424805 0 0 0 0
0.09588623 0.0032577515 -0.35424805 0 0 0 0
0.096984863 0.0032577515 -0.35424805 0 0 0 0
0.098083496 0.0032577515 -0.35424805 0 0 0 0
0.099182129 0.0032577515 -0.35424805 0 0 0 0
0.10028076 0.0032577515 -0.35424805 0 0 0 0
0.10137939 0.0032577515 -0.35424805 0 0 0 0
0.10247803 0.0032577515 -0.35424805 0 0 0 0
0.10357666 0.0032577515 -0.35424805 0 0 0 0
0.10467529 0.0032577515 -0.35424805 0 0 0 0
0.10577393 0.0032577515 -0.35424805 0 0 0 0
0.10687256 0.0032577515 -0.35424805 0 0 0 0
0.10803223 0.0032577515 -0.35424805 0 0 0 0
0.10913086 0.0032577515 -0.35424805 0 0 0 0
0.11022949 0.0032577515 -0.35424805 0 0 0 0
0.11132812 0.0032577515 -0.35424805 0 0 0 0
0.11242676 0.0032577515 -0.35424805 0 0 0 0
0.11352539 0.0032577515 -0.35424805 0 0 0 0
0.11462402 0.0032577515 -0.35424805 0 0 0 0
0.11535645 0.0032482147 -0.35327148 0 0 0 0
0.11645508 0.0032482147 -0.35327148 0 0 0 0
0.11755371 0.0032482147 -0.35327148 0 0 0 0
0.11865234 0.0032482147 -0.35327148 0 0 0 0
0.11975098 0.0032482147 -0.35327148 0 0 0 0
0.12084961 0.0032482147 -0.35327148 0 0 0 0
0.12194824 0.0032482147 -0.35327148 0 0 0 0
0.12304688 0.0032482147 -0.35327148 0 0 0 0
0.12414551 0.0032482147 -0.35327148 0 0 0 0
0.12524414 0.0032482147 -0.35327148 0 0 0 0
0.12634277 0.0032482147 -0.35327148 0 0 0 0
0.12744141 0.0032482147 -0.35327148 0 0 0 0
0.12854004 0.0032482147 -0.35327148 0 0 0 0
0.12963867 0.0032482147 -0.35327148 0 0 0 0
0.1307373 0.0032482147 -0.35327148 0 0 0 0
0.13183594 0.0032482147 -0.35327148 0 0 0 0
0.13293457 0.0032482147 -0.35327148 0 0 0 0
0.1340332 0.0032482147 -0.35327148 0 0 0 0
-0.12139893 0.0023574829 -0.38745117 0 0 0 0
-0.12023926 0.0023574829 -0.38745117 0 0 0 0
-0.11871338 0.0023517609 -0.38647461 0 0 0 0
-0.11749268 0.0023517609 -0.38647461 0 0 0 0
-0.11627197 0.0023517609 -0.38647461 0 0 0 0
-0.1151123 0.0023517609 -0.38647461 0 0 0 0
-0.11358643 0.0023460388 -0.38549805 0 0 0 0
-0.11242676 0.0023460388 -0.38549805 0 0 0 0
-0.11120605 0.0023460388 -0.38549805 0 0 0 0
-0.10998535 0.0023460388 -0.38549805 0 0 0 0
-0.10882568 0.0023460388 -0.38549805 0 0 0 0
-0.10760498 0.0023460388 -0.38549805 0 0 0 0
-0.10644531 0.0023460388 -0.38549805 0 0 0 0
-0.094055176 0.0022239685 -0.36523438 0 0 0 0
-0.092956543 0.0022239685 -0.36523438 0 0 0 0
-0.08807373 0.0021877289 -0.359375 0 0 0 0
-0.080383301 0.0021324158 -0.3503418 0 0 0 0
-0.079101562 0.0021247864 -0.34912109 0 0 0 0
-0.078186035 0.0021324158 -0.3503418 0 0 0 0
-0.076904297 0.0021247864 -0.34912109 0 0 0 0
-0.075622559 0.0021190643 -0.34814453 0 0 0 0
-0.072387695 0.0020885468 -0.34326172 0 0 0 0
-0.071289062 0.0020885468 -0.34326172 0 0 0 0
-0.070251465 0.0020885468 -0.34326172 0 0 0 0
-0.069152832 0.0020885468 -0.34326172 0 0 0 0
-0.068115234 0.0020885468 -0.34326172 0 0 0 0
-0.067260742 0.0020942688 -0.34423828 0 0 0 0
-0.066162109 0.0020942688 -0.34423828 0 0 0 0
-0.065124512 0.0020942688 -0.34423828 0 0 0 0
-0.064208984 0.0021018982 -0.34521484 0 0 0 0
-0.063171387 0.0021018982 -0.34521484 0 0 0 0
-0.065673828 0.0022239685 -0.36523438 0 0 0 0
-0.06451416 0.0022239685 -0.36523438 0 0 0 0
-0.063232422 0.0022182465 -0.36425781 0 0 0 0
-0.062103271 0.0022182465 -0.36425781 0 0 0 0
-0.060821533 0.0022106171 -0.36328125 0 0 0 0
-0.059509277 0.002204895 -0.36230469 0 0 0 0
-0.058074951 0.0021934509 -0.36035156 0 0 0 0
-0.056945801 0.0021934509 -0.36035156 0 0 0 0
-0.055664062 0.0021877289 -0.359375 0 0 0 0
-0.054412842 0.0021800995 -0.35839844 0 0 0 0
-0.053283691 0.0021800995 -0.35839844 0 0 0 0
-0.052032471 0.0021743774 -0.35717773 0 0 0 0
-0.050933838 0.0021743774 -0.35717773 0 0 0 0
-0.049682617 0.0021686554 -0.35620117 0 0 0 0
-0.048431396 0.0021629333 -0.35522461 0 0 0 0
-0.047332764 0.0021629333 -0.35522461 0 0 0 0
-0.046081543 0.002155304 -0.35424805 0 0 0 0
-0.04498291 0.002155304 -0.35424805 0 0 0 0
-0.043884277 0.002155304 -0.35424805 0 0 0 0
-0.042663574 0.0021495819 -0.35327148 0 0 0 0
-0.041564941 0.0021495819 -0.35327148 0 0 0 0
-0.040466309 0.0021495819 -0.35327148 0 0 0 0
-0.033935547 0.0020217896 -0.33227539 0 0 0 0
-0.032897949 0.0020217896 -0.33227539 0 0 0 0
-0.031860352 0.0020217896 -0.33227539 0 0 0 0
-0.03074646 0.0020160675 -0.33105469 0 0 0 0
-0.029708862 0.0020160675 -0.33105469 0 0 0 0
-0.028594971 0.0020103455 -0.33007812 0 0 0 0
-0.027572632 0.0020103455 -0.33007812 0 0 0 0
-0.02645874 0.0020027161 -0.32910156 0 0 0 0
-0.025436401 0.0020027161 -0.32910156 0 0 0 0
-0.024414062 0.0020027161 -0.32910156 0 0 0 0
-0.023330688 0.001996994 -0.328125 0 0 0 0
-0.02230835 0.001996994 -0.328125 0 0 0 0
-0.021286011 0.001996994 -0.328125 0 0 0 0
-0.020202637 0.001991272 -0.32714844 0 0 0 0
-0.019180298 0.001991272 -0.32714844 0 0 0 0
-0.018173218 0.001991272 -0.32714844 0 0 0 0
-0.017150879 0.001991272 -0.32714844 0 0 0 0
-0.016082764 0.0019855499 -0.32617188 0 0 0 0
-0.015075684 0.0019855499 -0.32617188 0 0 0 0
-0.014060974 0.0019855499 -0.32617188 0 0 0 0
-0.013046265 0.0019855499 -0.32617188 0 0 0 0
-0.012039185 0.0019855499 -0.32617188 0 0 0 0
-0.011024475 0.0019855499 -0.32617188 0 0 0 0
-0.009979248 0.0019798279 -0.32519531 0 0 0 0
-0.0089645386 0.0019798279 -0.32519531 0 0 0 0
-0.0079574585 0.0019798279 -0.32519531 0 0 0 0
-0.0069465637 0.0019798279 -0.32519531 0 0 0 0
-0.0059356689 0.0019798279 -0.32519531 0 0 0 0
-0.0049285889 0.0019798279 -0.32519531 0 0 0 0
-0.0039176941 0.0019798279 -0.32519531 0 0 0 0
-0.0029067993 0.0019798279 -0.32519531 0 0 0 0
-0.0018901825 0.0019721985 -0.32421875 0 0 0 0
-0.00088357925 0.0019721985 -0.32421875 0 0 0 0
0.00012373924 0.0019721985 -0.32421875 0 0 0 0
0.0011310577 0.0019721985 -0.32421875 0 0 0 0
0.0021305084 0.0019664764 -0.32324219 0 0 0 0
0.0031356812 0.0019664764 -0.32324219 0 0 0 0
0.0041275024 0.0019607544 -0.32202148 0 0 0 0
0.0051116943 0.0019550323 -0.32104492 0 0 0 0
0.006111145 0.0019550323 -0.32104492 0 0 0 0
0.0070838928 0.0019493103 -0.32006836 0 0 0 0
0.0080795288 0.0019493103 -0.32006836 0 0 0 0
0.0090408325 0.0019426346 -0.3190918 0 0 0 0
0.010040283 0.0019426346 -0.3190918 0 0 0 0
0.010993958 0.0019369125 -0.31811523 0 0 0 0
0.011985779 0.0019369125 -0.31811523 0 0 0 0
0.012969971 0.0019369125 -0.31811523 0 0 0 0
0.013961792 0.0019369125 -0.31811523 0 0 0 0
0.014945984 0.0019369125 -0.31811523 0 0 0 0
0.015884399 0.0019302368 -0.31713867 0 0 0 0
0.016876221 0.0019302368 -0.31713867 0 0 0 0
0.017852783 0.0019302368 -0.31713867 0 0 0 0
0.018844604 0.0019302368 -0.31713867 0 0 0 0
0.019821167 0.0019302368 -0.31713867 0 0 0 0
0.020812988 0.0019302368 -0.31713867 0 0 0 0
0.021789551 0.0019302368 -0.31713867 0 0 0 0
0.022781372 0.0019302368 -0.31713867 0 0 0 0
0.023773193 0.0019302368 -0.31713867 0 0 0 0
0.024749756 0.0019302368 -0.31713867 0 0 0 0
0.025665283 0.0019245148 -0.31616211 0 0 0 0
0.026641846 0.0019245148 -0.31616211 0 0 0 0
0.027618408 0.0019245148 -0.31616211 0 0 0 0
0.028610229 0.0019245148 -0.31616211 0 0 0 0
0.029586792 0.0019245148 -0.31616211 0 0 0 0
0.030563354 0.0019245148 -0.31616211 0 0 0 0
0.031555176 0.0019245148 -0.31616211 0 0 0 0
0.032531738 0.0019245148 -0.31616211 0 0 0 0
0.033508301 0.0019245148 -0.31616211 0 0 0 0
0.034606934 0.0019302368 -0.31713867 0 0 0 0
0.035583496 0.0019302368 -0.31713867 0 0 0 0
0.036560059 0.0019302368 -0.31713867 0 0 0 0
0.037567139 0.0019302368 -0.31713867 0 0 0 0
0.038543701 0.0019302368 -0.31713867 0 0 0 0
0.039520264 0.0019302368 -0.31713867 0 0 0 0
0.040527344 0.0019302368 -0.31713867 0 0 0 0
0.041381836 0.0019245148 -0.31616211 0 0 0 0
0.042358398 0.0019245148 -0.31616211 0 0 0 0
0.043182373 0.0019187927 -0.31518555 0 0 0 0
0.044189453 0.0019187927 -0.31518555 0 0 0 0
0.045013428 0.001912117 -0.31420898 0 0 0 0
0.04598999 0.001912117 -0.31420898 0 0 0 0
0.046966553 0.001912117 -0.31420898 0 0 0 0
0.047943115 0.001912117 -0.31420898 0 0 0 0
0.04876709 0.001906395 -0.31298828 0 0 0 0
0.049743652 0.001906395 -0.31298828 0 0 0 0
0.050720215 0.001906395 -0.31298828 0 0 0 0
0.05166626 0.001906395 -0.31298828 0 0 0 0
0.052642822 0.001906395 -0.31298828 0 0 0 0
0.053466797 0.0018997192 -0.31201172 0 0 0 0
0.054412842 0.0018997192 -0.31201172 0 0 0 0
0.055389404 0.0018997192 -0.31201172 0 0 0 0
0.056365967 0.0018997192 -0.31201172 0 0 0 0
0.057342529 0.0018997192 -0.31201172 0 0 0 0
0.058319092 0.0018997192 -0.31201172 0 0 0 0
0.059265137 0.0018997192 -0.31201172 0 0 0 0
0.060241699 0.0018997192 -0.31201172 0 0 0 0
0.061218262 0.0018997192 -0.31201172 0 0 0 0
0.062194824 0.0018997192 -0.31201172 0 0 0 0
0.062927246 0.0018939972 -0.31103516 0 0 0 0
0.063903809 0.0018939972 -0.31103516 0 0 0 0
0.064880371 0.0018939972 -0.31103516 0 0 0 0
0.065856934 0.0018939972 -0.31103516 0 0 0 0
0.07824707 0.002155304 -0.35424805 0 0 0 0
0.079406738 0.002155304 -0.35424805 0 0 0 0
0.080505371 0.002155304 -0.35424805 0 0 0 0
0.081604004 0.002155304 -0.35424805 0 0 0 0
0.082702637 0.002155304 -0.35424805 0 0 0 0
0.08380127 0.002155304 -0.35424805 0 0 0 0
0.084899902 0.002155304 -0.35424805 0 0 0 0
0.085998535 0.002155304 -0.35424805 0 0 0 0
0.087097168 0.002155304 -0.35424805 0 0 0 0
0.088195801 0.002155304 -0.35424805 0 0 0 0
0.089294434 0.002155304 -0.35424805 0 0 0 0
0.090393066 0.002155304 -0.35424805 0 0 0 0
0.091491699 0.002155304 -0.35424805 0 0 0 0
0.092590332 0.002155304 -0.35424805 0 0 0 0
0.093688965 0.002155304 -0.35424805 0 0 0 0
0.094787598 0.002155304 -0.35424805 0 0 0 0
0.09588623 0.002155304 -0.35424805 0 0 0 0
0.096984863 0.002155304 -0.35424805 0 0 0 0
0.098083496 0.002155304 -0.35424805 0 0 0 0
0.099182129 0.002155304 -0.35424805 0 0 0 0
0.10028076 0.002155304 -0.35424805 0 0 0 0
0.10137939 0.002155304 -0.35424805 0 0 0 0
0.10247803 0.002155304 -0.35424805 0 0 0 0
0.10357666 0.002155304 -0.35424805 0 0 0 0
0.10467529 0.002155304 -0.35424805 0 0 0 0
0.10577393 0.002155304 -0.35424805 0 0 0 0
0.10687256 0.002155304 -0.35424805 0 0 0 0
0.10803223 0.002155304 -0.35424805 0 0 0 0
0.10913086 0.002155304 -0.35424805 0 0 0 0
0.11022949 0.002155304 -0.35424805 0 0 0 0
0.11132812 0.002155304 -0.35424805 0 0 0 0
0.11242676 0.002155304 -0.35424805 0 0 0 0
0.11315918 0.0021495819 -0.35327148 0 0 0 0
0.11425781 0.0021495819 -0.35327148 0 0 0 0
0.11535645 0.0021495819 -0.35327148 0 0 0 0
0.11645508 0.0021495819 -0.35327148 0 0 0 0
0.11755371 0.0021495819 -0.35327148 0 0 0 0
0.11865234 0.0021495819 -0.35327148 0 0 0 0
0.11975098 0.0021495819 -0.35327148 0 0 0 0
0.12084961 0.0021495819 -0.35327148 0 0 0 0
0.12194824 0.0021495819 -0.35327148 0 0 0 0
0.12304688 0.0021495819 -0.35327148 0 0 0 0
0.12414551 0.0021495819 -0.35327148 0 0 0 0
0.12524414 0.0021495819 -0.35327148 0 0 0 0
0.12634277 0.0021495819 -0.35327148 0 0 0 0
0.12744141 0.0021495819 -0.35327148 0 0 0 0
0.12854004 0.0021495819 -0.35327148 0 0 0 0
0.12963867 0.0021495819 -0.35327148 0 0 0 0
0.1307373 0.0021495819 -0.35327148 0 0 0 0
0.13183594 0.0021495819 -0.35327148 0 0 0 0
0.13293457 0.0021495819 -0.35327148 0 0 0 0
0.1340332 0.0021495819 -0.35327148 0 0 0 0
-0.12139893 0.0011548996 -0.38745117 0 0 0 0
-0.12023926 0.0011548996 -0.38745117 0 0 0 0
-0.11871338 0.0011510849 -0.38647461 0 0 0 0
-0.11749268 0.0011510849 -0.38647461 0 0 0 0
-0.11602783 0.0011482239 -0.38549805 0 0 0 0
-0.11480713 0.0011482239 -0.38549805 0 0 0 0
-0.11358643 0.0011482239 -0.38549805 0 0 0 0
-0.11212158 0.0011453629 -0.38427734 0 0 0 0
-0.11090088 0.0011453629 -0.38427734 0 0 0 0
-0.10974121 0.0011453629 -0.38427734 0 0 0 0
-0.10852051 0.0011453629 -0.38427734 0 0 0 0
-0.10705566 0.0011425018 -0.38330078 0 0 0 0
-0.10583496 0.0011425018 -0.38330078 0 0 0 0
-0.087646484 0.0010528564 -0.35327148 0 0 0 0
-0.086303711 0.0010499954 -0.35229492 0 0 0 0
-0.085205078 0.0010499954 -0.35229492 0 0 0 0
-0.084106445 0.0010499954 -0.35229492 0 0 0 0
-0.082824707 0.0010471344 -0.35131836 0 0 0 0
-0.081481934 0.0010433197 -0.3503418 0 0 0 0
-0.080383301 0.0010433197 -0.3503418 0 0 0 0
-0.079101562 0.0010404587 -0.34912109 0 0 0 0
-0.07800293 0.0010404587 -0.34912109 0 0 0 0
-0.076660156 0.0010375977 -0.34814453 0 0 0 0
-0.075378418 0.0010347366 -0.34716797 0 0 0 0
-0.073852539 0.0010290146 -0.34521484 0 0 0 0
-0.072570801 0.0010261536 -0.34423828 0 0 0 0
-0.071289062 0.0010223389 -0.34326172 0 0 0 0
-0.070251465 0.0010223389 -0.34326172 0 0 0 0
-0.069152832 0.0010223389 -0.34326172 0 0 0 0
-0.068115234 0.0010223389 -0.34326172 0 0 0 0
-0.067016602 0.0010223389 -0.34326172 0 0 0 0
-0.065979004 0.0010223389 -0.34326172 0 0 0 0
-0.065124512 0.0010261536 -0.34423828 0 0 0 0
-0.064025879 0.0010261536 -0.34423828 0 0 0 0
-0.063171387 0.0010290146 -0.34521484 0 0 0 0
-0.065673828 0.0010881424 -0.36523438 0 0 0 0
-0.06451416 0.0010881424 -0.36523438 0 0 0 0
-0.063232422 0.0010852814 -0.36425781 0 0 0 0
-0.062103271 0.0010852814 -0.36425781 0 0 0 0
-0.060821533 0.0010824203 -0.36328125 0 0 0 0
-0.059356689 0.0010766983 -0.36132812 0 0 0 0
-0.058074951 0.0010738373 -0.36035156 0 0 0 0
-0.056793213 0.0010709763 -0.359375 0 0 0 0
-0.055664062 0.0010709763 -0.359375 0 0 0 0
-0.054412842 0.0010681152 -0.35839844 0 0 0 0
-0.053283691 0.0010681152 -0.35839844 0 0 0 0
-0.052032471 0.0010643005 -0.35717773 0 0 0 0
-0.05078125 0.0010614395 -0.35620117 0 0 0 0
-0.049682617 0.0010614395 -0.35620117 0 0 0 0
-0.048431396 0.0010585785 -0.35522461 0 0 0 0
-0.047332764 0.0010585785 -0.35522461 0 0 0 0
-0.046081543 0.0010557175 -0.35424805 0 0 0 0
-0.04498291 0.0010557175 -0.35424805 0 0 0 0
-0.043762207 0.0010528564 -0.35327148 0 0 0 0
-0.042663574 0.0010528564 -0.35327148 0 0 0 0
-0.041564941 0.0010528564 -0.35327148 0 0 0 0
-0.040466309 0.0010528564 -0.35327148 0 0 0 0
-0.034973145 0.00098991394 -0.33227539 0 0 0 0
-0.033935547 0.00098991394 -0.33227539 0 0 0 0
-0.032897949 0.00098991394 -0.33227539 0 0 0 0
-0.031768799 0.00098705292 -0.33105469 0 0 0 0
-0.03074646 0.00098705292 -0.33105469 0 0 0 0
-0.02961731 0.00098419189 -0.33007812 0 0 0 0
-0.028594971 0.00098419189 -0.33007812 0 0 0 0
-0.027481079 0.00098133087 -0.32910156 0 0 0 0
-0.02645874 0.00098133087 -0.32910156 0 0 0 0
-0.025436401 0.00098133087 -0.32910156 0 0 0 0
-0.024337769 0.00097751617 -0.328125 0 0 0 0
-0.023330688 0.00097751617 -0.328125 0 0 0 0
-0.02230835 0.00097751617 -0.328125 0 0 0 0
-0.021224976 0.00097513199 -0.32714844 0 0 0 0
-0.020202637 0.00097513199 -0.32714844 0 0 0 0
-0.019180298 0.00097513199 -0.32714844 0 0 0 0
-0.018112183 0.00097227097 -0.32617188 0 0 0 0
-0.017105103 0.00097227097 -0.32617188 0 0 0 0
-0.016082764 0.00097227097 -0.32617188 0 0 0 0
-0.015075684 0.00097227097 -0.32617188 0 0 0 0
-0.014060974 0.00097227097 -0.32617188 0 0 0 0
-0.013046265 0.00097227097 -0.32617188 0 0 0 0
-0.012001038 0.00096893311 -0.32519531 0 0 0 0
-0.010986328 0.00096893311 -0.32519531 0 0 0 0
-0.009979248 0.00096893311 -0.32519531 0 0 0 0
-0.0089645386 0.00096893311 -0.32519531 0 0 0 0
-0.0079574585 0.00096893311 -0.32519531 0 0 0 0
-0.0069465637 0.00096893311 -0.32519531 0 0 0 0
-0.0059356689 0.00096893311 -0.32519531 0 0 0 0
-0.0049285889 0.00096893311 -0.32519531 0 0 0 0
-0.0039176941 0.00096893311 -0.32519531 0 0 0 0
-0.0029067993 0.00096893311 -0.32519531 0 0 0 0
-0.0018968582 0.00096893311 -0.32519531 0 0 0 0
-0.00088357925 0.00096607208 -0.32421875 0 0 0 0
0.00012373924 0.00096607208 -0.32421875 0 0 0 0
0.0011310577 0.00096607208 -0.32421875 0 0 0 0
0.0021305084 0.00096321106 -0.32324219 0 0 0 0
0.0031356812 0.00096321106 -0.32324219 0 0 0 0
0.0041275024 0.00096035004 -0.32202148 0 0 0 0
0.0051269531 0.00096035004 -0.32202148 0 0 0 0
0.006111145 0.00095701218 -0.32104492 0 0 0 0
0.0070838928 0.00095415115 -0.32006836 0 0 0 0
0.0080795288 0.00095415115 -0.32006836 0 0 0 0
0.0090408325 0.00095129013 -0.3190918 0 0 0 0
0.010040283 0.00095129013 -0.3190918 0 0 0 0
0.010993958 0.00094842911 -0.31811523 0 0 0 0
0.011985779 0.00094842911 -0.31811523 0 0 0 0
0.012969971 0.00094842911 -0.31811523 0 0 0 0
0.013961792 0.00094842911 -0.31811523 0 0 0 0
0.014900208 0.00094509125 -0.31713867 0 0 0 0
0.015884399 0.00094509125 -0.31713867 0 0 0 0
0.016876221 0.00094509125 -0.31713867 0 0 0 0
0.017852783 0.00094509125 -0.31713867 0 0 0 0
0.018844604 0.00094509125 -0.31713867 0 0 0 0
0.019821167 0.00094509125 -0.31713867 0 0 0 0
0.020812988 0.00094509125 -0.31713867 0 0 0 0
0.021789551 0.00094509125 -0.31713867 0 0 0 0
0.022781372 0.00094509125 -0.31713867 0 0 0 0
0.023773193 0.00094509125 -0.31713867 0 0 0 0
0.024749756 0.00094509125 -0.31713867 0 0 0 0
0.025665283 0.00094223022 -0.31616211 0 0 0 0
0.026641846 0.00094223022 -0.31616211 0 0 0 0
0.027618408 0.00094223022 -0.31616211 0 0 0 0
0.028610229 0.00094223022 -0.31616211 0 0 0 0
0.029586792 0.00094223022 -0.31616211 0 0 0 0
0.030563354 0.00094223022 -0.31616211 0 0 0 0
0.031555176 0.00094223022 -0.31616211 0 0 0 0
0.032531738 0.00094223022 -0.31616211 0 0 0 0
0.033630371 0.00094509125 -0.31713867 0 0 0 0
0.034606934 0.00094509125 -0.31713867 0 0 0 0
0.035583496 0.00094509125 -0.31713867 0 0 0 0
0.036560059 0.00094509125 -0.31713867 0 0 0 0
0.037689209 0.00094842911 -0.31811523 0 0 0 0
0.038665771 0.00094842911 -0.31811523 0 0 0 0
0.039520264 0.00094509125 -0.31713867 0 0 0 0
0.040527344 0.00094509125 -0.31713867 0 0 0 0
0.041381836 0.00094223022 -0.31616211 0 0 0 0
0.042358398 0.00094223022 -0.31616211 0 0 0 0
0.043182373 0.0009393692 -0.31518555 0 0 0 0
0.044189453 0.0009393692 -0.31518555 0 0 0 0
0.045166016 0.0009393692 -0.31518555 0 0 0 0
0.046142578 0.0009393692 -0.31518555 0 0 0 0
0.046966553 0.00093603134 -0.31420898 0 0 0 0
0.047943115 0.00093603134 -0.31420898 0 0 0 0
0.048919678 0.00093603134 -0.31420898 0 0 0 0
0.04989624 0.00093603134 -0.31420898 0 0 0 0
0.050872803 0.00093603134 -0.31420898 0 0 0 0
0.05166626 0.00093317032 -0.31298828 0 0 0 0
0.052642822 0.00093317032 -0.31298828 0 0 0 0
0.053619385 0.00093317032 -0.31298828 0 0 0 0
0.054595947 0.00093317032 -0.31298828 0 0 0 0
0.05557251 0.00093317032 -0.31298828 0 0 0 0
0.056549072 0.00093317032 -0.31298828 0 0 0 0
0.057525635 0.00093317032 -0.31298828 0 0 0 0
0.058502197 0.00093317032 -0.31298828 0 0 0 0
0.05947876 0.00093317032 -0.31298828 0 0 0 0
0.060424805 0.00093317032 -0.31298828 0 0 0 0
0.061401367 0.00093317032 -0.31298828 0 0 0 0
0.062194824 0.0009303093 -0.31201172 0 0 0 0
0.063110352 0.0009303093 -0.31201172 0 0 0 0
0.063903809 0.00092744827 -0.31103516 0 0 0 0
0.064880371 0.00092744827 -0.31103516 0 0 0 0
0.077148438 0.0010557175 -0.35424805 0 0 0 0
0.07824707 0.0010557175 -0.35424805 0 0 0 0
0.079406738 0.0010557175 -0.35424805 0 0 0 0
0.080505371 0.0010557175 -0.35424805 0 0 0 0
0.081604004 0.0010557175 -0.35424805 0 0 0 0
0.082702637 0.0010557175 -0.35424805 0 0 0 0
0.08380127 0.0010557175 -0.35424805 0 0 0 0
0.084899902 0.0010557175 -0.35424805 0 0 0 0
0.085998535 0.0010557175 -0.35424805 0 0 0 0
0.087097168 0.0010557175 -0.35424805 0 0 0 0
0.088195801 0.0010557175 -0.35424805 0 0 0 0
0.089294434 0.0010557175 -0.35424805 0 0 0 0
0.090393066 0.0010557175 -0.35424805 0 0 0 0
0.091491699 0.0010557175 -0.35424805 0 0 0 0
0.092590332 0.0010557175 -0.35424805 0 0 0 0
0.093688965 0.0010557175 -0.35424805 0 0 0 0
0.094787598 0.0010557175 -0.35424805 0 0 0 0
0.09588623 0.0010557175 -0.35424805 0 0 0 0
0.096984863 0.0010557175 -0.35424805 0 0 0 0
0.098083496 0.0010557175 -0.35424805 0 0 0 0
0.099182129 0.0010557175 -0.35424805 0 0 0 0
0.10028076 0.0010557175 -0.35424805 0 0 0 0
0.10137939 0.0010557175 -0.35424805 0 0 0 0
0.10247803 0.0010557175 -0.35424805 0 0 0 0
0.10357666 0.0010557175 -0.35424805 0 0 0 0
0.10467529 0.0010557175 -0.35424805 0 0 0 0
0.10577393 0.0010557175 -0.35424805 0 0 0 0
0.10687256 0.0010557175 -0.35424805 0 0 0 0
0.10803223 0.0010557175 -0.35424805 0 0 0 0
0.10913086 0.0010557175 -0.35424805 0 0 0 0
0.11022949 0.0010557175 -0.35424805 0 0 0 0
0.11132812 0.0010557175 -0.35424805 0 0 0 0
0.11206055 0.0010528564 -0.35327148 0 0 0 0
0.11315918 0.0010528564 -0.35327148 0 0 0 0
0.11425781 0.0010528564 -0.35327148 0 0 0 0
0.11535645 0.0010528564 -0.35327148 0 0 0 0
0.11645508 0.0010528564 -0.35327148 0 0 0 0
0.11755371 0.0010528564 -0.35327148 0 0 0 0
0.11865234 0.0010528564 -0.35327148 0 0 0 0
0.11975098 0.0010528564 -0.35327148 0 0 0 0
0.12084961 0.0010528564 -0.35327148 0 0 0 0
0.12194824 0.0010528564 -0.35327148 0 0 0 0
0.12304688 0.0010528564 -0.35327148 0 0 0 0
0.12414551 0.0010528564 -0.35327148 0 0 0 0
0.12524414 0.0010528564 -0.35327148 0 0 0 0
0.12634277 0.0010528564 -0.35327148 0 0 0 0
0.12744141 0.0010528564 -0.35327148 0 0 0 0
0.12854004 0.0010528564 -0.35327148 0 0 0 0
0.12963867 0.0010528564 -0.35327148 0 0 0 0
0.1307373 0.0010528564 -0.35327148 0 0 0 0
0.13183594 0.0010528564 -0.35327148 0 0 0 0
0.13293457 0.0010528564 -0.35327148 0 0 0 0
0.1340332 0.0010528564 -0.35327148 0 0 0 0
-0.12139893 -4.8995018e-05 -0.38745117 0 0 0 0
-0.12023926 -4.8995018e-05 -0.38745117 0 0 0 0
-0.11871338 -4.8875809e-05 -0.38647461 0 0 0 0
-0.1171875 -4.8756599e-05 -0.38549805 0 0 0 0
-0.11602783 -4.8756599e-05 -0.38549805 0 0 0 0
-0.11450195 -4.863739e-05 -0.38427734 0 0 0 0
-0.11328125 -4.863739e-05 -0.38427734 0 0 0 0
-0.11181641 -4.8518181e-05 -0.38330078 0 0 0 0
-0.11065674 -4.8518181e-05 -0.38330078 0 0 0 0
-0.10943604 -4.8518181e-05 -0.38330078 0 0 0 0
-0.10797119 -4.8339367e-05 -0.38232422 0 0 0 0
-0.10675049 -4.8339367e-05 -0.38232422 0 0 0 0
-0.10528564 -4.8220158e-05 -0.38134766 0 0 0 0
-0.088745117 -4.4703484e-05 -0.35327148 0 0 0 0
-0.087402344 -4.452467e-05 -0.35229492 0 0 0 0
-0.086303711 -4.452467e-05 -0.35229492 0 0 0 0
-0.084960938 -4.440546e-05 -0.35131836 0 0 0 0
-0.083862305 -4.440546e-05 -0.35131836 0 0 0 0
-0.082580566 -4.4286251e-05 -0.3503418 0 0 0 0
-0.081481934 -4.4286251e-05 -0.3503418 0 0 0 0
-0.08013916 -4.4167042e-05 -0.34912109 0 0 0 0
-0.079101562 -4.4167042e-05 -0.34912109 0 0 0 0
-0.077758789 -4.4047832e-05 -0.34814453 0 0 0 0
-0.076477051 -4.3928623e-05 -0.34716797 0 0 0 0
-0.075134277 -4.3809414e-05 -0.34619141 0 0 0 0
-0.073852539 -4.3690205e-05 -0.34521484 0 0 0 0
-0.072570801 -4.3511391e-05 -0.34423828 0 0 0 0
-0.071289062 -4.3392181e-05 -0.34326172 0 0 0 0
-0.070251465 -4.3392181e-05 -0.34326172 0 0 0 0
-0.068969727 -4.3272972e-05 -0.34228516 0 0 0 0
-0.067932129 -4.3272972e-05 -0.34228516 0 0 0 0
-0.066833496 -4.3272972e-05 -0.34228516 0 0 0 0
-0.065979004 -4.3392181e-05 -0.34326172 0 0 0 0
-0.064880371 -4.3392181e-05 -0.34326172 0 0 0 0
-0.064025879 -4.3511391e-05 -0.34423828 0 0 0 0
-0.063171387 -4.3690205e-05 -0.34521484 0 0 0 0
-0.065673828 -4.61936e-05 -0.36523438 0 0 0 0
-0.06451416 -4.61936e-05 -0.36523438 0 0 0 0
-0.063232422 -4.607439e-05 -0.36425781 0 0 0 0
-0.061950684 -4.5955181e-05 -0.36328125 0 0 0 0
-0.060821533 -4.5955181e-05 -0.36328125 0 0 0 0
-0.059356689 -4.5716763e-05 -0.36132812 0 0 0 0
-0.058074951 -4.5537949e-05 -0.36035156 0 0 0 0
-0.056793213 -4.5418739e-05 -0.359375 0 0 0 0
-0.055664062 -4.5418739e-05 -0.359375 0 0 0 0
-0.054412842 -4.529953e-05 -0.35839844 0 0 0 0
-0.053131104 -4.5180321e-05 -0.35717773 0 0 0 0
-0.052032471 -4.5180321e-05 -0.35717773 0 0 0 0
-0.05078125 -4.5061111e-05 -0.35620117 0 0 0 0
-0.049682617 -4.5061111e-05 -0.35620117 0 0 0 0
-0.048431396 -4.4941902e-05 -0.35522461 0 0 0 0
-0.047180176 -4.4822693e-05 -0.35424805 0 0 0 0
-0.046081543 -4.4822693e-05 -0.35424805 0 0 0 0
-0.04498291 -4.4822693e-05 -0.35424805 0 0 0 0
-0.043762207 -4.4703484e-05 -0.35327148 0 0 0 0
-0.042663574 -4.4703484e-05 -0.35327148 0 0 0 0
-0.041564941 -4.4703484e-05 -0.35327148 0 0 0 0
-0.034973145 -4.2021275e-05 -0.33227539 0 0 0 0
-0.033935547 -4.2021275e-05 -0.33227539 0 0 0 0
-0.032806396 -4.1902065e-05 -0.33105469 0 0 0 0
-0.031768799 -4.1902065e-05 -0.33105469 0 0 0 0
-0.03074646 -4.1902065e-05 -0.33105469 0 0 0 0
-0.02961731 -4.1782856e-05 -0.33007812 0 0 0 0
-0.028594971 -4.1782856e-05 -0.33007812 0 0 0 0
-0.027481079 -4.1604042e-05 -0.32910156 0 0 0 0
-0.02645874 -4.1604042e-05 -0.32910156 0 0 0 0
-0.025360107 -4.1484833e-05 -0.328125 0 0 0 0
-0.024337769 -4.1484833e-05 -0.328125 0 0 0 0
-0.023254395 -4.1365623e-05 -0.32714844 0 0 0 0
-0.022232056 -4.1365623e-05 -0.32714844 0 0 0 0
-0.021224976 -4.1365623e-05 -0.32714844 0 0 0 0
-0.020202637 -4.1365623e-05 -0.32714844 0 0 0 0
-0.019134521 -4.1246414e-05 -0.32617188 0 0 0 0
-0.018112183 -4.1246414e-05 -0.32617188 0 0 0 0
-0.017105103 -4.1246414e-05 -0.32617188 0 0 0 0
-0.016082764 -4.1246414e-05 -0.32617188 0 0 0 0
-0.015075684 -4.1246414e-05 -0.32617188 0 0 0 0
-0.014022827 -4.1127205e-05 -0.32519531 0 0 0 0
-0.013008118 -4.1127205e-05 -0.32519531 0 0 0 0
-0.012001038 -4.1127205e-05 -0.32519531 0 0 0 0
-0.010986328 -4.1127205e-05 -0.32519531 0 0 0 0
-0.009979248 -4.1127205e-05 -0.32519531 0 0 0 0
-0.0089645386 -4.1127205e-05 -0.32519531 0 0 0 0
-0.0079574585 -4.1127205e-05 -0.32519531 0 0 0 0
-0.0069465637 -4.1127205e-05 -0.32519531 0 0 0 0
-0.0059356689 -4.1127205e-05 -0.32519531 0 0 0 0
-0.0049285889 -4.1127205e-05 -0.32519531 0 0 0 0
-0.0039176941 -4.1127205e-05 -0.32519531 0 0 0 0
-0.0029067993 -4.1127205e-05 -0.32519531 0 0 0 0
-0.0018968582 -4.1127205e-05 -0.32519531 0 0 0 0
-0.00088357925 -4.1007996e-05 -0.32421875 0 0 0 0
0.00012373924 -4.1007996e-05 -0.32421875 0 0 0 0
0.0011310577 -4.1007996e-05 -0.32421875 0 0 0 0
0.0021381378 -4.1007996e-05 -0.32421875 0 0 0 0
0.0031356812 -4.0888786e-05 -0.32324219 0 0 0 0
0.0041275024 -4.0769577e-05 -0.32202148 0 0 0 0
0.0051269531 -4.0769577e-05 -0.32202148 0 0 0 0
0.006111145 -4.0590763e-05 -0.32104492 0 0 0 0
0.0070838928 -4.0471554e-05 -0.32006836 0 0 0 0
0.0080795288 -4.0471554e-05 -0.32006836 0 0 0 0
0.0090408325 -4.0352345e-05 -0.3190918 0 0 0 0
0.010040283 -4.0352345e-05 -0.3190918 0 0 0 0
0.010993958 -4.0233135e-05 -0.31811523 0 0 0 0
0.011985779 -4.0233135e-05 -0.31811523 0 0 0 0
0.012969971 -4.0233135e-05 -0.31811523 0 0 0 0
0.013961792 -4.0233135e-05 -0.31811523 0 0 0 0
0.014900208 -4.0113926e-05 -0.31713867 0 0 0 0
0.015884399 -4.0113926e-05 -0.31713867 0 0 0 0
0.016876221 -4.0113926e-05 -0.31713867 0 0 0 0
0.017852783 -4.0113926e-05 -0.31713867 0 0 0 0
0.018844604 -4.0113926e-05 -0.31713867 0 0 0 0
0.019821167 -4.0113926e-05 -0.31713867 0 0 0 0
0.020812988 -4.0113926e-05 -0.31713867 0 0 0 0
0.021789551 -4.0113926e-05 -0.31713867 0 0 0 0
0.022781372 -4.0113926e-05 -0.31713867 0 0 0 0
0.023773193 -4.0113926e-05 -0.31713867 0 0 0 0
0.024749756 -4.0113926e-05 -0.31713867 0 0 0 0
0.025665283 -3.9994717e-05 -0.31616211 0 0 0 0
0.026641846 -3.9994717e-05 -0.31616211 0 0 0 0
0.027618408 -3.9994717e-05 -0.31616211 0 0 0 0
0.028610229 -3.9994717e-05 -0.31616211 0 0 0 0
0.029586792 -3.9994717e-05 -0.31616211 0 0 0 0
0.030563354 -3.9994717e-05 -0.31616211 0 0 0 0
0.031555176 -3.9994717e-05 -0.31616211 0 0 0 0
0.032531738 -3.9994717e-05 -0.31616211 0 0 0 0
0.033630371 -4.0113926e-05 -0.31713867 0 0 0 0
0.034606934 -4.0113926e-05 -0.31713867 0 0 0 0
0.035583496 -4.0113926e-05 -0.31713867 0 0 0 0
0.036682129 -4.0233135e-05 -0.31811523 0 0 0 0
0.037689209 -4.0233135e-05 -0.31811523 0 0 0 0
0.038665771 -4.0233135e-05 -0.31811523 0 0 0 0
0.039642334 -4.0233135e-05 -0.31811523 0 0 0 0
0.040527344 -4.0113926e-05 -0.31713867 0 0 0 0
0.041503906 -4.0113926e-05 -0.31713867 0 0 0 0
0.042358398 -3.9994717e-05 -0.31616211 0 0 0 0
0.043334961 -3.9994717e-05 -0.31616211 0 0 0 0
0.044189453 -3.9875507e-05 -0.31518555 0 0 0 0
0.045166016 -3.9875507e-05 -0.31518555 0 0 0 0
0.046142578 -3.9875507e-05 -0.31518555 0 0 0 0
0.047119141 -3.9875507e-05 -0.31518555 0 0 0 0
0.048095703 -3.9875507e-05 -0.31518555 0 0 0 0
0.049072266 -3.9875507e-05 -0.31518555 0 0 0 0
0.04989624 -3.9696693e-05 -0.31420898 0 0 0 0
0.050872803 -3.9696693e-05 -0.31420898 0 0 0 0
0.051849365 -3.9696693e-05 -0.31420898 0 0 0 0
0.052825928 -3.9696693e-05 -0.31420898 0 0 0 0
0.053619385 -3.9577484e-05 -0.31298828 0 0 0 0
0.054595947 -3.9577484e-05 -0.31298828 0 0 0 0
0.05557251 -3.9577484e-05 -0.31298828 0 0 0 0
0.056549072 -3.9577484e-05 -0.31298828 0 0 0 0
0.057525635 -3.9577484e-05 -0.31298828 0 0 0 0
0.058502197 -3.9577484e-05 -0.31298828 0 0 0 0
0.05947876 -3.9577484e-05 -0.31298828 0 0 0 0
0.060424805 -3.9577484e-05 -0.31298828 0 0 0 0
0.061401367 -3.9577484e-05 -0.31298828 0 0 0 0
0.06237793 -3.9577484e-05 -0.31298828 0 0 0 0
0.063110352 -3.9458275e-05 -0.31201172 0 0 0 0
0.076049805 -4.4822693e-05 -0.35424805 0 0 0 0
0.077148438 -4.4822693e-05 -0.35424805 0 0 0 0
0.07824707 -4.4822693e-05 -0.35424805 0 0 0 0
0.079406738 -4.4822693e-05 -0.35424805 0 0 0 0
0.080505371 -4.4822693e-05 -0.35424805 0 0 0 0
0.081604004 -4.4822693e-05 -0.35424805 0 0 0 0
0.082702637 -4.4822693e-05 -0.35424805 0 0 0 0
0.08380127 -4.4822693e-05 -0.35424805 0 0 0 0
0.084899902 -4.4822693e-05 -0.35424805 0 0 0 0
0.085998535 -4.4822693e-05 -0.35424805 0 0 0 0
0.087097168 -4.4822693e-05 -0.35424805 0 0 0 0
0.088195801 -4.4822693e-05 -0.35424805 0 0 0 0
0.089294434 -4.4822693e-05 -0.35424805 0 0 0 0
0.090393066 -4.4822693e-05 -0.35424805 0 0 0 0
0.091491699 -4.4822693e-05 -0.35424805 0 0 0 0
0.092590332 -4.4822693e-05 -0.35424805 0 0 0 0
0.093688965 -4.4822693e-05 -0.35424805 0 0 0 0
0.094543457 -4.4703484e-05 -0.35327148 0 0 0 0
0.09564209 -4.4703484e-05 -0.35327148 0 0 0 0
0.096740723 -4.4703484e-05 -0.35327148 0 0 0 0
0.097839355 -4.4703484e-05 -0.35327148 0 0 0 0
0.098937988 -4.4703484e-05 -0.35327148 0 0 0 0
0.10028076 -4.4822693e-05 -0.35424805 0 0 0 0
0.10137939 -4.4822693e-05 -0.35424805 0 0 0 0
0.10247803 -4.4822693e-05 -0.35424805 0 0 0 0
0.10357666 -4.4822693e-05 -0.35424805 0 0 0 0
0.10467529 -4.4822693e-05 -0.35424805 0 0 0 0
0.10577393 -4.4822693e-05 -0.35424805 0 0 0 0
0.10687256 -4.4822693e-05 -0.35424805 0 0 0 0
0.10803223 -4.4822693e-05 -0.35424805 0 0 0 0
0.10913086 -4.4822693e-05 -0.35424805 0 0 0 0
0.11022949 -4.4822693e-05 -0.35424805 0 0 0 0
0.11096191 -4.4703484e-05 -0.35327148 0 0 0 0
0.11206055 -4.4703484e-05 -0.35327148 0 0 0 0
0.11315918 -4.4703484e-05 -0.35327148 0 0 0 0
0.11425781 -4.4703484e-05 -0.35327148 0 0 0 0
0.11535645 -4.4703484e-05 -0.35327148 0 0 0 0
0.11645508 -4.4703484e-05 -0.35327148 0 0 0 0
0.11755371 -4.4703484e-05 -0.35327148 0 0 0 0
0.11865234 -4.4703484e-05 -0.35327148 0 0 0 0
0.11975098 -4.4703484e-05 -0.35327148 0 0 0 0
0.12084961 -4.4703484e-05 -0.35327148 0 0 0 0
0.12194824 -4.4703484e-05 -0.35327148 0 0 0 0
0.12304688 -4.4703484e-05 -0.35327148 0 0 0 0
0.12414551 -4.4703484e-05 -0.35327148 0 0 0 0
0.12524414 -4.4703484e-05 -0.35327148 0 0 0 0
0.12634277 -4.4703484e-05 -0.35327148 0 0 0 0
0.12744141 -4.4703484e-05 -0.35327148 0 0 0 0
0.12854004 -4.4703484e-05 -0.35327148 0 0 0 0
0.12963867 -4.4703484e-05 -0.35327148 0 0 0 0
0.1307373 -4.4703484e-05 -0.35327148 0 0 0 0
0.13183594 -4.4703484e-05 -0.35327148 0 0 0 0
0.13293457 -4.4703484e-05 -0.35327148 0 0 0 0
0.1340332 -4.4703484e-05 -0.35327148 0 0 0 0
-0.1217041 -0.0012559891 -0.38842773 0 0 0 0
-0.12023926 -0.0012521744 -0.38745117 0 0 0 0
-0.11871338 -0.0012493134 -0.38647461 0 0 0 0
-0.1171875 -0.0012464523 -0.38549805 0 0 0 0
-0.11572266 -0.0012426376 -0.38427734 0 0 0 0
-0.11419678 -0.0012397766 -0.38330078 0 0 0 0
-0.11303711 -0.0012397766 -0.38330078 0 0 0 0
-0.11151123 -0.0012359619 -0.38232422 0 0 0 0
-0.11035156 -0.0012359619 -0.38232422 0 0 0 0
-0.10888672 -0.0012331009 -0.38134766 0 0 0 0
-0.10766602 -0.0012331009 -0.38134766 0 0 0 0
-0.10650635 -0.0012331009 -0.38134766 0 0 0 0
-0.1050415 -0.0012292862 -0.38037109 0 0 0 0
-0.08984375 -0.0011425018 -0.35327148 0 0 0 0
-0.088745117 -0.0011425018 -0.35327148 0 0 0 0
-0.087402344 -0.0011386871 -0.35229492 0 0 0 0
-0.086303711 -0.0011386871 -0.35229492 0 0 0 0
-0.084960938 -0.0011358261 -0.35131836 0 0 0 0
-0.083862305 -0.0011358261 -0.35131836 0 0 0 0
-0.082580566 -0.0011320114 -0.3503418 0 0 0 0
-0.081237793 -0.0011291504 -0.34912109 0 0 0 0
-0.079956055 -0.0011262894 -0.34814453 0 0 0 0
-0.078857422 -0.0011262894 -0.34814453 0 0 0 0
-0.077514648 -0.0011224747 -0.34716797 0 0 0 0
-0.07623291 -0.0011196136 -0.34619141 0 0 0 0
-0.074951172 -0.001115799 -0.34521484 0 0 0 0
-0.073669434 -0.0011129379 -0.34423828 0 0 0 0
-0.072387695 -0.0011100769 -0.34326172 0 0 0 0
-0.071289062 -0.0011100769 -0.34326172 0 0 0 0
-0.070007324 -0.0011062622 -0.34228516 0 0 0 0
-0.068969727 -0.0011062622 -0.34228516 0 0 0 0
-0.067932129 -0.0011062622 -0.34228516 0 0 0 0
-0.066833496 -0.0011062622 -0.34228516 0 0 0 0
-0.065795898 -0.0011062622 -0.34228516 0 0 0 0
-0.064697266 -0.0011062622 -0.34228516 0 0 0 0
-0.063842773 -0.0011100769 -0.34326172 0 0 0 0
-0.065673828 -0.0011806488 -0.36523438 0 0 0 0
-0.06451416 -0.0011806488 -0.36523438 0 0 0 0
-0.063232422 -0.0011777878 -0.36425781 0 0 0 0
-0.062103271 -0.0011777878 -0.36425781 0 0 0 0
-0.060821533 -0.0011749268 -0.36328125 0 0 0 0
-0.059356689 -0.001168251 -0.36132812 0 0 0 0
-0.058074951 -0.0011644363 -0.36035156 0 0 0 0
-0.056793213 -0.0011615753 -0.359375 0 0 0 0
-0.055511475 -0.0011587143 -0.35839844 0 0 0 0
-0.054412842 -0.0011587143 -0.35839844 0 0 0 0
-0.053131104 -0.0011548996 -0.35717773 0 0 0 0
-0.051879883 -0.0011520386 -0.35620117 0 0 0 0
-0.05078125 -0.0011520386 -0.35620117 0 0 0 0
-0.049530029 -0.0011482239 -0.35522461 0 0 0 0
-0.048431396 -0.0011482239 -0.35522461 0 0 0 0
-0.047180176 -0.0011453629 -0.35424805 0 0 0 0
-0.046081543 -0.0011453629 -0.35424805 0 0 0 0
-0.04498291 -0.0011453629 -0.35424805 0 0 0 0
-0.043762207 -0.0011425018 -0.35327148 0 0 0 0
-0.042663574 -0.0011425018 -0.35327148 0 0 0 0
-0.041564941 -0.0011425018 -0.35327148 0 0 0 0
-0.034851074 -0.0010709763 -0.33105469 0 0 0 0
-0.033813477 -0.0010709763 -0.33105469 0 0 0 0
-0.032806396 -0.0010709763 -0.33105469 0 0 0 0
-0.031768799 -0.0010709763 -0.33105469 0 0 0 0
-0.030654907 -0.0010671616 -0.33007812 0 0 0 0
-0.02961731 -0.0010671616 -0.33007812 0 0 0 0
-0.028518677 -0.0010643005 -0.32910156 0 0 0 0
-0.027481079 -0.0010643005 -0.32910156 0 0 0 0
-0.026382446 -0.0010614395 -0.328125 0 0 0 0
-0.025360107 -0.0010614395 -0.328125 0 0 0 0
-0.024276733 -0.0010576248 -0.32714844 0 0 0 0
-0.023254395 -0.0010576248 -0.32714844 0 0 0 0
-0.022232056 -0.0010576248 -0.32714844 0 0 0 0
-0.021148682 -0.0010547638 -0.32617188 0 0 0 0
-0.020141602 -0.0010547638 -0.32617188 0 0 0 0
-0.019134521 -0.0010547638 -0.32617188 0 0 0 0
-0.018112183 -0.0010547638 -0.32617188 0 0 0 0
-0.017105103 -0.0010547638 -0.32617188 0 0 0 0
-0.016082764 -0.0010547638 -0.32617188 0 0 0 0
-0.015029907 -0.0010509491 -0.32519531 0 0 0 0
-0.014022827 -0.0010509491 -0.32519531 0 0 0 0
-0.013008118 -0.0010509491 -0.32519531 0 0 0 0
-0.012001038 -0.0010509491 -0.32519531 0 0 0 0
-0.010986328 -0.0010509491 -0.32519531 0 0 0 0
-0.009979248 -0.0010509491 -0.32519531 0 0 0 0
-0.0089645386 -0.0010509491 -0.32519531 0 0 0 0
-0.0079574585 -0.0010509491 -0.32519531 0 0 0 0
-0.0069465637 -0.0010509491 -0.32519531 0 0 0 0
-0.0059356689 -0.0010509491 -0.32519531 0 0 0 0
-0.0049285889 -0.0010509491 -0.32519531 0 0 0 0
-0.0039176941 -0.0010509491 -0.32519531 0 0 0 0
-0.0029067993 -0.0010509491 -0.32519531 0 0 0 0
-0.0018968582 -0.0010509491 -0.32519531 0 0 0 0
-0.00088596344 -0.0010509491 -0.32519531 0 0 0 0
0.00012373924 -0.0010480881 -0.32421875 0 0 0 0
0.0011310577 -0.0010480881 -0.32421875 0 0 0 0
0.0021381378 -0.0010480881 -0.32421875 0 0 0 0
0.0031356812 -0.0010452271 -0.32324219 0 0 0 0
0.0041389465 -0.0010452271 -0.32324219 0 0 0 0
0.0051269531 -0.0010414124 -0.32202148 0 0 0 0
0.006111145 -0.0010385513 -0.32104492 0 0 0 0
0.007106781 -0.0010385513 -0.32104492 0 0 0 0
0.0080795288 -0.0010347366 -0.32006836 0 0 0 0
0.0090408325 -0.0010318756 -0.3190918 0 0 0 0
0.010040283 -0.0010318756 -0.3190918 0 0 0 0
0.010993958 -0.0010280609 -0.31811523 0 0 0 0
0.011985779 -0.0010280609 -0.31811523 0 0 0 0
0.012969971 -0.0010280609 -0.31811523 0 0 0 0
0.013961792 -0.0010280609 -0.31811523 0 0 0 0
0.014900208 -0.0010251999 -0.31713867 0 0 0 0
0.015884399 -0.0010251999 -0.31713867 0 0 0 0
0.016876221 -0.0010251999 -0.31713867 0 0 0 0
0.017852783 -0.0010251999 -0.31713867 0 0 0 0
0.018844604 -0.0010251999 -0.31713867 0 0 0 0
0.019821167 -0.0010251999 -0.31713867 0 0 0 0
0.020812988 -0.0010251999 -0.31713867 0 0 0 0
0.021789551 -0.0010251999 -0.31713867 0 0 0 0
0.022781372 -0.0010251999 -0.31713867 0 0 0 0
0.023773193 -0.0010251999 -0.31713867 0 0 0 0
0.024749756 -0.0010251999 -0.31713867 0 0 0 0
0.025741577 -0.0010251999 -0.31713867 0 0 0 0
0.026641846 -0.0010223389 -0.31616211 0 0 0 0
0.027618408 -0.0010223389 -0.31616211 0 0 0 0
0.028610229 -0.0010223389 -0.31616211 0 0 0 0
0.029586792 -0.0010223389 -0.31616211 0 0 0 0
0.030563354 -0.0010223389 -0.31616211 0 0 0 0
0.031555176 -0.0010223389 -0.31616211 0 0 0 0
0.032623291 -0.0010251999 -0.31713867 0 0 0 0
0.033630371 -0.0010251999 -0.31713867 0 0 0 0
0.034606934 -0.0010251999 -0.31713867 0 0 0 0
0.035583496 -0.0010251999 -0.31713867 0 0 0 0
0.036682129 -0.0010280609 -0.31811523 0 0 0 0
0.037689209 -0.0010280609 -0.31811523 0 0 0 0
0.038665771 -0.0010280609 -0.31811523 0 0 0 0
0.039642334 -0.0010280609 -0.31811523 0 0 0 0
0.040527344 -0.0010251999 -0.31713867 0 0 0 0
0.041503906 -0.0010251999 -0.31713867 0 0 0 0
0.042358398 -0.0010223389 -0.31616211 0 0 0 0
0.043334961 -0.0010223389 -0.31616211 0 0 0 0
0.044189453 -0.0010185242 -0.31518555 0 0 0 0
0.045166016 -0.0010185242 -0.31518555 0 0 0 0
0.046142578 -0.0010185242 -0.31518555 0 0 0 0
0.047119141 -0.0010185242 -0.31518555 0 0 0 0
0.048095703 -0.0010185242 -0.31518555 0 0 0 0
0.049072266 -0.0010185242 -0.31518555 0 0 0 0
0.050048828 -0.0010185242 -0.31518555 0 0 0 0
0.051025391 -0.0010185242 -0.31518555 0 0 0 0
0.051849365 -0.0010156631 -0.31420898 0 0 0 0
0.052825928 -0.0010156631 -0.31420898 0 0 0 0
0.05380249 -0.0010156631 -0.31420898 0 0 0 0
0.054779053 -0.0010156631 -0.31420898 0 0 0 0
0.055755615 -0.0010156631 -0.31420898 0 0 0 0
0.056732178 -0.0010156631 -0.31420898 0 0 0 0
0.05770874 -0.0010156631 -0.31420898 0 0 0 0
0.058685303 -0.0010156631 -0.31420898 0 0 0 0
0.059661865 -0.0010156631 -0.31420898 0 0 0 0
0.060638428 -0.0010156631 -0.31420898 0 0 0 0
0.06161499 -0.0010156631 -0.31420898 0 0 0 0
0.06237793 -0.0010118484 -0.31298828 0 0 0 0
0.073852539 -0.0011453629 -0.35424805 0 0 0 0
0.074951172 -0.0011453629 -0.35424805 0 0 0 0
0.076049805 -0.0011453629 -0.35424805 0 0 0 0
0.077148438 -0.0011453629 -0.35424805 0 0 0 0
0.07824707 -0.0011453629 -0.35424805 0 0 0 0
0.079406738 -0.0011453629 -0.35424805 0 0 0 0
0.080505371 -0.0011453629 -0.35424805 0 0 0 0
0.081604004 -0.0011453629 -0.35424805 0 0 0 0
0.082702637 -0.0011453629 -0.35424805 0 0 0 0
0.08380127 -0.0011453629 -0.35424805 0 0 0 0
0.084899902 -0.0011453629 -0.35424805 0 0 0 0
0.085998535 -0.0011453629 -0.35424805 0 0 0 0
0.087097168 -0.0011453629 -0.35424805 0 0 0 0
0.088195801 -0.0011453629 -0.35424805 0 0 0 0
0.089294434 -0.0011453629 -0.35424805 0 0 0 0
0.090393066 -0.0011453629 -0.35424805 0 0 0 0
0.091491699 -0.0011453629 -0.35424805 0 0 0 0
0.092590332 -0.0011453629 -0.35424805 0 0 0 0
0.093444824 -0.0011425018 -0.35327148 0 0 0 0
0.094543457 -0.0011425018 -0.35327148 0 0 0 0
0.09564209 -0.0011425018 -0.35327148 0 0 0 0
0.096740723 -0.0011425018 -0.35327148 0 0 0 0
0.097839355 -0.0011425018 -0.35327148 0 0 0 0
0.098937988 -0.0011425018 -0.35327148 0 0 0 0
0.10003662 -0.0011425018 -0.35327148 0 0 0 0
0.10113525 -0.0011425018 -0.35327148 0 0 0 0
0.10247803 -0.0011453629 -0.35424805 0 0 0 0
0.10357666 -0.0011453629 -0.35424805 0 0 0 0
0.10467529 -0.0011453629 -0.35424805 0 0 0 0
0.10577393 -0.0011453629 -0.35424805 0 0 0 0
0.10687256 -0.0011453629 -0.35424805 0 0 0 0
0.10803223 -0.0011453629 -0.35424805 0 0 0 0
0.10913086 -0.0011453629 -0.35424805 0 0 0 0
0.10986328 -0.0011425018 -0.35327148 0 0 0 0
0.11096191 -0.0011425018 -0.35327148 0 0 0 0
0.11206055 -0.0011425018 -0.35327148 0 0 0 0
0.11315918 -0.0011425018 -0.35327148 0 0 0 0
0.11425781 -0.0011425018 -0.35327148 0 0 0 0
0.11535645 -0.0011425018 -0.35327148 0 0 0 0
0.11645508 -0.0011425018 -0.35327148 0 0 0 0
0.11755371 -0.0011425018 -0.35327148 0 0 0 0
0.11865234 -0.0011425018 -0.35327148 0 0 0 0
0.11975098 -0.0011425018 -0.35327148 0 0 0 0
0.12084961 -0.0011425018 -0.35327148 0 0 0 0
0.12194824 -0.0011425018 -0.35327148 0 0 0 0
0.12304688 -0.0011425018 -0.35327148 0 0 0 0
0.12414551 -0.0011425018 -0.35327148 0 0 0 0
0.12524414 -0.0011425018 -0.35327148 0 0 0 0
0.12634277 -0.0011425018 -0.35327148 0 0 0 0
0.12744141 -0.0011425018 -0.35327148 0 0 0 0
0.12854004 -0.0011425018 -0.35327148 0 0 0 0
