ply
format ascii 1.0
comment PCL generated
element vertex 1080
property float x
property float y
property float z
property float nx
property float ny
property float nz
property float curvature
element face 0
element camera 0
property float view_px
property float view_py
property float view_pz
property float x_axisx
property float x_axisy
property float x_axisz
property float y_axisx
property float y_axisy
property float y_axisz
property float z_axisx
property float z_axisy
property float z_axisz
property float focal
property float scalex
property float scaley
property float centerx
property float centery
property int viewportx
property int viewporty
property float k1
property float k2
end_header
0.21325684 0.017044067 -0.35131836 0 0 0 0
0.21508789 0.017044067 -0.35131836 0 0 0 0
0.21691895 0.017044067 -0.35131836 0 0 0 0
0.21875 0.017044067 -0.35131836 0 0 0 0
0.22058105 0.017044067 -0.35131836 0 0 0 0
0.22302246 0.017105103 -0.35229492 0 0 0 0
0.22485352 0.017105103 -0.35229492 0 0 0 0
0.22668457 0.017105103 -0.35229492 0 0 0 0
0.22851562 0.017105103 -0.35229492 0 0 0 0
-0.0095062256 0.016845703 -0.38842773 0 0 0 0
-0.0074768066 0.016799927 -0.38745117 0 0 0 0
-0.0054702759 0.016799927 -0.38745117 0 0 0 0
-0.0034637451 0.016799927 -0.38745117 0 0 0 0
-0.0014572144 0.016799927 -0.38745117 0 0 0 0
0.00054883957 0.016799927 -0.38745117 0 0 0 0
0.0025615692 0.016845703 -0.38842773 0 0 0 0
0.087402344 0.016540527 -0.38134766 0 0 0 0
0.089172363 0.016494751 -0.38037109 0 0 0 0
0.091125488 0.016494751 -0.38037109 0 0 0 0
0.092834473 0.016448975 -0.37939453 0 0 0 0
0.094604492 0.016403198 -0.37841797 0 0 0 0
0.096252441 0.016357422 -0.37744141 0 0 0 0
0.097961426 0.016326904 -0.37646484 0 0 0 0
0.099914551 0.016326904 -0.37646484 0 0 0 0
0.10162354 0.016281128 -0.37524414 0 0 0 0
0.10351562 0.016281128 -0.37524414 0 0 0 0
0.10546875 0.016281128 -0.37524414 0 0 0 0
0.10742188 0.016281128 -0.37524414 0 0 0 0
0.109375 0.016281128 -0.37524414 0 0 0 0
0.11132812 0.016281128 -0.37524414 0 0 0 0
0.11328125 0.016281128 -0.37524414 0 0 0 0
0.11523438 0.016281128 -0.37524414 0 0 0 0
0.11712646 0.016281128 -0.37524414 0 0 0 0
0.11907959 0.016281128 -0.37524414 0 0 0 0
0.15063477 0.015716553 -0.36230469 0 0 0 0
0.15246582 0.015716553 -0.36230469 0 0 0 0
0.15429688 0.015716553 -0.36230469 0 0 0 0
0.15576172 0.015670776 -0.36132812 0 0 0 0
0.15759277 0.015670776 -0.36132812 0 0 0 0
0.15905762 0.015625 -0.36035156 0 0 0 0
0.16088867 0.015625 -0.36035156 0 0 0 0
0.16235352 0.015586853 -0.359375 0 0 0 0
0.16418457 0.015586853 -0.359375 0 0 0 0
0.16564941 0.015541077 -0.35839844 0 0 0 0
0.16748047 0.015541077 -0.35839844 0 0 0 0
0.16882324 0.0154953 -0.35717773 0 0 0 0
0.1706543 0.0154953 -0.35717773 0 0 0 0
0.17211914 0.015449524 -0.35620117 0 0 0 0
0.1739502 0.015449524 -0.35620117 0 0 0 0
0.17578125 0.015449524 -0.35620117 0 0 0 0
0.1776123 0.015449524 -0.35620117 0 0 0 0
0.17944336 0.015449524 -0.35620117 0 0 0 0
0.18127441 0.015449524 -0.35620117 0 0 0 0
0.18310547 0.015449524 -0.35620117 0 0 0 0
0.18554688 0.0154953 -0.35717773 0 0 0 0
0.18737793 0.0154953 -0.35717773 0 0 0 0
0.1887207 0.015449524 -0.35620117 0 0 0 0
0.1932373 0.015235901 -0.35131836 0 0 0 0
0.19506836 0.015235901 -0.35131836 0 0 0 0
0.19641113 0.015190125 -0.3503418 0 0 0 0
0.19824219 0.015190125 -0.3503418 0 0 0 0
0.19995117 0.015190125 -0.3503418 0 0 0 0
0.20178223 0.015190125 -0.3503418 0 0 0 0
0.20361328 0.015190125 -0.3503418 0 0 0 0
0.20605469 0.015235901 -0.35131836 0 0 0 0
0.20788574 0.015235901 -0.35131836 0 0 0 0
0.2097168 0.015235901 -0.35131836 0 0 0 0
0.21154785 0.015235901 -0.35131836 0 0 0 0
0.21325684 0.015235901 -0.35131836 0 0 0 0
0.21508789 0.015235901 -0.35131836 0 0 0 0
0.21691895 0.015235901 -0.35131836 0 0 0 0
0.21936035 0.015281677 -0.35229492 0 0 0 0
0.22119141 0.015281677 -0.35229492 0 0 0 0
0.22302246 0.015281677 -0.35229492 0 0 0 0
0.22546387 0.015319824 -0.35327148 0 0 0 0
0.22729492 0.015319824 -0.35327148 0 0 0 0
0.22912598 0.015319824 -0.35327148 0 0 0 0
-0.0074768066 0.014793396 -0.38745117 0 0 0 0
-0.0054550171 0.014755249 -0.38647461 0 0 0 0
-0.0034542084 0.014755249 -0.38647461 0 0 0 0
-0.0014533997 0.014755249 -0.38647461 0 0 0 0
0.00054883957 0.014793396 -0.38745117 0 0 0 0
0.087402344 0.014564514 -0.38134766 0 0 0 0
0.089172363 0.014526367 -0.38037109 0 0 0 0
0.091125488 0.014526367 -0.38037109 0 0 0 0
0.092834473 0.01448822 -0.37939453 0 0 0 0
0.094604492 0.014450073 -0.37841797 0 0 0 0
0.096252441 0.014411926 -0.37744141 0 0 0 0
0.097961426 0.014373779 -0.37646484 0 0 0 0
0.099914551 0.014373779 -0.37646484 0 0 0 0
0.10162354 0.014335632 -0.37524414 0 0 0 0
0.10351562 0.014335632 -0.37524414 0 0 0 0
0.10522461 0.014297485 -0.37426758 0 0 0 0
0.1071167 0.014297485 -0.37426758 0 0 0 0
0.10906982 0.014297485 -0.37426758 0 0 0 0
0.11132812 0.014335632 -0.37524414 0 0 0 0
0.11328125 0.014335632 -0.37524414 0 0 0 0
0.11523438 0.014335632 -0.37524414 0 0 0 0
0.11712646 0.014335632 -0.37524414 0 0 0 0
0.11907959 0.014335632 -0.37524414 0 0 0 0
0.14868164 0.013839722 -0.36230469 0 0 0 0
0.15014648 0.013801575 -0.36132812 0 0 0 0
0.15197754 0.013801575 -0.36132812 0 0 0 0
0.15393066 0.013801575 -0.36132812 0 0 0 0
0.15576172 0.013801575 -0.36132812 0 0 0 0
0.15722656 0.013763428 -0.36035156 0 0 0 0
0.15869141 0.013725281 -0.359375 0 0 0 0
0.16052246 0.013725281 -0.359375 0 0 0 0
0.16186523 0.013687134 -0.35839844 0 0 0 0
0.16381836 0.013687134 -0.35839844 0 0 0 0
0.16516113 0.013648987 -0.35717773 0 0 0 0
0.16699219 0.013648987 -0.35717773 0 0 0 0
0.16833496 0.01361084 -0.35620117 0 0 0 0
0.17016602 0.01361084 -0.35620117 0 0 0 0
0.17211914 0.01361084 -0.35620117 0 0 0 0
0.1739502 0.01361084 -0.35620117 0 0 0 0
0.17529297 0.013565063 -0.35522461 0 0 0 0
0.17712402 0.013565063 -0.35522461 0 0 0 0
0.17944336 0.01361084 -0.35620117 0 0 0 0
0.18127441 0.01361084 -0.35620117 0 0 0 0
0.18688965 0.01361084 -0.35620117 0 0 0 0
0.18811035 0.013565063 -0.35522461 0 0 0 0
0.18896484 0.01348877 -0.35327148 0 0 0 0
0.19018555 0.013450623 -0.35229492 0 0 0 0
0.1920166 0.013450623 -0.35229492 0 0 0 0
0.1932373 0.013412476 -0.35131836 0 0 0 0
0.19506836 0.013412476 -0.35131836 0 0 0 0
0.19689941 0.013412476 -0.35131836 0 0 0 0
0.19873047 0.013412476 -0.35131836 0 0 0 0
0.20056152 0.013412476 -0.35131836 0 0 0 0
0.20239258 0.013412476 -0.35131836 0 0 0 0
0.20422363 0.013412476 -0.35131836 0 0 0 0
0.20605469 0.013412476 -0.35131836 0 0 0 0
0.20788574 0.013412476 -0.35131836 0 0 0 0
0.2097168 0.013412476 -0.35131836 0 0 0 0
0.21154785 0.013412476 -0.35131836 0 0 0 0
0.21386719 0.013450623 -0.35229492 0 0 0 0
0.21569824 0.013450623 -0.35229492 0 0 0 0
0.2175293 0.013450623 -0.35229492 0 0 0 0
0.21936035 0.013450623 -0.35229492 0 0 0 0
0.22119141 0.013450623 -0.35229492 0 0 0 0
0.22363281 0.01348877 -0.35327148 0 0 0 0
0.22546387 0.01348877 -0.35327148 0 0 0 0
0.22729492 0.01348877 -0.35327148 0 0 0 0
-0.0054550171 0.012756348 -0.38647461 0 0 0 0
-0.0034542084 0.012756348 -0.38647461 0 0 0 0
0.089172363 0.012557983 -0.38037109 0 0 0 0
0.090881348 0.012527466 -0.37939453 0 0 0 0
0.092834473 0.012527466 -0.37939453 0 0 0 0
0.094604492 0.012489319 -0.37841797 0 0 0 0
0.096252441 0.012458801 -0.37744141 0 0 0 0
0.097961426 0.012428284 -0.37646484 0 0 0 0
0.099914551 0.012428284 -0.37646484 0 0 0 0
0.10162354 0.012390137 -0.37524414 0 0 0 0
0.10351562 0.012390137 -0.37524414 0 0 0 0
0.10546875 0.012390137 -0.37524414 0 0 0 0
0.1071167 0.012359619 -0.37426758 0 0 0 0
0.10906982 0.012359619 -0.37426758 0 0 0 0
0.11132812 0.012390137 -0.37524414 0 0 0 0
0.11328125 0.012390137 -0.37524414 0 0 0 0
0.11523438 0.012390137 -0.37524414 0 0 0 0
0.11712646 0.012390137 -0.37524414 0 0 0 0
0.11907959 0.012390137 -0.37524414 0 0 0 0
0.14831543 0.011924744 -0.36132812 0 0 0 0
0.15014648 0.011924744 -0.36132812 0 0 0 0
0.15161133 0.011894226 -0.36035156 0 0 0 0
0.15344238 0.011894226 -0.36035156 0 0 0 0
0.15539551 0.011894226 -0.36035156 0 0 0 0
0.15673828 0.011863708 -0.359375 0 0 0 0
0.15820312 0.011825562 -0.35839844 0 0 0 0
0.16003418 0.011825562 -0.35839844 0 0 0 0
0.16149902 0.011795044 -0.35717773 0 0 0 0
0.16333008 0.011795044 -0.35717773 0 0 0 0
0.16516113 0.011795044 -0.35717773 0 0 0 0
0.16650391 0.011764526 -0.35620117 0 0 0 0
0.16833496 0.011764526 -0.35620117 0 0 0 0
0.17016602 0.011764526 -0.35620117 0 0 0 0
0.17163086 0.011726379 -0.35522461 0 0 0 0
0.17346191 0.011726379 -0.35522461 0 0 0 0
0.17529297 0.011726379 -0.35522461 0 0 0 0
0.17712402 0.011726379 -0.35522461 0 0 0 0
0.17944336 0.011764526 -0.35620117 0 0 0 0
0.18444824 0.011726379 -0.35522461 0 0 0 0
0.18579102 0.011695862 -0.35424805 0 0 0 0
0.18713379 0.011665344 -0.35327148 0 0 0 0
0.18896484 0.011665344 -0.35327148 0 0 0 0
0.19018555 0.011627197 -0.35229492 0 0 0 0
0.1920166 0.011627197 -0.35229492 0 0 0 0
0.1932373 0.01159668 -0.35131836 0 0 0 0
0.19506836 0.01159668 -0.35131836 0 0 0 0
0.19689941 0.01159668 -0.35131836 0 0 0 0
0.19873047 0.01159668 -0.35131836 0 0 0 0
0.20056152 0.01159668 -0.35131836 0 0 0 0
0.20239258 0.01159668 -0.35131836 0 0 0 0
0.20422363 0.01159668 -0.35131836 0 0 0 0
0.20605469 0.01159668 -0.35131836 0 0 0 0
0.20788574 0.01159668 -0.35131836 0 0 0 0
0.21032715 0.011627197 -0.35229492 0 0 0 0
0.21203613 0.011627197 -0.35229492 0 0 0 0
0.21386719 0.011627197 -0.35229492 0 0 0 0
0.21569824 0.011627197 -0.35229492 0 0 0 0
0.2175293 0.011627197 -0.35229492 0 0 0 0
0.21936035 0.011627197 -0.35229492 0 0 0 0
0.22180176 0.011665344 -0.35327148 0 0 0 0
0.22363281 0.011665344 -0.35327148 0 0 0 0
0.22546387 0.011665344 -0.35327148 0 0 0 0
0.22729492 0.011665344 -0.35327148 0 0 0 0
0.090881348 0.010559082 -0.37939453 0 0 0 0
0.092834473 0.010559082 -0.37939453 0 0 0 0
0.094604492 0.010528564 -0.37841797 0 0 0 0
0.096252441 0.010505676 -0.37744141 0 0 0 0
0.098205566 0.010505676 -0.37744141 0 0 0 0
0.099914551 0.010475159 -0.37646484 0 0 0 0
0.10162354 0.010444641 -0.37524414 0 0 0 0
0.10351562 0.010444641 -0.37524414 0 0 0 0
0.10546875 0.010444641 -0.37524414 0 0 0 0
0.10742188 0.010444641 -0.37524414 0 0 0 0
0.109375 0.010444641 -0.37524414 0 0 0 0
0.11132812 0.010444641 -0.37524414 0 0 0 0
0.11328125 0.010444641 -0.37524414 0 0 0 0
0.11523438 0.010444641 -0.37524414 0 0 0 0
0.11712646 0.010444641 -0.37524414 0 0 0 0
0.14782715 0.010025024 -0.36035156 0 0 0 0
0.14929199 0.010002136 -0.359375 0 0 0 0
0.15124512 0.010002136 -0.359375 0 0 0 0
0.15307617 0.010002136 -0.359375 0 0 0 0
0.15441895 0.0099716187 -0.35839844 0 0 0 0
0.15637207 0.0099716187 -0.35839844 0 0 0 0
0.15820312 0.0099716187 -0.35839844 0 0 0 0
0.1595459 0.0099411011 -0.35717773 0 0 0 0
0.16149902 0.0099411011 -0.35717773 0 0 0 0
0.1628418 0.0099182129 -0.35620117 0 0 0 0
0.16467285 0.0099182129 -0.35620117 0 0 0 0
0.16650391 0.0099182129 -0.35620117 0 0 0 0
0.16833496 0.0099182129 -0.35620117 0 0 0 0
0.1697998 0.0098876953 -0.35522461 0 0 0 0
0.17163086 0.0098876953 -0.35522461 0 0 0 0
0.17346191 0.0098876953 -0.35522461 0 0 0 0
0.17529297 0.0098876953 -0.35522461 0 0 0 0
0.17712402 0.0098876953 -0.35522461 0 0 0 0
0.17895508 0.0098876953 -0.35522461 0 0 0 0
0.18347168 0.0098342896 -0.35327148 0 0 0 0
0.18530273 0.0098342896 -0.35327148 0 0 0 0
0.18713379 0.0098342896 -0.35327148 0 0 0 0
0.18835449 0.009803772 -0.35229492 0 0 0 0
0.19018555 0.009803772 -0.35229492 0 0 0 0
0.19152832 0.0097732544 -0.35131836 0 0 0 0
0.1932373 0.0097732544 -0.35131836 0 0 0 0
0.19506836 0.0097732544 -0.35131836 0 0 0 0
0.19689941 0.0097732544 -0.35131836 0 0 0 0
0.19873047 0.0097732544 -0.35131836 0 0 0 0
0.20056152 0.0097732544 -0.35131836 0 0 0 0
0.20239258 0.0097732544 -0.35131836 0 0 0 0
0.20422363 0.0097732544 -0.35131836 0 0 0 0
0.20666504 0.009803772 -0.35229492 0 0 0 0
0.20849609 0.009803772 -0.35229492 0 0 0 0
0.21032715 0.009803772 -0.35229492 0 0 0 0
0.21203613 0.009803772 -0.35229492 0 0 0 0
0.21386719 0.009803772 -0.35229492 0 0 0 0
0.21630859 0.0098342896 -0.35327148 0 0 0 0
0.21813965 0.0098342896 -0.35327148 0 0 0 0
0.2199707 0.0098342896 -0.35327148 0 0 0 0
0.22180176 0.0098342896 -0.35327148 0 0 0 0
0.22363281 0.0098342896 -0.35327148 0 0 0 0
0.22546387 0.0098342896 -0.35327148 0 0 0 0
0.091125488 0.0086135864 -0.38037109 0 0 0 0
0.092834473 0.0085906982 -0.37939453 0 0 0 0
0.094848633 0.0085906982 -0.37939453 0 0 0 0
0.096557617 0.0085678101 -0.37841797 0 0 0 0
0.098205566 0.0085449219 -0.37744141 0 0 0 0
0.099914551 0.0085220337 -0.37646484 0 0 0 0
0.10186768 0.0085220337 -0.37646484 0 0 0 0
0.10351562 0.0085067749 -0.37524414 0 0 0 0
0.10546875 0.0085067749 -0.37524414 0 0 0 0
0.10742188 0.0085067749 -0.37524414 0 0 0 0
0.109375 0.0085067749 -0.37524414 0 0 0 0
0.11132812 0.0085067749 -0.37524414 0 0 0 0
0.11328125 0.0085067749 -0.37524414 0 0 0 0
0.11523438 0.0085067749 -0.37524414 0 0 0 0
0.11712646 0.0085067749 -0.37524414 0 0 0 0
0.14294434 0.0080947876 -0.35717773 0 0 0 0
0.14477539 0.0080947876 -0.35717773 0 0 0 0
0.14709473 0.0081176758 -0.35839844 0 0 0 0
0.14892578 0.0081176758 -0.35839844 0 0 0 0
0.15075684 0.0081176758 -0.35839844 0 0 0 0
0.15258789 0.0081176758 -0.35839844 0 0 0 0
0.15405273 0.0080947876 -0.35717773 0 0 0 0
0.15588379 0.0080947876 -0.35717773 0 0 0 0
0.15771484 0.0080947876 -0.35717773 0 0 0 0
0.15917969 0.0080718994 -0.35620117 0 0 0 0
0.16101074 0.0080718994 -0.35620117 0 0 0 0
0.1628418 0.0080718994 -0.35620117 0 0 0 0
0.16418457 0.0080490112 -0.35522461 0 0 0 0
0.16601562 0.0080490112 -0.35522461 0 0 0 0
0.16784668 0.0080490112 -0.35522461 0 0 0 0
0.1697998 0.0080490112 -0.35522461 0 0 0 0
0.17163086 0.0080490112 -0.35522461 0 0 0 0
0.17346191 0.0080490112 -0.35522461 0 0 0 0
0.17529297 0.0080490112 -0.35522461 0 0 0 0
0.17712402 0.0080490112 -0.35522461 0 0 0 0
0.17895508 0.0080490112 -0.35522461 0 0 0 0
0.18164062 0.0080032349 -0.35327148 0 0 0 0
0.18347168 0.0080032349 -0.35327148 0 0 0 0
0.18469238 0.0079803467 -0.35229492 0 0 0 0
0.18652344 0.0079803467 -0.35229492 0 0 0 0
0.18835449 0.0079803467 -0.35229492 0 0 0 0
0.19018555 0.0079803467 -0.35229492 0 0 0 0
0.19152832 0.0079574585 -0.35131836 0 0 0 0
0.1932373 0.0079574585 -0.35131836 0 0 0 0
0.19506836 0.0079574585 -0.35131836 0 0 0 0
0.19689941 0.0079574585 -0.35131836 0 0 0 0
0.19873047 0.0079574585 -0.35131836 0 0 0 0
0.20056152 0.0079574585 -0.35131836 0 0 0 0
0.20239258 0.0079574585 -0.35131836 0 0 0 0
0.20422363 0.0079574585 -0.35131836 0 0 0 0
0.20666504 0.0079803467 -0.35229492 0 0 0 0
0.20849609 0.0079803467 -0.35229492 0 0 0 0
0.21032715 0.0079803467 -0.35229492 0 0 0 0
0.21264648 0.0080032349 -0.35327148 0 0 0 0
0.21447754 0.0080032349 -0.35327148 0 0 0 0
0.21630859 0.0080032349 -0.35327148 0 0 0 0
0.21813965 0.0080032349 -0.35327148 0 0 0 0
0.2199707 0.0080032349 -0.35327148 0 0 0 0
0.22180176 0.0080032349 -0.35327148 0 0 0 0
0.22363281 0.0080032349 -0.35327148 0 0 0 0
0.092834473 0.0066299438 -0.37939453 0 0 0 0
0.094848633 0.0066299438 -0.37939453 0 0 0 0
0.096557617 0.0066146851 -0.37841797 0 0 0 0
0.098205566 0.0065956116 -0.37744141 0 0 0 0
0.10015869 0.0065956116 -0.37744141 0 0 0 0
0.10186768 0.0065765381 -0.37646484 0 0 0 0
0.1038208 0.0065765381 -0.37646484 0 0 0 0
0.10546875 0.0065612793 -0.37524414 0 0 0 0
0.10742188 0.0065612793 -0.37524414 0 0 0 0
0.109375 0.0065612793 -0.37524414 0 0 0 0
0.11132812 0.0065612793 -0.37524414 0 0 0 0
0.11328125 0.0065612793 -0.37524414 0 0 0 0
0.11523438 0.0065612793 -0.37524414 0 0 0 0
0.13635254 0.0062789917 -0.359375 0 0 0 0
0.13818359 0.0062789917 -0.359375 0 0 0 0
0.13964844 0.0062637329 -0.35839844 0 0 0 0
0.14147949 0.0062637329 -0.35839844 0 0 0 0
0.14294434 0.0062446594 -0.35717773 0 0 0 0
0.14477539 0.0062446594 -0.35717773 0 0 0 0
0.14660645 0.0062446594 -0.35717773 0 0 0 0
0.1484375 0.0062446594 -0.35717773 0 0 0 0
0.15039062 0.0062446594 -0.35717773 0 0 0 0
0.15222168 0.0062446594 -0.35717773 0 0 0 0
0.15356445 0.0062255859 -0.35620117 0 0 0 0
0.15551758 0.0062255859 -0.35620117 0 0 0 0
0.15734863 0.0062255859 -0.35620117 0 0 0 0
0.15917969 0.0062255859 -0.35620117 0 0 0 0
0.16052246 0.0062103271 -0.35522461 0 0 0 0
0.16235352 0.0062103271 -0.35522461 0 0 0 0
0.16418457 0.0062103271 -0.35522461 0 0 0 0
0.16601562 0.0062103271 -0.35522461 0 0 0 0
0.16784668 0.0062103271 -0.35522461 0 0 0 0
0.1697998 0.0062103271 -0.35522461 0 0 0 0
0.17163086 0.0062103271 -0.35522461 0 0 0 0
0.17346191 0.0062103271 -0.35522461 0 0 0 0
0.17529297 0.0062103271 -0.35522461 0 0 0 0
0.17712402 0.0062103271 -0.35522461 0 0 0 0
0.17895508 0.0062103271 -0.35522461 0 0 0 0
0.17980957 0.0061759949 -0.35327148 0 0 0 0
0.18103027 0.0061569214 -0.35229492 0 0 0 0
0.18286133 0.0061569214 -0.35229492 0 0 0 0
0.18469238 0.0061569214 -0.35229492 0 0 0 0
0.18652344 0.0061569214 -0.35229492 0 0 0 0
0.18835449 0.0061569214 -0.35229492 0 0 0 0
0.18969727 0.0061378479 -0.35131836 0 0 0 0
0.19152832 0.0061378479 -0.35131836 0 0 0 0
0.1932373 0.0061378479 -0.35131836 0 0 0 0
0.19506836 0.0061378479 -0.35131836 0 0 0 0
0.19689941 0.0061378479 -0.35131836 0 0 0 0
0.19873047 0.0061378479 -0.35131836 0 0 0 0
0.20056152 0.0061378479 -0.35131836 0 0 0 0
0.20239258 0.0061378479 -0.35131836 0 0 0 0
0.20422363 0.0061378479 -0.35131836 0 0 0 0
0.20666504 0.0061569214 -0.35229492 0 0 0 0
0.20849609 0.0061569214 -0.35229492 0 0 0 0
0.21081543 0.0061759949 -0.35327148 0 0 0 0
0.21264648 0.0061759949 -0.35327148 0 0 0 0
0.21447754 0.0061759949 -0.35327148 0 0 0 0
0.21630859 0.0061759949 -0.35327148 0 0 0 0
0.21813965 0.0061759949 -0.35327148 0 0 0 0
0.2199707 0.0061759949 -0.35327148 0 0 0 0
0.22180176 0.0061759949 -0.35327148 0 0 0 0
0.094848633 0.0046653748 -0.37939453 0 0 0 0
0.096557617 0.0046539307 -0.37841797 0 0 0 0
0.098205566 0.0046424866 -0.37744141 0 0 0 0
0.10015869 0.0046424866 -0.37744141 0 0 0 0
0.10186768 0.0046272278 -0.37646484 0 0 0 0
0.1038208 0.0046272278 -0.37646484 0 0 0 0
0.10546875 0.0046157837 -0.37524414 0 0 0 0
0.10742188 0.0046157837 -0.37524414 0 0 0 0
0.109375 0.0046157837 -0.37524414 0 0 0 0
0.11132812 0.0046157837 -0.37524414 0 0 0 0
0.11358643 0.0046272278 -0.37646484 0 0 0 0
0.13330078 0.0044441223 -0.36132812 0 0 0 0
0.13476562 0.0044326782 -0.36035156 0 0 0 0
0.13635254 0.0044174194 -0.359375 0 0 0 0
0.13818359 0.0044174194 -0.359375 0 0 0 0
0.13964844 0.0044059753 -0.35839844 0 0 0 0
0.14147949 0.0044059753 -0.35839844 0 0 0 0
0.14294434 0.0043945312 -0.35717773 0 0 0 0
0.14477539 0.0043945312 -0.35717773 0 0 0 0
0.14660645 0.0043945312 -0.35717773 0 0 0 0
0.1484375 0.0043945312 -0.35717773 0 0 0 0
0.14990234 0.0043830872 -0.35620117 0 0 0 0
0.1517334 0.0043830872 -0.35620117 0 0 0 0
0.15356445 0.0043830872 -0.35620117 0 0 0 0
0.1550293 0.0043678284 -0.35522461 0 0 0 0
0.15686035 0.0043678284 -0.35522461 0 0 0 0
0.15869141 0.0043678284 -0.35522461 0 0 0 0
0.16052246 0.0043678284 -0.35522461 0 0 0 0
0.16235352 0.0043678284 -0.35522461 0 0 0 0
0.16381836 0.0043563843 -0.35424805 0 0 0 0
0.16564941 0.0043563843 -0.35424805 0 0 0 0
0.16748047 0.0043563843 -0.35424805 0 0 0 0
0.16931152 0.0043563843 -0.35424805 0 0 0 0
0.17114258 0.0043563843 -0.35424805 0 0 0 0
0.17297363 0.0043563843 -0.35424805 0 0 0 0
0.17480469 0.0043563843 -0.35424805 0 0 0 0
0.17663574 0.0043563843 -0.35424805 0 0 0 0
0.17797852 0.0043449402 -0.35327148 0 0 0 0
0.17919922 0.0043334961 -0.35229492 0 0 0 0
0.18103027 0.0043334961 -0.35229492 0 0 0 0
0.18286133 0.0043334961 -0.35229492 0 0 0 0
0.1842041 0.004322052 -0.35131836 0 0 0 0
0.18603516 0.004322052 -0.35131836 0 0 0 0
0.18786621 0.004322052 -0.35131836 0 0 0 0
0.18969727 0.004322052 -0.35131836 0 0 0 0
0.19152832 0.004322052 -0.35131836 0 0 0 0
0.1932373 0.004322052 -0.35131836 0 0 0 0
0.19506836 0.004322052 -0.35131836 0 0 0 0
0.19641113 0.0043067932 -0.3503418 0 0 0 0
0.19873047 0.004322052 -0.35131836 0 0 0 0
0.20056152 0.004322052 -0.35131836 0 0 0 0
0.20239258 0.004322052 -0.35131836 0 0 0 0
0.20422363 0.004322052 -0.35131836 0 0 0 0
0.20666504 0.0043334961 -0.35229492 0 0 0 0
0.20849609 0.0043334961 -0.35229492 0 0 0 0
0.21081543 0.0043449402 -0.35327148 0 0 0 0
0.21264648 0.0043449402 -0.35327148 0 0 0 0
0.21447754 0.0043449402 -0.35327148 0 0 0 0
0.21630859 0.0043449402 -0.35327148 0 0 0 0
0.21813965 0.0043449402 -0.35327148 0 0 0 0
0.10546875 0.0026741028 -0.37524414 0 0 0 0
0.10742188 0.0026741028 -0.37524414 0 0 0 0
0.13061523 0.0025939941 -0.36425781 0 0 0 0
0.13220215 0.0025882721 -0.36328125 0 0 0 0
0.13366699 0.0025806427 -0.36230469 0 0 0 0
0.13513184 0.0025730133 -0.36132812 0 0 0 0
0.13671875 0.0025653839 -0.36035156 0 0 0 0
0.13818359 0.0025596619 -0.359375 0 0 0 0
0.13964844 0.0025520325 -0.35839844 0 0 0 0
0.14147949 0.0025520325 -0.35839844 0 0 0 0
0.14294434 0.0025444031 -0.35717773 0 0 0 0
0.14477539 0.0025444031 -0.35717773 0 0 0 0
0.14624023 0.0025367737 -0.35620117 0 0 0 0
0.14807129 0.0025367737 -0.35620117 0 0 0 0
0.14990234 0.0025367737 -0.35620117 0 0 0 0
0.15136719 0.0025310516 -0.35522461 0 0 0 0
0.15319824 0.0025310516 -0.35522461 0 0 0 0
0.1550293 0.0025310516 -0.35522461 0 0 0 0
0.15686035 0.0025310516 -0.35522461 0 0 0 0
0.15820312 0.0025234222 -0.35424805 0 0 0 0
0.16003418 0.0025234222 -0.35424805 0 0 0 0
0.16186523 0.0025234222 -0.35424805 0 0 0 0
0.16381836 0.0025234222 -0.35424805 0 0 0 0
0.16564941 0.0025234222 -0.35424805 0 0 0 0
0.16748047 0.0025234222 -0.35424805 0 0 0 0
0.16931152 0.0025234222 -0.35424805 0 0 0 0
0.17114258 0.0025234222 -0.35424805 0 0 0 0
0.17248535 0.0025157928 -0.35327148 0 0 0 0
0.17431641 0.0025157928 -0.35327148 0 0 0 0
0.17565918 0.0025081635 -0.35229492 0 0 0 0
0.17736816 0.0025081635 -0.35229492 0 0 0 0
0.17919922 0.0025081635 -0.35229492 0 0 0 0
0.18054199 0.0025024414 -0.35131836 0 0 0 0
0.18237305 0.0025024414 -0.35131836 0 0 0 0
0.1842041 0.0025024414 -0.35131836 0 0 0 0
0.18603516 0.0025024414 -0.35131836 0 0 0 0
0.18786621 0.0025024414 -0.35131836 0 0 0 0
0.18969727 0.0025024414 -0.35131836 0 0 0 0
0.19152832 0.0025024414 -0.35131836 0 0 0 0
0.1932373 0.0025024414 -0.35131836 0 0 0 0
0.19458008 0.002494812 -0.3503418 0 0 0 0
0.19641113 0.002494812 -0.3503418 0 0 0 0
0.19824219 0.002494812 -0.3503418 0 0 0 0
0.20056152 0.0025024414 -0.35131836 0 0 0 0
0.20239258 0.0025024414 -0.35131836 0 0 0 0
0.20422363 0.0025024414 -0.35131836 0 0 0 0
0.20666504 0.0025081635 -0.35229492 0 0 0 0
0.20849609 0.0025081635 -0.35229492 0 0 0 0
0.21081543 0.0025157928 -0.35327148 0 0 0 0
0.21264648 0.0025157928 -0.35327148 0 0 0 0
0.21447754 0.0025157928 -0.35327148 0 0 0 0
0.12719727 0.00071048737 -0.36523438 0 0 0 0
0.12878418 0.00070858002 -0.36425781 0 0 0 0
0.13024902 0.00070667267 -0.36328125 0 0 0 0
0.13220215 0.00070667267 -0.36328125 0 0 0 0
0.13366699 0.00070476532 -0.36230469 0 0 0 0
0.13476562 0.00070047379 -0.36035156 0 0 0 0
0.13635254 0.00069856644 -0.359375 0 0 0 0
0.13818359 0.00069856644 -0.359375 0 0 0 0
0.13964844 0.00069665909 -0.35839844 0 0 0 0
0.14111328 0.00069475174 -0.35717773 0 0 0 0
0.14294434 0.00069475174 -0.35717773 0 0 0 0
0.14440918 0.00069284439 -0.35620117 0 0 0 0
0.14624023 0.00069284439 -0.35620117 0 0 0 0
0.14770508 0.00069093704 -0.35522461 0 0 0 0
0.14953613 0.00069093704 -0.35522461 0 0 0 0
0.15136719 0.00069093704 -0.35522461 0 0 0 0
0.15270996 0.00068902969 -0.35424805 0 0 0 0
0.15454102 0.00068902969 -0.35424805 0 0 0 0
0.15637207 0.00068902969 -0.35424805 0 0 0 0
0.15820312 0.00068902969 -0.35424805 0 0 0 0
0.16003418 0.00068902969 -0.35424805 0 0 0 0
0.16186523 0.00068902969 -0.35424805 0 0 0 0
0.16333008 0.00068712234 -0.35327148 0 0 0 0
0.16516113 0.00068712234 -0.35327148 0 0 0 0
0.16699219 0.00068712234 -0.35327148 0 0 0 0
0.16882324 0.00068712234 -0.35327148 0 0 0 0
0.1706543 0.00068712234 -0.35327148 0 0 0 0
0.17248535 0.00068712234 -0.35327148 0 0 0 0
0.17382812 0.000685215 -0.35229492 0 0 0 0
0.17565918 0.000685215 -0.35229492 0 0 0 0
0.17687988 0.00068283081 -0.35131836 0 0 0 0
0.17871094 0.00068283081 -0.35131836 0 0 0 0
0.18054199 0.00068283081 -0.35131836 0 0 0 0
0.18237305 0.00068283081 -0.35131836 0 0 0 0
0.1842041 0.00068283081 -0.35131836 0 0 0 0
0.18603516 0.00068283081 -0.35131836 0 0 0 0
0.18786621 0.00068283081 -0.35131836 0 0 0 0
0.18969727 0.00068283081 -0.35131836 0 0 0 0
0.19152832 0.00068283081 -0.35131836 0 0 0 0
0.1932373 0.00068283081 -0.35131836 0 0 0 0
0.19458008 0.00068092346 -0.3503418 0 0 0 0
0.19641113 0.00068092346 -0.3503418 0 0 0 0
0.19824219 0.00068092346 -0.3503418 0 0 0 0
0.20056152 0.00068283081 -0.35131836 0 0 0 0
0.20239258 0.00068283081 -0.35131836 0 0 0 0
0.20422363 0.00068283081 -0.35131836 0 0 0 0
0.20605469 0.00068283081 -0.35131836 0 0 0 0
0.20849609 0.000685215 -0.35229492 0 0 0 0
0.21032715 0.000685215 -0.35229492 0 0 0 0
0.21264648 0.00068712234 -0.35327148 0 0 0 0
0.21447754 0.00068712234 -0.35327148 0 0 0 0
0.12536621 -0.0011806488 -0.36523438 0 0 0 0
0.12683105 -0.0011777878 -0.36425781 0 0 0 0
0.12878418 -0.0011777878 -0.36425781 0 0 0 0
0.13024902 -0.0011749268 -0.36328125 0 0 0 0
0.13183594 -0.0011711121 -0.36230469 0 0 0 0
0.13330078 -0.001168251 -0.36132812 0 0 0 0
0.13476562 -0.0011644363 -0.36035156 0 0 0 0
0.13635254 -0.0011615753 -0.359375 0 0 0 0
0.13781738 -0.0011587143 -0.35839844 0 0 0 0
0.13964844 -0.0011587143 -0.35839844 0 0 0 0
0.14111328 -0.0011548996 -0.35717773 0 0 0 0
0.14257812 -0.0011520386 -0.35620117 0 0 0 0
0.14440918 -0.0011520386 -0.35620117 0 0 0 0
0.14587402 -0.0011482239 -0.35522461 0 0 0 0
0.14770508 -0.0011482239 -0.35522461 0 0 0 0
0.14904785 -0.0011453629 -0.35424805 0 0 0 0
0.15087891 -0.0011453629 -0.35424805 0 0 0 0
0.15270996 -0.0011453629 -0.35424805 0 0 0 0
0.15454102 -0.0011453629 -0.35424805 0 0 0 0
0.15637207 -0.0011453629 -0.35424805 0 0 0 0
0.15820312 -0.0011453629 -0.35424805 0 0 0 0
0.15966797 -0.0011425018 -0.35327148 0 0 0 0
0.16101074 -0.0011386871 -0.35229492 0 0 0 0
0.1628418 -0.0011386871 -0.35229492 0 0 0 0
0.16467285 -0.0011386871 -0.35229492 0 0 0 0
0.16650391 -0.0011386871 -0.35229492 0 0 0 0
0.16833496 -0.0011386871 -0.35229492 0 0 0 0
0.17016602 -0.0011386871 -0.35229492 0 0 0 0
0.17199707 -0.0011386871 -0.35229492 0 0 0 0
0.17382812 -0.0011386871 -0.35229492 0 0 0 0
0.17504883 -0.0011358261 -0.35131836 0 0 0 0
0.17687988 -0.0011358261 -0.35131836 0 0 0 0
0.17871094 -0.0011358261 -0.35131836 0 0 0 0
0.18054199 -0.0011358261 -0.35131836 0 0 0 0
0.18237305 -0.0011358261 -0.35131836 0 0 0 0
0.1842041 -0.0011358261 -0.35131836 0 0 0 0
0.18603516 -0.0011358261 -0.35131836 0 0 0 0
0.18786621 -0.0011358261 -0.35131836 0 0 0 0
0.18969727 -0.0011358261 -0.35131836 0 0 0 0
0.19152832 -0.0011358261 -0.35131836 0 0 0 0
0.1932373 -0.0011358261 -0.35131836 0 0 0 0
0.19506836 -0.0011358261 -0.35131836 0 0 0 0
0.19689941 -0.0011358261 -0.35131836 0 0 0 0
0.19873047 -0.0011358261 -0.35131836 0 0 0 0
0.20056152 -0.0011358261 -0.35131836 0 0 0 0
0.20239258 -0.0011358261 -0.35131836 0 0 0 0
0.20422363 -0.0011358261 -0.35131836 0 0 0 0
0.20605469 -0.0011358261 -0.35131836 0 0 0 0
0.20849609 -0.0011386871 -0.35229492 0 0 0 0
0.21032715 -0.0011386871 -0.35229492 0 0 0 0
0.12347412 -0.0030727386 -0.36523438 0 0 0 0
0.125 -0.0030651093 -0.36425781 0 0 0 0
0.12683105 -0.0030651093 -0.36425781 0 0 0 0
0.12841797 -0.0030555725 -0.36328125 0 0 0 0
0.12988281 -0.0030479431 -0.36230469 0 0 0 0
0.13146973 -0.0030384064 -0.36132812 0 0 0 0
0.13293457 -0.003030777 -0.36035156 0 0 0 0
0.13439941 -0.0030212402 -0.359375 0 0 0 0
0.13635254 -0.0030212402 -0.359375 0 0 0 0
0.13781738 -0.0030136108 -0.35839844 0 0 0 0
0.13928223 -0.0030059814 -0.35717773 0 0 0 0
0.14074707 -0.0029964447 -0.35620117 0 0 0 0
0.14257812 -0.0029964447 -0.35620117 0 0 0 0
0.1439209 -0.0029888153 -0.35522461 0 0 0 0
0.14538574 -0.0029792786 -0.35424805 0 0 0 0
0.1472168 -0.0029792786 -0.35424805 0 0 0 0
0.14868164 -0.0029716492 -0.35327148 0 0 0 0
0.15087891 -0.0029792786 -0.35424805 0 0 0 0
0.15270996 -0.0029792786 -0.35424805 0 0 0 0
0.1541748 -0.0029716492 -0.35327148 0 0 0 0
0.15600586 -0.0029716492 -0.35327148 0 0 0 0
0.15686035 -0.002954483 -0.35131836 0 0 0 0
0.15869141 -0.002954483 -0.35131836 0 0 0 0
0.16052246 -0.002954483 -0.35131836 0 0 0 0
0.16235352 -0.002954483 -0.35131836 0 0 0 0
0.16418457 -0.002954483 -0.35131836 0 0 0 0
0.16601562 -0.002954483 -0.35131836 0 0 0 0
0.16784668 -0.002954483 -0.35131836 0 0 0 0
0.16967773 -0.002954483 -0.35131836 0 0 0 0
0.17150879 -0.002954483 -0.35131836 0 0 0 0
0.17333984 -0.002954483 -0.35131836 0 0 0 0
0.17504883 -0.002954483 -0.35131836 0 0 0 0
0.17687988 -0.002954483 -0.35131836 0 0 0 0
0.17871094 -0.002954483 -0.35131836 0 0 0 0
0.18054199 -0.002954483 -0.35131836 0 0 0 0
0.18237305 -0.002954483 -0.35131836 0 0 0 0
0.1842041 -0.002954483 -0.35131836 0 0 0 0
0.18603516 -0.002954483 -0.35131836 0 0 0 0
0.18786621 -0.002954483 -0.35131836 0 0 0 0
0.18969727 -0.002954483 -0.35131836 0 0 0 0
0.19152832 -0.002954483 -0.35131836 0 0 0 0
0.1932373 -0.002954483 -0.35131836 0 0 0 0
0.19506836 -0.002954483 -0.35131836 0 0 0 0
0.19689941 -0.002954483 -0.35131836 0 0 0 0
0.19873047 -0.002954483 -0.35131836 0 0 0 0
0.20056152 -0.002954483 -0.35131836 0 0 0 0
0.20239258 -0.002954483 -0.35131836 0 0 0 0
0.20422363 -0.002954483 -0.35131836 0 0 0 0
0.20605469 -0.002954483 -0.35131836 0 0 0 0
0.11999512 -0.0049781799 -0.36621094 0 0 0 0
0.12158203 -0.0049629211 -0.36523438 0 0 0 0
0.12316895 -0.0049514771 -0.36425781 0 0 0 0
0.125 -0.0049514771 -0.36425781 0 0 0 0
0.12658691 -0.0049362183 -0.36328125 0 0 0 0
0.12805176 -0.0049247742 -0.36230469 0 0 0 0
0.12963867 -0.0049095154 -0.36132812 0 0 0 0
0.13110352 -0.0048942566 -0.36035156 0 0 0 0
0.13293457 -0.0048942566 -0.36035156 0 0 0 0
0.13439941 -0.0048828125 -0.359375 0 0 0 0
0.13586426 -0.0048675537 -0.35839844 0 0 0 0
0.13745117 -0.0048561096 -0.35717773 0 0 0 0
0.13879395 -0.0048408508 -0.35620117 0 0 0 0
0.14025879 -0.0048294067 -0.35522461 0 0 0 0
0.14208984 -0.0048294067 -0.35522461 0 0 0 0
0.14355469 -0.0048141479 -0.35424805 0 0 0 0
0.14501953 -0.0047988892 -0.35327148 0 0 0 0
0.14685059 -0.0047988892 -0.35327148 0 0 0 0
0.14868164 -0.0047988892 -0.35327148 0 0 0 0
0.1505127 -0.0047988892 -0.35327148 0 0 0 0
0.15234375 -0.0047988892 -0.35327148 0 0 0 0
0.15368652 -0.0047874451 -0.35229492 0 0 0 0
0.1550293 -0.0047721863 -0.35131836 0 0 0 0
0.15686035 -0.0047721863 -0.35131836 0 0 0 0
0.15783691 -0.0047454834 -0.34912109 0 0 0 0
0.15966797 -0.0047454834 -0.34912109 0 0 0 0
0.16186523 -0.0047607422 -0.3503418 0 0 0 0
0.16369629 -0.0047607422 -0.3503418 0 0 0 0
0.16601562 -0.0047721863 -0.35131836 0 0 0 0
0.16784668 -0.0047721863 -0.35131836 0 0 0 0
0.16967773 -0.0047721863 -0.35131836 0 0 0 0
0.17150879 -0.0047721863 -0.35131836 0 0 0 0
0.17333984 -0.0047721863 -0.35131836 0 0 0 0
0.17504883 -0.0047721863 -0.35131836 0 0 0 0
0.1763916 -0.0047607422 -0.3503418 0 0 0 0
0.17822266 -0.0047607422 -0.3503418 0 0 0 0
0.18054199 -0.0047721863 -0.35131836 0 0 0 0
0.18237305 -0.0047721863 -0.35131836 0 0 0 0
0.1842041 -0.0047721863 -0.35131836 0 0 0 0
0.18603516 -0.0047721863 -0.35131836 0 0 0 0
0.18786621 -0.0047721863 -0.35131836 0 0 0 0
0.18969727 -0.0047721863 -0.35131836 0 0 0 0
0.1920166 -0.0047874451 -0.35229492 0 0 0 0
0.1932373 -0.0047721863 -0.35131836 0 0 0 0
0.19506836 -0.0047721863 -0.35131836 0 0 0 0
0.19689941 -0.0047721863 -0.35131836 0 0 0 0
0.19873047 -0.0047721863 -0.35131836 0 0 0 0
0.20056152 -0.0047721863 -0.35131836 0 0 0 0
0.20239258 -0.0047721863 -0.35131836 0 0 0 0
0.20422363 -0.0047721863 -0.35131836 0 0 0 0
0.11877441 -0.0069122314 -0.3684082 0 0 0 0
0.11999512 -0.0068740845 -0.36621094 0 0 0 0
0.12158203 -0.006855011 -0.36523438 0 0 0 0
0.12316895 -0.0068359375 -0.36425781 0 0 0 0
0.12469482 -0.006816864 -0.36328125 0 0 0 0
0.1262207 -0.0068016052 -0.36230469 0 0 0 0
0.12768555 -0.0067825317 -0.36132812 0 0 0 0
0.12927246 -0.0067634583 -0.36035156 0 0 0 0
0.1307373 -0.0067443848 -0.359375 0 0 0 0
0.13220215 -0.0067253113 -0.35839844 0 0 0 0
0.1340332 -0.0067253113 -0.35839844 0 0 0 0
0.13549805 -0.0067062378 -0.35717773 0 0 0 0
0.13696289 -0.0066871643 -0.35620117 0 0 0 0
0.13842773 -0.0066680908 -0.35522461 0 0 0 0
0.14025879 -0.0066680908 -0.35522461 0 0 0 0
0.14172363 -0.0066490173 -0.35424805 0 0 0 0
0.14318848 -0.0066299438 -0.35327148 0 0 0 0
0.14501953 -0.0066299438 -0.35327148 0 0 0 0
0.1463623 -0.0066108704 -0.35229492 0 0 0 0
0.14819336 -0.0066108704 -0.35229492 0 0 0 0
0.1496582 -0.0065917969 -0.35131836 0 0 0 0
0.1541748 -0.0065536499 -0.34912109 0 0 0 0
0.15600586 -0.0065536499 -0.34912109 0 0 0 0
0.15783691 -0.0065536499 -0.34912109 0 0 0 0
0.15966797 -0.0065536499 -0.34912109 0 0 0 0
0.16137695 -0.0065536499 -0.34912109 0 0 0 0
0.16369629 -0.0065727234 -0.3503418 0 0 0 0
0.16552734 -0.0065727234 -0.3503418 0 0 0 0
0.1673584 -0.0065727234 -0.3503418 0 0 0 0
0.16918945 -0.0065727234 -0.3503418 0 0 0 0
0.17102051 -0.0065727234 -0.3503418 0 0 0 0
0.17272949 -0.0065727234 -0.3503418 0 0 0 0
0.17456055 -0.0065727234 -0.3503418 0 0 0 0
0.1763916 -0.0065727234 -0.3503418 0 0 0 0
0.17822266 -0.0065727234 -0.3503418 0 0 0 0
0.18054199 -0.0065917969 -0.35131836 0 0 0 0
0.18237305 -0.0065917969 -0.35131836 0 0 0 0
0.1842041 -0.0065917969 -0.35131836 0 0 0 0
0.18603516 -0.0065917969 -0.35131836 0 0 0 0
0.18835449 -0.0066108704 -0.35229492 0 0 0 0
0.19018555 -0.0066108704 -0.35229492 0 0 0 0
0.1920166 -0.0066108704 -0.35229492 0 0 0 0
0.19384766 -0.0066108704 -0.35229492 0 0 0 0
0.19567871 -0.0066108704 -0.35229492 0 0 0 0
0.19750977 -0.0066108704 -0.35229492 0 0 0 0
0.19873047 -0.0065917969 -0.35131836 0 0 0 0
0.20056152 -0.0065917969 -0.35131836 0 0 0 0
0.20239258 -0.0065917969 -0.35131836 0 0 0 0
0.11688232 -0.0088195801 -0.3684082 0 0 0 0
0.11846924 -0.0087966919 -0.36743164 0 0 0 0
0.11999512 -0.0087738037 -0.36621094 0 0 0 0
0.12127686 -0.0087203979 -0.36425781 0 0 0 0
0.12243652 -0.0086746216 -0.36230469 0 0 0 0
0.12402344 -0.0086517334 -0.36132812 0 0 0 0
0.12548828 -0.0086288452 -0.36035156 0 0 0 0
0.12731934 -0.0086288452 -0.36035156 0 0 0 0
0.12890625 -0.008605957 -0.359375 0 0 0 0
0.13037109 -0.0085754395 -0.35839844 0 0 0 0
0.13183594 -0.0085525513 -0.35717773 0 0 0 0
0.13330078 -0.0085296631 -0.35620117 0 0 0 0
0.13513184 -0.0085296631 -0.35620117 0 0 0 0
0.13659668 -0.0085067749 -0.35522461 0 0 0 0
0.13806152 -0.0084838867 -0.35424805 0 0 0 0
0.13952637 -0.0084609985 -0.35327148 0 0 0 0
0.14135742 -0.0084609985 -0.35327148 0 0 0 0
0.1427002 -0.008430481 -0.35229492 0 0 0 0
0.14453125 -0.008430481 -0.35229492 0 0 0 0
0.14599609 -0.0084075928 -0.35131836 0 0 0 0
0.14782715 -0.0084075928 -0.35131836 0 0 0 0
0.14880371 -0.0083618164 -0.34912109 0 0 0 0
0.15063477 -0.0083618164 -0.34912109 0 0 0 0
0.15234375 -0.0083618164 -0.34912109 0 0 0 0
0.1541748 -0.0083618164 -0.34912109 0 0 0 0
0.15600586 -0.0083618164 -0.34912109 0 0 0 0
0.15783691 -0.0083618164 -0.34912109 0 0 0 0
0.15966797 -0.0083618164 -0.34912109 0 0 0 0
0.16137695 -0.0083618164 -0.34912109 0 0 0 0
0.16320801 -0.0083618164 -0.34912109 0 0 0 0
0.16552734 -0.0083847046 -0.3503418 0 0 0 0
0.1673584 -0.0083847046 -0.3503418 0 0 0 0
0.16918945 -0.0083847046 -0.3503418 0 0 0 0
0.17102051 -0.0083847046 -0.3503418 0 0 0 0
0.17272949 -0.0083847046 -0.3503418 0 0 0 0
0.17456055 -0.0083847046 -0.3503418 0 0 0 0
0.1763916 -0.0083847046 -0.3503418 0 0 0 0
0.17871094 -0.0084075928 -0.35131836 0 0 0 0
0.18054199 -0.0084075928 -0.35131836 0 0 0 0
0.18237305 -0.0084075928 -0.35131836 0 0 0 0
0.1842041 -0.0084075928 -0.35131836 0 0 0 0
0.18652344 -0.008430481 -0.35229492 0 0 0 0
0.18835449 -0.008430481 -0.35229492 0 0 0 0
0.19018555 -0.008430481 -0.35229492 0 0 0 0
0.19262695 -0.0084609985 -0.35327148 0 0 0 0
0.19445801 -0.0084609985 -0.35327148 0 0 0 0
0.19567871 -0.008430481 -0.35229492 0 0 0 0
0.19750977 -0.008430481 -0.35229492 0 0 0 0
0.19934082 -0.008430481 -0.35229492 0 0 0 0
0.11334229 -0.010757446 -0.36938477 0 0 0 0
0.1149292 -0.010726929 -0.3684082 0 0 0 0
0.11657715 -0.010696411 -0.36743164 0 0 0 0
0.11810303 -0.010665894 -0.36621094 0 0 0 0
0.11968994 -0.010635376 -0.36523438 0 0 0 0
0.12060547 -0.010551453 -0.36230469 0 0 0 0
0.12213135 -0.010520935 -0.36132812 0 0 0 0
0.12365723 -0.010490417 -0.36035156 0 0 0 0
0.12512207 -0.0104599 -0.359375 0 0 0 0
0.12658691 -0.010437012 -0.35839844 0 0 0 0
0.12817383 -0.010406494 -0.35717773 0 0 0 0
0.13000488 -0.010406494 -0.35717773 0 0 0 0
0.13146973 -0.010375977 -0.35620117 0 0 0 0
0.13293457 -0.010345459 -0.35522461 0 0 0 0
0.13439941 -0.010314941 -0.35424805 0 0 0 0
0.13623047 -0.010314941 -0.35424805 0 0 0 0
0.13769531 -0.010284424 -0.35327148 0 0 0 0
0.13916016 -0.010261536 -0.35229492 0 0 0 0
0.14099121 -0.010261536 -0.35229492 0 0 0 0
0.14233398 -0.010231018 -0.35131836 0 0 0 0
0.14416504 -0.010231018 -0.35131836 0 0 0 0
0.14562988 -0.0102005 -0.3503418 0 0 0 0
0.14733887 -0.0102005 -0.3503418 0 0 0 0
0.14880371 -0.010169983 -0.34912109 0 0 0 0
0.15063477 -0.010169983 -0.34912109 0 0 0 0
0.15197754 -0.010139465 -0.34814453 0 0 0 0
0.15380859 -0.010139465 -0.34814453 0 0 0 0
0.15551758 -0.010139465 -0.34814453 0 0 0 0
0.15783691 -0.010169983 -0.34912109 0 0 0 0
0.15966797 -0.010169983 -0.34912109 0 0 0 0
0.16137695 -0.010169983 -0.34912109 0 0 0 0
0.16320801 -0.010169983 -0.34912109 0 0 0 0
0.16552734 -0.0102005 -0.3503418 0 0 0 0
0.1673584 -0.0102005 -0.3503418 0 0 0 0
0.16918945 -0.0102005 -0.3503418 0 0 0 0
0.17102051 -0.0102005 -0.3503418 0 0 0 0
0.17272949 -0.0102005 -0.3503418 0 0 0 0
0.17504883 -0.010231018 -0.35131836 0 0 0 0
0.17687988 -0.010231018 -0.35131836 0 0 0 0
0.17871094 -0.010231018 -0.35131836 0 0 0 0
0.18054199 -0.010231018 -0.35131836 0 0 0 0
0.18237305 -0.010231018 -0.35131836 0 0 0 0
0.1842041 -0.010231018 -0.35131836 0 0 0 0
0.18652344 -0.010261536 -0.35229492 0 0 0 0
0.18835449 -0.010261536 -0.35229492 0 0 0 0
0.1907959 -0.010284424 -0.35327148 0 0 0 0
0.19262695 -0.010284424 -0.35327148 0 0 0 0
0.19445801 -0.010284424 -0.35327148 0 0 0 0
0.19628906 -0.010284424 -0.35327148 0 0 0 0
0.19750977 -0.010261536 -0.35229492 0 0 0 0
0.11114502 -0.012634277 -0.3684082 0 0 0 0
0.11303711 -0.012634277 -0.3684082 0 0 0 0
0.11462402 -0.01259613 -0.36743164 0 0 0 0
0.11621094 -0.012565613 -0.36621094 0 0 0 0
0.11779785 -0.012527466 -0.36523438 0 0 0 0
0.11871338 -0.012428284 -0.36230469 0 0 0 0
0.12023926 -0.012390137 -0.36132812 0 0 0 0
0.12176514 -0.012359619 -0.36035156 0 0 0 0
0.12329102 -0.012321472 -0.359375 0 0 0 0
0.12481689 -0.012290955 -0.35839844 0 0 0 0
0.12634277 -0.012252808 -0.35717773 0 0 0 0
0.12780762 -0.01222229 -0.35620117 0 0 0 0
0.12963867 -0.01222229 -0.35620117 0 0 0 0
0.13110352 -0.012184143 -0.35522461 0 0 0 0
0.13256836 -0.012153625 -0.35424805 0 0 0 0
0.1340332 -0.012115479 -0.35327148 0 0 0 0
0.13586426 -0.012115479 -0.35327148 0 0 0 0
0.1373291 -0.012084961 -0.35229492 0 0 0 0
0.13867188 -0.012046814 -0.35131836 0 0 0 0
0.14050293 -0.012046814 -0.35131836 0 0 0 0
0.14196777 -0.012016296 -0.3503418 0 0 0 0
0.14379883 -0.012016296 -0.3503418 0 0 0 0
0.14562988 -0.012016296 -0.3503418 0 0 0 0
0.14697266 -0.011978149 -0.34912109 0 0 0 0
0.14880371 -0.011978149 -0.34912109 0 0 0 0
0.15063477 -0.011978149 -0.34912109 0 0 0 0
0.15197754 -0.011947632 -0.34814453 0 0 0 0
0.15380859 -0.011947632 -0.34814453 0 0 0 0
0.15600586 -0.011978149 -0.34912109 0 0 0 0
0.15783691 -0.011978149 -0.34912109 0 0 0 0
0.15966797 -0.011978149 -0.34912109 0 0 0 0
0.16137695 -0.011978149 -0.34912109 0 0 0 0
0.16320801 -0.011978149 -0.34912109 0 0 0 0
0.16552734 -0.012016296 -0.3503418 0 0 0 0
0.1673584 -0.012016296 -0.3503418 0 0 0 0
0.16918945 -0.012016296 -0.3503418 0 0 0 0
0.17150879 -0.012046814 -0.35131836 0 0 0 0
0.17333984 -0.012046814 -0.35131836 0 0 0 0
0.17504883 -0.012046814 -0.35131836 0 0 0 0
0.17687988 -0.012046814 -0.35131836 0 0 0 0
0.17871094 -0.012046814 -0.35131836 0 0 0 0
0.18054199 -0.012046814 -0.35131836 0 0 0 0
0.18286133 -0.012084961 -0.35229492 0 0 0 0
0.1842041 -0.012046814 -0.35131836 0 0 0 0
0.18652344 -0.012084961 -0.35229492 0 0 0 0
0.18896484 -0.012115479 -0.35327148 0 0 0 0
0.1907959 -0.012115479 -0.35327148 0 0 0 0
0.19262695 -0.012115479 -0.35327148 0 0 0 0
0.19445801 -0.012115479 -0.35327148 0 0 0 0
0.10894775 -0.014503479 -0.36743164 0 0 0 0
0.11083984 -0.014503479 -0.36743164 0 0 0 0
0.11242676 -0.014465332 -0.36621094 0 0 0 0
0.11401367 -0.014419556 -0.36523438 0 0 0 0
0.11560059 -0.014381409 -0.36425781 0 0 0 0
0.11682129 -0.014305115 -0.36230469 0 0 0 0
0.11804199 -0.014221191 -0.36035156 0 0 0 0
0.11956787 -0.014183044 -0.359375 0 0 0 0
0.12109375 -0.014144897 -0.35839844 0 0 0 0
0.12261963 -0.01410675 -0.35717773 0 0 0 0
0.12445068 -0.01410675 -0.35717773 0 0 0 0
0.12597656 -0.014068604 -0.35620117 0 0 0 0
0.12744141 -0.014030457 -0.35522461 0 0 0 0
0.12890625 -0.01398468 -0.35424805 0 0 0 0
0.1307373 -0.01398468 -0.35424805 0 0 0 0
0.13220215 -0.013946533 -0.35327148 0 0 0 0
0.13366699 -0.013908386 -0.35229492 0 0 0 0
0.13549805 -0.013908386 -0.35229492 0 0 0 0
0.13684082 -0.013870239 -0.35131836 0 0 0 0
0.13867188 -0.013870239 -0.35131836 0 0 0 0
0.14013672 -0.013832092 -0.3503418 0 0 0 0
0.14196777 -0.013832092 -0.3503418 0 0 0 0
0.14331055 -0.013786316 -0.34912109 0 0 0 0
0.1451416 -0.013786316 -0.34912109 0 0 0 0
0.14697266 -0.013786316 -0.34912109 0 0 0 0
0.14880371 -0.013786316 -0.34912109 0 0 0 0
0.15014648 -0.013748169 -0.34814453 0 0 0 0
0.15197754 -0.013748169 -0.34814453 0 0 0 0
0.1541748 -0.013786316 -0.34912109 0 0 0 0
0.15600586 -0.013786316 -0.34912109 0 0 0 0
0.15783691 -0.013786316 -0.34912109 0 0 0 0
0.15966797 -0.013786316 -0.34912109 0 0 0 0
0.16137695 -0.013786316 -0.34912109 0 0 0 0
0.16369629 -0.013832092 -0.3503418 0 0 0 0
0.16552734 -0.013832092 -0.3503418 0 0 0 0
0.1673584 -0.013832092 -0.3503418 0 0 0 0
0.16967773 -0.013870239 -0.35131836 0 0 0 0
0.17150879 -0.013870239 -0.35131836 0 0 0 0
0.17333984 -0.013870239 -0.35131836 0 0 0 0
0.17565918 -0.013908386 -0.35229492 0 0 0 0
0.17736816 -0.013908386 -0.35229492 0 0 0 0
0.17919922 -0.013908386 -0.35229492 0 0 0 0
0.18103027 -0.013908386 -0.35229492 0 0 0 0
0.18286133 -0.013908386 -0.35229492 0 0 0 0
0.18945312 -0.01398468 -0.35424805 0 0 0 0
0.19128418 -0.01398468 -0.35424805 0 0 0 0
0.10644531 -0.016311646 -0.36523438 0 0 0 0
0.10864258 -0.016357422 -0.36621094 0 0 0 0
0.11022949 -0.016311646 -0.36523438 0 0 0 0
0.11212158 -0.016311646 -0.36523438 0 0 0 0
0.11340332 -0.016220093 -0.36328125 0 0 0 0
0.1149292 -0.016174316 -0.36230469 0 0 0 0
0.11651611 -0.01612854 -0.36132812 0 0 0 0
0.11773682 -0.016036987 -0.359375 0 0 0 0
0.1192627 -0.015991211 -0.35839844 0 0 0 0
0.12078857 -0.015945435 -0.35717773 0 0 0 0
0.12225342 -0.015914917 -0.35620117 0 0 0 0
0.12414551 -0.015914917 -0.35620117 0 0 0 0
0.12561035 -0.015869141 -0.35522461 0 0 0 0
0.1270752 -0.015823364 -0.35424805 0 0 0 0
0.12890625 -0.015823364 -0.35424805 0 0 0 0
0.13037109 -0.015777588 -0.35327148 0 0 0 0
0.13183594 -0.015731812 -0.35229492 0 0 0 0
0.13330078 -0.015686035 -0.35131836 0 0 0 0
0.13513184 -0.015686035 -0.35131836 0 0 0 0
0.13647461 -0.015640259 -0.3503418 0 0 0 0
0.13830566 -0.015640259 -0.3503418 0 0 0 0
0.13977051 -0.015594482 -0.34912109 0 0 0 0
0.14147949 -0.015594482 -0.34912109 0 0 0 0
0.14331055 -0.015594482 -0.34912109 0 0 0 0
0.1451416 -0.015594482 -0.34912109 0 0 0 0
0.14697266 -0.015594482 -0.34912109 0 0 0 0
0.14831543 -0.015556335 -0.34814453 0 0 0 0
0.15014648 -0.015556335 -0.34814453 0 0 0 0
0.15234375 -0.015594482 -0.34912109 0 0 0 0
0.1541748 -0.015594482 -0.34912109 0 0 0 0
0.15600586 -0.015594482 -0.34912109 0 0 0 0
0.15783691 -0.015594482 -0.34912109 0 0 0 0
0.15966797 -0.015594482 -0.34912109 0 0 0 0
0.16186523 -0.015640259 -0.3503418 0 0 0 0
0.16369629 -0.015640259 -0.3503418 0 0 0 0
0.16601562 -0.015686035 -0.35131836 0 0 0 0
0.16784668 -0.015686035 -0.35131836 0 0 0 0
0.17016602 -0.015731812 -0.35229492 0 0 0 0
0.17199707 -0.015731812 -0.35229492 0 0 0 0
0.17382812 -0.015731812 -0.35229492 0 0 0 0
0.17565918 -0.015731812 -0.35229492 0 0 0 0
0.17736816 -0.015731812 -0.35229492 0 0 0 0
0.17980957 -0.015777588 -0.35327148 0 0 0 0
0.18164062 -0.015777588 -0.35327148 0 0 0 0
0.18347168 -0.015777588 -0.35327148 0 0 0 0
0.18579102 -0.015823364 -0.35424805 0 0 0 0
0.18762207 -0.015823364 -0.35424805 0 0 0 0
0.18945312 -0.015823364 -0.35424805 0 0 0 0
0.10614014 -0.018157959 -0.36425781 0 0 0 0
0.10803223 -0.018157959 -0.36425781 0 0 0 0
0.10992432 -0.018157959 -0.36425781 0 0 0 0
0.11151123 -0.018096924 -0.36328125 0 0 0 0
0.11309814 -0.018051147 -0.36230469 0 0 0 0
0.11462402 -0.018005371 -0.36132812 0 0 0 0
0.11584473 -0.01789856 -0.359375 0 0 0 0
0.11737061 -0.017852783 -0.35839844 0 0 0 0
0.11889648 -0.017807007 -0.35717773 0 0 0 0
0.12042236 -0.017745972 -0.35620117 0 0 0 0
0.12194824 -0.017700195 -0.35522461 0 0 0 0
0.1237793 -0.017700195 -0.35522461 0 0 0 0
0.12524414 -0.017654419 -0.35424805 0 0 0 0
0.12670898 -0.017608643 -0.35327148 0 0 0 0
0.12854004 -0.017608643 -0.35327148 0 0 0 0
0.13000488 -0.017547607 -0.35229492 0 0 0 0
0.13146973 -0.017501831 -0.35131836 0 0 0 0
0.13330078 -0.017501831 -0.35131836 0 0 0 0
0.13464355 -0.017456055 -0.3503418 0 0 0 0
0.13647461 -0.017456055 -0.3503418 0 0 0 0
0.13793945 -0.017410278 -0.34912109 0 0 0 0
0.13977051 -0.017410278 -0.34912109 0 0 0 0
0.14147949 -0.017410278 -0.34912109 0 0 0 0
0.14331055 -0.017410278 -0.34912109 0 0 0 0
0.1451416 -0.017410278 -0.34912109 0 0 0 0
0.14697266 -0.017410278 -0.34912109 0 0 0 0
0.14831543 -0.017349243 -0.34814453 0 0 0 0
0.15063477 -0.017410278 -0.34912109 0 0 0 0
0.15234375 -0.017410278 -0.34912109 0 0 0 0
0.1541748 -0.017410278 -0.34912109 0 0 0 0
0.15600586 -0.017410278 -0.34912109 0 0 0 0
0.1583252 -0.017456055 -0.3503418 0 0 0 0
0.16003418 -0.017456055 -0.3503418 0 0 0 0
0.16186523 -0.017456055 -0.3503418 0 0 0 0
0.16418457 -0.017501831 -0.35131836 0 0 0 0
0.16601562 -0.017501831 -0.35131836 0 0 0 0
0.16833496 -0.017547607 -0.35229492 0 0 0 0
0.17016602 -0.017547607 -0.35229492 0 0 0 0
0.17248535 -0.017608643 -0.35327148 0 0 0 0
0.17431641 -0.017608643 -0.35327148 0 0 0 0
0.17614746 -0.017608643 -0.35327148 0 0 0 0
0.17797852 -0.017608643 -0.35327148 0 0 0 0
0.17980957 -0.017608643 -0.35327148 0 0 0 0
0.18164062 -0.017608643 -0.35327148 0 0 0 0
0.18395996 -0.017654419 -0.35424805 0 0 0 0
0.18579102 -0.017654419 -0.35424805 0 0 0 0
0.18762207 -0.017654419 -0.35424805 0 0 0 0
0.1005249 -0.02003479 -0.36425781 0 0 0 0
0.10211182 -0.019989014 -0.36328125 0 0 0 0
0.10400391 -0.019989014 -0.36328125 0 0 0 0
0.105896 -0.019989014 -0.36328125 0 0 0 0
0.10772705 -0.019989014 -0.36328125 0 0 0 0
0.10931396 -0.019927979 -0.36230469 0 0 0 0
0.11090088 -0.019882202 -0.36132812 0 0 0 0
0.11242676 -0.019821167 -0.36035156 0 0 0 0
0.11401367 -0.019760132 -0.359375 0 0 0 0
0.11553955 -0.019714355 -0.35839844 0 0 0 0
0.11706543 -0.01965332 -0.35717773 0 0 0 0
0.11859131 -0.019592285 -0.35620117 0 0 0 0
0.12011719 -0.019546509 -0.35522461 0 0 0 0
0.12194824 -0.019546509 -0.35522461 0 0 0 0
0.12341309 -0.019485474 -0.35424805 0 0 0 0
0.12487793 -0.019439697 -0.35327148 0 0 0 0
0.12670898 -0.019439697 -0.35327148 0 0 0 0
0.12817383 -0.019378662 -0.35229492 0 0 0 0
0.12963867 -0.019317627 -0.35131836 0 0 0 0
0.13146973 -0.019317627 -0.35131836 0 0 0 0
0.13293457 -0.019271851 -0.3503418 0 0 0 0
0.13464355 -0.019271851 -0.3503418 0 0 0 0
0.1361084 -0.019210815 -0.34912109 0 0 0 0
0.13793945 -0.019210815 -0.34912109 0 0 0 0
0.13977051 -0.019210815 -0.34912109 0 0 0 0
0.14147949 -0.019210815 -0.34912109 0 0 0 0
0.14331055 -0.019210815 -0.34912109 0 0 0 0
0.14477539 -0.01914978 -0.34814453 0 0 0 0
0.14697266 -0.019210815 -0.34912109 0 0 0 0
0.14880371 -0.019210815 -0.34912109 0 0 0 0
0.15063477 -0.019210815 -0.34912109 0 0 0 0
0.15234375 -0.019210815 -0.34912109 0 0 0 0
0.1541748 -0.019210815 -0.34912109 0 0 0 0
0.15649414 -0.019271851 -0.3503418 0 0 0 0
0.1583252 -0.019271851 -0.3503418 0 0 0 0
0.16052246 -0.019317627 -0.35131836 0 0 0 0
0.16235352 -0.019317627 -0.35131836 0 0 0 0
0.16467285 -0.019378662 -0.35229492 0 0 0 0
0.16650391 -0.019378662 -0.35229492 0 0 0 0
0.16882324 -0.019439697 -0.35327148 0 0 0 0
0.1706543 -0.019439697 -0.35327148 0 0 0 0
0.17297363 -0.019485474 -0.35424805 0 0 0 0
0.17480469 -0.019485474 -0.35424805 0 0 0 0
0.17663574 -0.019485474 -0.35424805 0 0 0 0
0.1784668 -0.019485474 -0.35424805 0 0 0 0
