ply
format ascii 1.0
comment PCL generated
element vertex 1072
property float x
property float y
property float z
property float nx
property float ny
property float nz
property float curvature
element face 0
element camera 0
property float view_px
property float view_py
property float view_pz
property float x_axisx
property float x_axisy
property float x_axisz
property float y_axisx
property float y_axisy
property float y_axisz
property float z_axisx
property float z_axisy
property float z_axisz
property float focal
property float scalex
property float scaley
property float centerx
property float centery
property int viewportx
property int viewporty
property float k1
property float k2
end_header
0.091064453 -0.023376465 -0.38842773 0 0 0 0
0.093322754 -0.0234375 -0.3894043 0 0 0 0
0.095581055 -0.023498535 -0.39038086 0 0 0 0
0.098327637 -0.023681641 -0.39331055 0 0 0 0
0.10662842 -0.021255493 -0.35327148 0 0 0 0
0.10845947 -0.021255493 -0.35327148 0 0 0 0
0.11022949 -0.021255493 -0.35327148 0 0 0 0
0.11206055 -0.021255493 -0.35327148 0 0 0 0
0.1138916 -0.021255493 -0.35327148 0 0 0 0
0.11572266 -0.021255493 -0.35327148 0 0 0 0
0.11724854 -0.021209717 -0.35229492 0 0 0 0
0.11907959 -0.021209717 -0.35229492 0 0 0 0
0.12091064 -0.021209717 -0.35229492 0 0 0 0
0.1227417 -0.021209717 -0.35229492 0 0 0 0
0.12457275 -0.021209717 -0.35229492 0 0 0 0
0.12634277 -0.021209717 -0.35229492 0 0 0 0
0.12817383 -0.021209717 -0.35229492 0 0 0 0
0.13000488 -0.021209717 -0.35229492 0 0 0 0
0.13183594 -0.021209717 -0.35229492 0 0 0 0
0.13366699 -0.021209717 -0.35229492 0 0 0 0
0.13549805 -0.021209717 -0.35229492 0 0 0 0
0.1373291 -0.021209717 -0.35229492 0 0 0 0
0.13916016 -0.021209717 -0.35229492 0 0 0 0
0.14099121 -0.021209717 -0.35229492 0 0 0 0
0.1427002 -0.021209717 -0.35229492 0 0 0 0
0.14453125 -0.021209717 -0.35229492 0 0 0 0
0.1463623 -0.021209717 -0.35229492 0 0 0 0
0.14819336 -0.021209717 -0.35229492 0 0 0 0
0.1505127 -0.021255493 -0.35327148 0 0 0 0
0.15234375 -0.021255493 -0.35327148 0 0 0 0
0.15368652 -0.021209717 -0.35229492 0 0 0 0
0.15551758 -0.021209717 -0.35229492 0 0 0 0
0.15734863 -0.021209717 -0.35229492 0 0 0 0
0.15917969 -0.021209717 -0.35229492 0 0 0 0
0.16101074 -0.021209717 -0.35229492 0 0 0 0
0.1628418 -0.021209717 -0.35229492 0 0 0 0
0.16467285 -0.021209717 -0.35229492 0 0 0 0
0.16650391 -0.021209717 -0.35229492 0 0 0 0
0.16833496 -0.021209717 -0.35229492 0 0 0 0
0.17016602 -0.021209717 -0.35229492 0 0 0 0
0.17199707 -0.021209717 -0.35229492 0 0 0 0
0.17382812 -0.021209717 -0.35229492 0 0 0 0
0.17565918 -0.021209717 -0.35229492 0 0 0 0
0.17736816 -0.021209717 -0.35229492 0 0 0 0
0.17919922 -0.021209717 -0.35229492 0 0 0 0
0.18103027 -0.021209717 -0.35229492 0 0 0 0
0.18286133 -0.021209717 -0.35229492 0 0 0 0
0.1842041 -0.021148682 -0.35131836 0 0 0 0
0.18603516 -0.021148682 -0.35131836 0 0 0 0
0.18786621 -0.021148682 -0.35131836 0 0 0 0
0.18969727 -0.021148682 -0.35131836 0 0 0 0
0.19152832 -0.021148682 -0.35131836 0 0 0 0
0.1932373 -0.021148682 -0.35131836 0 0 0 0
0.19506836 -0.021148682 -0.35131836 0 0 0 0
0.19689941 -0.021148682 -0.35131836 0 0 0 0
0.19873047 -0.021148682 -0.35131836 0 0 0 0
0.20056152 -0.021148682 -0.35131836 0 0 0 0
0.20239258 -0.021148682 -0.35131836 0 0 0 0
0.20422363 -0.021148682 -0.35131836 0 0 0 0
0.20605469 -0.021148682 -0.35131836 0 0 0 0
0.20788574 -0.021148682 -0.35131836 0 0 0 0
0.2097168 -0.021148682 -0.35131836 0 0 0 0
0.21154785 -0.021148682 -0.35131836 0 0 0 0
0.21325684 -0.021148682 -0.35131836 0 0 0 0
0.21508789 -0.021148682 -0.35131836 0 0 0 0
0.21691895 -0.021148682 -0.35131836 0 0 0 0
0.21875 -0.021148682 -0.35131836 0 0 0 0
0.22058105 -0.021148682 -0.35131836 0 0 0 0
0.22241211 -0.021148682 -0.35131836 0 0 0 0
0.22424316 -0.021148682 -0.35131836 0 0 0 0
0.22607422 -0.021148682 -0.35131836 0 0 0 0
0.22790527 -0.021148682 -0.35131836 0 0 0 0
0.22973633 -0.021148682 -0.35131836 0 0 0 0
0.23144531 -0.021148682 -0.35131836 0 0 0 0
0.011604309 -0.023361206 -0.35717773 0 0 0 0
0.013458252 -0.023361206 -0.35717773 0 0 0 0
0.015350342 -0.023422241 -0.35839844 0 0 0 0
0.017196655 -0.023422241 -0.35839844 0 0 0 0
0.019119263 -0.023483276 -0.359375 0 0 0 0
0.021026611 -0.02355957 -0.36035156 0 0 0 0
0.022964478 -0.023620605 -0.36132812 0 0 0 0
0.024963379 -0.023742676 -0.36328125 0 0 0 0
0.027008057 -0.023880005 -0.36523438 0 0 0 0
0.02897644 -0.02394104 -0.36621094 0 0 0 0
0.031036377 -0.024078369 -0.3684082 0 0 0 0
0.03302002 -0.024139404 -0.36938477 0 0 0 0
0.03503418 -0.024215698 -0.37036133 0 0 0 0
0.03704834 -0.024276733 -0.37133789 0 0 0 0
0.038970947 -0.024276733 -0.37133789 0 0 0 0
0.040893555 -0.024276733 -0.37133789 0 0 0 0
0.042816162 -0.024276733 -0.37133789 0 0 0 0
0.04473877 -0.024276733 -0.37133789 0 0 0 0
0.046661377 -0.024276733 -0.37133789 0 0 0 0
0.048461914 -0.024215698 -0.37036133 0 0 0 0
0.050384521 -0.024215698 -0.37036133 0 0 0 0
0.052307129 -0.024215698 -0.37036133 0 0 0 0
0.07611084 -0.025787354 -0.39453125 0 0 0 0
0.077758789 -0.025650024 -0.39233398 0 0 0 0
0.079406738 -0.025527954 -0.39038086 0 0 0 0
0.081176758 -0.02545166 -0.3894043 0 0 0 0
0.083007812 -0.025390625 -0.38842773 0 0 0 0
0.084777832 -0.02532959 -0.38745117 0 0 0 0
0.086791992 -0.02532959 -0.38745117 0 0 0 0
0.088806152 -0.02532959 -0.38745117 0 0 0 0
0.090820312 -0.02532959 -0.38745117 0 0 0 0
0.092834473 -0.02532959 -0.38745117 0 0 0 0
0.095092773 -0.025390625 -0.38842773 0 0 0 0
0.098327637 -0.02571106 -0.39331055 0 0 0 0
0.10479736 -0.023086548 -0.35327148 0 0 0 0
0.10662842 -0.023086548 -0.35327148 0 0 0 0
0.10845947 -0.023086548 -0.35327148 0 0 0 0
0.11022949 -0.023086548 -0.35327148 0 0 0 0
0.11206055 -0.023086548 -0.35327148 0 0 0 0
0.1138916 -0.023086548 -0.35327148 0 0 0 0
0.11572266 -0.023086548 -0.35327148 0 0 0 0
0.11724854 -0.023025513 -0.35229492 0 0 0 0
0.11907959 -0.023025513 -0.35229492 0 0 0 0
0.12091064 -0.023025513 -0.35229492 0 0 0 0
0.1227417 -0.023025513 -0.35229492 0 0 0 0
0.12457275 -0.023025513 -0.35229492 0 0 0 0
0.12634277 -0.023025513 -0.35229492 0 0 0 0
0.12817383 -0.023025513 -0.35229492 0 0 0 0
0.13000488 -0.023025513 -0.35229492 0 0 0 0
0.13183594 -0.023025513 -0.35229492 0 0 0 0
0.13366699 -0.023025513 -0.35229492 0 0 0 0
0.13549805 -0.023025513 -0.35229492 0 0 0 0
0.1373291 -0.023025513 -0.35229492 0 0 0 0
0.13916016 -0.023025513 -0.35229492 0 0 0 0
0.14099121 -0.023025513 -0.35229492 0 0 0 0
0.1427002 -0.023025513 -0.35229492 0 0 0 0
0.14453125 -0.023025513 -0.35229492 0 0 0 0
0.1463623 -0.023025513 -0.35229492 0 0 0 0
0.14819336 -0.023025513 -0.35229492 0 0 0 0
0.15002441 -0.023025513 -0.35229492 0 0 0 0
0.15185547 -0.023025513 -0.35229492 0 0 0 0
0.15368652 -0.023025513 -0.35229492 0 0 0 0
0.15551758 -0.023025513 -0.35229492 0 0 0 0
0.15734863 -0.023025513 -0.35229492 0 0 0 0
0.15917969 -0.023025513 -0.35229492 0 0 0 0
0.16101074 -0.023025513 -0.35229492 0 0 0 0
0.1628418 -0.023025513 -0.35229492 0 0 0 0
0.16467285 -0.023025513 -0.35229492 0 0 0 0
0.16650391 -0.023025513 -0.35229492 0 0 0 0
0.16833496 -0.023025513 -0.35229492 0 0 0 0
0.17016602 -0.023025513 -0.35229492 0 0 0 0
0.17199707 -0.023025513 -0.35229492 0 0 0 0
0.17382812 -0.023025513 -0.35229492 0 0 0 0
0.17565918 -0.023025513 -0.35229492 0 0 0 0
0.17736816 -0.023025513 -0.35229492 0 0 0 0
0.17871094 -0.022964478 -0.35131836 0 0 0 0
0.18054199 -0.022964478 -0.35131836 0 0 0 0
0.18237305 -0.022964478 -0.35131836 0 0 0 0
0.1842041 -0.022964478 -0.35131836 0 0 0 0
0.18603516 -0.022964478 -0.35131836 0 0 0 0
0.18786621 -0.022964478 -0.35131836 0 0 0 0
0.18969727 -0.022964478 -0.35131836 0 0 0 0
0.19152832 -0.022964478 -0.35131836 0 0 0 0
0.1932373 -0.022964478 -0.35131836 0 0 0 0
0.19506836 -0.022964478 -0.35131836 0 0 0 0
0.19689941 -0.022964478 -0.35131836 0 0 0 0
0.19873047 -0.022964478 -0.35131836 0 0 0 0
0.20056152 -0.022964478 -0.35131836 0 0 0 0
0.20239258 -0.022964478 -0.35131836 0 0 0 0
0.20422363 -0.022964478 -0.35131836 0 0 0 0
0.20605469 -0.022964478 -0.35131836 0 0 0 0
0.20788574 -0.022964478 -0.35131836 0 0 0 0
0.2097168 -0.022964478 -0.35131836 0 0 0 0
0.21154785 -0.022964478 -0.35131836 0 0 0 0
0.21325684 -0.022964478 -0.35131836 0 0 0 0
0.21508789 -0.022964478 -0.35131836 0 0 0 0
0.21691895 -0.022964478 -0.35131836 0 0 0 0
0.21875 -0.022964478 -0.35131836 0 0 0 0
0.2199707 -0.022903442 -0.3503418 0 0 0 0
0.22180176 -0.022903442 -0.3503418 0 0 0 0
0.22363281 -0.022903442 -0.3503418 0 0 0 0
0.22607422 -0.022964478 -0.35131836 0 0 0 0
0.22790527 -0.022964478 -0.35131836 0 0 0 0
0.22973633 -0.022964478 -0.35131836 0 0 0 0
0.0078582764 -0.02507019 -0.35522461 0 0 0 0
0.009727478 -0.025131226 -0.35620117 0 0 0 0
0.011573792 -0.025131226 -0.35620117 0 0 0 0
0.013458252 -0.02520752 -0.35717773 0 0 0 0
0.015350342 -0.025283813 -0.35839844 0 0 0 0
0.017196655 -0.025283813 -0.35839844 0 0 0 0
0.019119263 -0.025344849 -0.359375 0 0 0 0
0.021026611 -0.025421143 -0.36035156 0 0 0 0
0.022964478 -0.025482178 -0.36132812 0 0 0 0
0.024902344 -0.025558472 -0.36230469 0 0 0 0
0.026931763 -0.025695801 -0.36425781 0 0 0 0
0.02897644 -0.025848389 -0.36621094 0 0 0 0
0.030960083 -0.025909424 -0.36743164 0 0 0 0
0.032928467 -0.025985718 -0.3684082 0 0 0 0
0.034942627 -0.026062012 -0.36938477 0 0 0 0
0.036956787 -0.026123047 -0.37036133 0 0 0 0
0.038879395 -0.026123047 -0.37036133 0 0 0 0
0.040802002 -0.026123047 -0.37036133 0 0 0 0
0.042724609 -0.026123047 -0.37036133 0 0 0 0
0.044616699 -0.026123047 -0.37036133 0 0 0 0
0.046539307 -0.026123047 -0.37036133 0 0 0 0
0.048461914 -0.026123047 -0.37036133 0 0 0 0
0.050384521 -0.026123047 -0.37036133 0 0 0 0
0.076293945 -0.027893066 -0.39550781 0 0 0 0
0.077941895 -0.027755737 -0.39331055 0 0 0 0
0.079589844 -0.027618408 -0.39135742 0 0 0 0
0.081176758 -0.02746582 -0.3894043 0 0 0 0
0.083007812 -0.027404785 -0.38842773 0 0 0 0
0.084777832 -0.027328491 -0.38745117 0 0 0 0
0.086547852 -0.027267456 -0.38647461 0 0 0 0
0.088562012 -0.027267456 -0.38647461 0 0 0 0
0.090576172 -0.027267456 -0.38647461 0 0 0 0
0.092590332 -0.027267456 -0.38647461 0 0 0 0
0.094848633 -0.027328491 -0.38745117 0 0 0 0
0.096862793 -0.027328491 -0.38745117 0 0 0 0
0.10296631 -0.024917603 -0.35327148 0 0 0 0
0.10479736 -0.024917603 -0.35327148 0 0 0 0
0.10662842 -0.024917603 -0.35327148 0 0 0 0
0.10845947 -0.024917603 -0.35327148 0 0 0 0
0.11022949 -0.024917603 -0.35327148 0 0 0 0
0.11206055 -0.024917603 -0.35327148 0 0 0 0
0.1138916 -0.024917603 -0.35327148 0 0 0 0
0.11541748 -0.024856567 -0.35229492 0 0 0 0
0.11724854 -0.024856567 -0.35229492 0 0 0 0
0.11907959 -0.024856567 -0.35229492 0 0 0 0
0.12091064 -0.024856567 -0.35229492 0 0 0 0
0.1227417 -0.024856567 -0.35229492 0 0 0 0
0.12457275 -0.024856567 -0.35229492 0 0 0 0
0.12634277 -0.024856567 -0.35229492 0 0 0 0
0.12817383 -0.024856567 -0.35229492 0 0 0 0
0.13000488 -0.024856567 -0.35229492 0 0 0 0
0.13183594 -0.024856567 -0.35229492 0 0 0 0
0.13366699 -0.024856567 -0.35229492 0 0 0 0
0.13549805 -0.024856567 -0.35229492 0 0 0 0
0.1373291 -0.024856567 -0.35229492 0 0 0 0
0.13916016 -0.024856567 -0.35229492 0 0 0 0
0.14099121 -0.024856567 -0.35229492 0 0 0 0
0.1427002 -0.024856567 -0.35229492 0 0 0 0
0.14453125 -0.024856567 -0.35229492 0 0 0 0
0.1463623 -0.024856567 -0.35229492 0 0 0 0
0.14819336 -0.024856567 -0.35229492 0 0 0 0
0.15002441 -0.024856567 -0.35229492 0 0 0 0
0.15185547 -0.024856567 -0.35229492 0 0 0 0
0.15368652 -0.024856567 -0.35229492 0 0 0 0
0.15551758 -0.024856567 -0.35229492 0 0 0 0
0.15734863 -0.024856567 -0.35229492 0 0 0 0
0.15917969 -0.024856567 -0.35229492 0 0 0 0
0.16101074 -0.024856567 -0.35229492 0 0 0 0
0.1628418 -0.024856567 -0.35229492 0 0 0 0
0.16467285 -0.024856567 -0.35229492 0 0 0 0
0.16650391 -0.024856567 -0.35229492 0 0 0 0
0.16833496 -0.024856567 -0.35229492 0 0 0 0
0.17016602 -0.024856567 -0.35229492 0 0 0 0
0.17199707 -0.024856567 -0.35229492 0 0 0 0
0.17382812 -0.024856567 -0.35229492 0 0 0 0
0.17504883 -0.024780273 -0.35131836 0 0 0 0
0.17687988 -0.024780273 -0.35131836 0 0 0 0
0.17871094 -0.024780273 -0.35131836 0 0 0 0
0.18054199 -0.024780273 -0.35131836 0 0 0 0
0.18237305 -0.024780273 -0.35131836 0 0 0 0
0.1842041 -0.024780273 -0.35131836 0 0 0 0
0.18603516 -0.024780273 -0.35131836 0 0 0 0
0.18786621 -0.024780273 -0.35131836 0 0 0 0
0.18969727 -0.024780273 -0.35131836 0 0 0 0
0.19152832 -0.024780273 -0.35131836 0 0 0 0
0.1932373 -0.024780273 -0.35131836 0 0 0 0
0.19506836 -0.024780273 -0.35131836 0 0 0 0
0.19689941 -0.024780273 -0.35131836 0 0 0 0
0.19873047 -0.024780273 -0.35131836 0 0 0 0
0.20056152 -0.024780273 -0.35131836 0 0 0 0
0.20239258 -0.024780273 -0.35131836 0 0 0 0
0.20422363 -0.024780273 -0.35131836 0 0 0 0
0.20605469 -0.024780273 -0.35131836 0 0 0 0
0.20788574 -0.024780273 -0.35131836 0 0 0 0
0.2097168 -0.024780273 -0.35131836 0 0 0 0
0.21154785 -0.024780273 -0.35131836 0 0 0 0
0.21325684 -0.024780273 -0.35131836 0 0 0 0
0.21508789 -0.024780273 -0.35131836 0 0 0 0
0.21630859 -0.024703979 -0.3503418 0 0 0 0
0.21813965 -0.024703979 -0.3503418 0 0 0 0
0.2199707 -0.024703979 -0.3503418 0 0 0 0
0.22180176 -0.024703979 -0.3503418 0 0 0 0
0.22363281 -0.024703979 -0.3503418 0 0 0 0
0.2253418 -0.024703979 -0.3503418 0 0 0 0
0.22790527 -0.024780273 -0.35131836 0 0 0 0
0.22973633 -0.024780273 -0.35131836 0 0 0 0
0.0060043335 -0.026824951 -0.35424805 0 0 0 0
0.0078582764 -0.026901245 -0.35522461 0 0 0 0
0.0097045898 -0.026901245 -0.35522461 0 0 0 0
0.011543274 -0.026901245 -0.35522461 0 0 0 0
0.013420105 -0.026977539 -0.35620117 0 0 0 0
0.015304565 -0.027053833 -0.35717773 0 0 0 0
0.017196655 -0.027130127 -0.35839844 0 0 0 0
0.019058228 -0.027130127 -0.35839844 0 0 0 0
0.020965576 -0.027206421 -0.359375 0 0 0 0
0.022903442 -0.027282715 -0.36035156 0 0 0 0
0.024902344 -0.027435303 -0.36230469 0 0 0 0
0.026855469 -0.027511597 -0.36328125 0 0 0 0
0.028900146 -0.027664185 -0.36523438 0 0 0 0
0.03086853 -0.027740479 -0.36621094 0 0 0 0
0.032836914 -0.027816772 -0.36743164 0 0 0 0
0.034851074 -0.027893066 -0.3684082 0 0 0 0
0.036865234 -0.02796936 -0.36938477 0 0 0 0
0.038757324 -0.02796936 -0.36938477 0 0 0 0
0.040802002 -0.028045654 -0.37036133 0 0 0 0
0.042724609 -0.028045654 -0.37036133 0 0 0 0
0.044616699 -0.028045654 -0.37036133 0 0 0 0
0.046539307 -0.028045654 -0.37036133 0 0 0 0
0.048461914 -0.028045654 -0.37036133 0 0 0 0
0.050384521 -0.028045654 -0.37036133 0 0 0 0
0.078186035 -0.029876709 -0.39453125 0 0 0 0
0.079772949 -0.029724121 -0.39233398 0 0 0 0
0.081176758 -0.029495239 -0.3894043 0 0 0 0
0.083007812 -0.029418945 -0.38842773 0 0 0 0
0.084777832 -0.029342651 -0.38745117 0 0 0 0
0.086547852 -0.029266357 -0.38647461 0 0 0 0
0.088317871 -0.029190063 -0.38549805 0 0 0 0
0.090332031 -0.029190063 -0.38549805 0 0 0 0
0.092346191 -0.029190063 -0.38549805 0 0 0 0
0.094360352 -0.029190063 -0.38549805 0 0 0 0
0.096313477 -0.029190063 -0.38549805 0 0 0 0
0.10113525 -0.026748657 -0.35327148 0 0 0 0
0.10296631 -0.026748657 -0.35327148 0 0 0 0
0.10479736 -0.026748657 -0.35327148 0 0 0 0
0.10662842 -0.026748657 -0.35327148 0 0 0 0
0.10845947 -0.026748657 -0.35327148 0 0 0 0
0.11022949 -0.026748657 -0.35327148 0 0 0 0
0.11206055 -0.026748657 -0.35327148 0 0 0 0
0.11358643 -0.026672363 -0.35229492 0 0 0 0
0.11541748 -0.026672363 -0.35229492 0 0 0 0
0.11724854 -0.026672363 -0.35229492 0 0 0 0
0.11907959 -0.026672363 -0.35229492 0 0 0 0
0.12091064 -0.026672363 -0.35229492 0 0 0 0
0.1227417 -0.026672363 -0.35229492 0 0 0 0
0.12457275 -0.026672363 -0.35229492 0 0 0 0
0.12634277 -0.026672363 -0.35229492 0 0 0 0
0.12817383 -0.026672363 -0.35229492 0 0 0 0
0.13000488 -0.026672363 -0.35229492 0 0 0 0
0.13183594 -0.026672363 -0.35229492 0 0 0 0
0.13366699 -0.026672363 -0.35229492 0 0 0 0
0.13549805 -0.026672363 -0.35229492 0 0 0 0
0.1373291 -0.026672363 -0.35229492 0 0 0 0
0.13916016 -0.026672363 -0.35229492 0 0 0 0
0.14099121 -0.026672363 -0.35229492 0 0 0 0
0.1427002 -0.026672363 -0.35229492 0 0 0 0
0.14453125 -0.026672363 -0.35229492 0 0 0 0
0.1463623 -0.026672363 -0.35229492 0 0 0 0
0.14819336 -0.026672363 -0.35229492 0 0 0 0
0.15002441 -0.026672363 -0.35229492 0 0 0 0
0.15185547 -0.026672363 -0.35229492 0 0 0 0
0.15368652 -0.026672363 -0.35229492 0 0 0 0
0.15551758 -0.026672363 -0.35229492 0 0 0 0
0.15734863 -0.026672363 -0.35229492 0 0 0 0
0.15917969 -0.026672363 -0.35229492 0 0 0 0
0.16101074 -0.026672363 -0.35229492 0 0 0 0
0.1628418 -0.026672363 -0.35229492 0 0 0 0
0.16467285 -0.026672363 -0.35229492 0 0 0 0
0.16650391 -0.026672363 -0.35229492 0 0 0 0
0.16833496 -0.026672363 -0.35229492 0 0 0 0
0.17016602 -0.026672363 -0.35229492 0 0 0 0
0.17150879 -0.026596069 -0.35131836 0 0 0 0
0.17333984 -0.026596069 -0.35131836 0 0 0 0
0.17504883 -0.026596069 -0.35131836 0 0 0 0
0.17687988 -0.026596069 -0.35131836 0 0 0 0
0.17871094 -0.026596069 -0.35131836 0 0 0 0
0.18054199 -0.026596069 -0.35131836 0 0 0 0
0.18237305 -0.026596069 -0.35131836 0 0 0 0
0.1842041 -0.026596069 -0.35131836 0 0 0 0
0.18603516 -0.026596069 -0.35131836 0 0 0 0
0.18786621 -0.026596069 -0.35131836 0 0 0 0
0.18969727 -0.026596069 -0.35131836 0 0 0 0
0.19152832 -0.026596069 -0.35131836 0 0 0 0
0.1932373 -0.026596069 -0.35131836 0 0 0 0
0.19506836 -0.026596069 -0.35131836 0 0 0 0
0.19689941 -0.026596069 -0.35131836 0 0 0 0
0.19873047 -0.026596069 -0.35131836 0 0 0 0
0.20056152 -0.026596069 -0.35131836 0 0 0 0
0.20239258 -0.026596069 -0.35131836 0 0 0 0
0.20422363 -0.026596069 -0.35131836 0 0 0 0
0.20605469 -0.026596069 -0.35131836 0 0 0 0
0.20788574 -0.026596069 -0.35131836 0 0 0 0
0.2097168 -0.026596069 -0.35131836 0 0 0 0
0.21154785 -0.026596069 -0.35131836 0 0 0 0
0.21325684 -0.026596069 -0.35131836 0 0 0 0
0.21508789 -0.026596069 -0.35131836 0 0 0 0
0.21630859 -0.026519775 -0.3503418 0 0 0 0
0.21813965 -0.026519775 -0.3503418 0 0 0 0
0.2199707 -0.026519775 -0.3503418 0 0 0 0
0.22180176 -0.026519775 -0.3503418 0 0 0 0
0.22363281 -0.026519775 -0.3503418 0 0 0 0
0.2253418 -0.026519775 -0.3503418 0 0 0 0
0.22717285 -0.026519775 -0.3503418 0 0 0 0
0.00415802 -0.028579712 -0.35327148 0 0 0 0
0.0060043335 -0.028656006 -0.35424805 0 0 0 0
0.0078353882 -0.028656006 -0.35424805 0 0 0 0
0.0096740723 -0.028656006 -0.35424805 0 0 0 0
0.011505127 -0.028656006 -0.35424805 0 0 0 0
0.013381958 -0.028747559 -0.35522461 0 0 0 0
0.019012451 -0.028900146 -0.35717773 0 0 0 0
0.020965576 -0.029067993 -0.359375 0 0 0 0
0.022903442 -0.029144287 -0.36035156 0 0 0 0
0.024902344 -0.029312134 -0.36230469 0 0 0 0
0.026855469 -0.029388428 -0.36328125 0 0 0 0
0.028808594 -0.02947998 -0.36425781 0 0 0 0
0.030792236 -0.029556274 -0.36523438 0 0 0 0
0.032745361 -0.029632568 -0.36621094 0 0 0 0
0.034759521 -0.029724121 -0.36743164 0 0 0 0
0.036743164 -0.029800415 -0.3684082 0 0 0 0
0.038665771 -0.029800415 -0.3684082 0 0 0 0
0.040679932 -0.029876709 -0.36938477 0 0 0 0
0.042724609 -0.029968262 -0.37036133 0 0 0 0
0.044616699 -0.029968262 -0.37036133 0 0 0 0
0.046539307 -0.029968262 -0.37036133 0 0 0 0
0.048461914 -0.029968262 -0.37036133 0 0 0 0
0.078369141 -0.031982422 -0.39550781 0 0 0 0
0.08001709 -0.031829834 -0.39331055 0 0 0 0
0.081176758 -0.031494141 -0.3894043 0 0 0 0
0.083007812 -0.031402588 -0.38842773 0 0 0 0
0.084594727 -0.03125 -0.38647461 0 0 0 0
0.086364746 -0.031188965 -0.38549805 0 0 0 0
0.088317871 -0.031188965 -0.38549805 0 0 0 0
0.090087891 -0.031097412 -0.38427734 0 0 0 0
0.092102051 -0.031097412 -0.38427734 0 0 0 0
0.094116211 -0.031097412 -0.38427734 0 0 0 0
0.096069336 -0.031097412 -0.38427734 0 0 0 0
0.097473145 -0.028579712 -0.35327148 0 0 0 0
0.099304199 -0.028579712 -0.35327148 0 0 0 0
0.10113525 -0.028579712 -0.35327148 0 0 0 0
0.10296631 -0.028579712 -0.35327148 0 0 0 0
0.10479736 -0.028579712 -0.35327148 0 0 0 0
0.10662842 -0.028579712 -0.35327148 0 0 0 0
0.10845947 -0.028579712 -0.35327148 0 0 0 0
0.10992432 -0.028503418 -0.35229492 0 0 0 0
0.11175537 -0.028503418 -0.35229492 0 0 0 0
0.11358643 -0.028503418 -0.35229492 0 0 0 0
0.11541748 -0.028503418 -0.35229492 0 0 0 0
0.11724854 -0.028503418 -0.35229492 0 0 0 0
0.11907959 -0.028503418 -0.35229492 0 0 0 0
0.12091064 -0.028503418 -0.35229492 0 0 0 0
0.1227417 -0.028503418 -0.35229492 0 0 0 0
0.12457275 -0.028503418 -0.35229492 0 0 0 0
0.12634277 -0.028503418 -0.35229492 0 0 0 0
0.12817383 -0.028503418 -0.35229492 0 0 0 0
0.13000488 -0.028503418 -0.35229492 0 0 0 0
0.13183594 -0.028503418 -0.35229492 0 0 0 0
0.13366699 -0.028503418 -0.35229492 0 0 0 0
0.13549805 -0.028503418 -0.35229492 0 0 0 0
0.1373291 -0.028503418 -0.35229492 0 0 0 0
0.13916016 -0.028503418 -0.35229492 0 0 0 0
0.14099121 -0.028503418 -0.35229492 0 0 0 0
0.1427002 -0.028503418 -0.35229492 0 0 0 0
0.14453125 -0.028503418 -0.35229492 0 0 0 0
0.1463623 -0.028503418 -0.35229492 0 0 0 0
0.14819336 -0.028503418 -0.35229492 0 0 0 0
0.15002441 -0.028503418 -0.35229492 0 0 0 0
0.15185547 -0.028503418 -0.35229492 0 0 0 0
0.15368652 -0.028503418 -0.35229492 0 0 0 0
0.15551758 -0.028503418 -0.35229492 0 0 0 0
0.15734863 -0.028503418 -0.35229492 0 0 0 0
0.15917969 -0.028503418 -0.35229492 0 0 0 0
0.16101074 -0.028503418 -0.35229492 0 0 0 0
0.1628418 -0.028503418 -0.35229492 0 0 0 0
0.16467285 -0.028503418 -0.35229492 0 0 0 0
0.16650391 -0.028503418 -0.35229492 0 0 0 0
0.16833496 -0.028503418 -0.35229492 0 0 0 0
0.16967773 -0.028427124 -0.35131836 0 0 0 0
0.17150879 -0.028427124 -0.35131836 0 0 0 0
0.17333984 -0.028427124 -0.35131836 0 0 0 0
0.17504883 -0.028427124 -0.35131836 0 0 0 0
0.17687988 -0.028427124 -0.35131836 0 0 0 0
0.17871094 -0.028427124 -0.35131836 0 0 0 0
0.18054199 -0.028427124 -0.35131836 0 0 0 0
0.18237305 -0.028427124 -0.35131836 0 0 0 0
0.1842041 -0.028427124 -0.35131836 0 0 0 0
0.18603516 -0.028427124 -0.35131836 0 0 0 0
0.18786621 -0.028427124 -0.35131836 0 0 0 0
0.18969727 -0.028427124 -0.35131836 0 0 0 0
0.19152832 -0.028427124 -0.35131836 0 0 0 0
0.1932373 -0.028427124 -0.35131836 0 0 0 0
0.19506836 -0.028427124 -0.35131836 0 0 0 0
0.19689941 -0.028427124 -0.35131836 0 0 0 0
0.19873047 -0.028427124 -0.35131836 0 0 0 0
0.20056152 -0.028427124 -0.35131836 0 0 0 0
0.20239258 -0.028427124 -0.35131836 0 0 0 0
0.20422363 -0.028427124 -0.35131836 0 0 0 0
0.20605469 -0.028427124 -0.35131836 0 0 0 0
0.20788574 -0.028427124 -0.35131836 0 0 0 0
0.2097168 -0.028427124 -0.35131836 0 0 0 0
0.21154785 -0.028427124 -0.35131836 0 0 0 0
0.21325684 -0.028427124 -0.35131836 0 0 0 0
0.21447754 -0.028335571 -0.3503418 0 0 0 0
0.21630859 -0.028335571 -0.3503418 0 0 0 0
0.21813965 -0.028335571 -0.3503418 0 0 0 0
0.2199707 -0.028335571 -0.3503418 0 0 0 0
0.22180176 -0.028335571 -0.3503418 0 0 0 0
0.22363281 -0.028335571 -0.3503418 0 0 0 0
0.0023288727 -0.030410767 -0.35327148 0 0 0 0
0.00415802 -0.030410767 -0.35327148 0 0 0 0
0.0059890747 -0.030410767 -0.35327148 0 0 0 0
0.0078201294 -0.030410767 -0.35327148 0 0 0 0
0.0096435547 -0.030410767 -0.35327148 0 0 0 0
0.011505127 -0.030502319 -0.35424805 0 0 0 0
0.013343811 -0.030502319 -0.35424805 0 0 0 0
0.015136719 -0.030410767 -0.35327148 0 0 0 0
0.016967773 -0.030410767 -0.35327148 0 0 0 0
0.024902344 -0.031188965 -0.36230469 0 0 0 0
0.026855469 -0.031280518 -0.36328125 0 0 0 0
0.028808594 -0.031341553 -0.36425781 0 0 0 0
0.030700684 -0.031341553 -0.36425781 0 0 0 0
0.032684326 -0.031433105 -0.36523438 0 0 0 0
0.034667969 -0.031524658 -0.36621094 0 0 0 0
0.036560059 -0.031524658 -0.36621094 0 0 0 0
0.038543701 -0.031616211 -0.36743164 0 0 0 0
0.040557861 -0.031707764 -0.3684082 0 0 0 0
0.042602539 -0.031799316 -0.36938477 0 0 0 0
0.044616699 -0.031860352 -0.37036133 0 0 0 0
0.046539307 -0.031860352 -0.37036133 0 0 0 0
0.08001709 -0.033874512 -0.39331055 0 0 0 0
0.081176758 -0.033508301 -0.3894043 0 0 0 0
0.082763672 -0.033355713 -0.38745117 0 0 0 0
0.084594727 -0.03326416 -0.38647461 0 0 0 0
0.086364746 -0.033172607 -0.38549805 0 0 0 0
0.088134766 -0.033081055 -0.38427734 0 0 0 0
0.090087891 -0.033081055 -0.38427734 0 0 0 0
0.09185791 -0.032989502 -0.38330078 0 0 0 0
0.09387207 -0.032989502 -0.38330078 0 0 0 0
0.096069336 -0.033081055 -0.38427734 0 0 0 0
0.09564209 -0.030410767 -0.35327148 0 0 0 0
0.097473145 -0.030410767 -0.35327148 0 0 0 0
0.099304199 -0.030410767 -0.35327148 0 0 0 0
0.10113525 -0.030410767 -0.35327148 0 0 0 0
0.10296631 -0.030410767 -0.35327148 0 0 0 0
0.10449219 -0.030319214 -0.35229492 0 0 0 0
0.10632324 -0.030319214 -0.35229492 0 0 0 0
0.10809326 -0.030319214 -0.35229492 0 0 0 0
0.10992432 -0.030319214 -0.35229492 0 0 0 0
0.11175537 -0.030319214 -0.35229492 0 0 0 0
0.11358643 -0.030319214 -0.35229492 0 0 0 0
0.11541748 -0.030319214 -0.35229492 0 0 0 0
0.11724854 -0.030319214 -0.35229492 0 0 0 0
0.11907959 -0.030319214 -0.35229492 0 0 0 0
0.12091064 -0.030319214 -0.35229492 0 0 0 0
0.1227417 -0.030319214 -0.35229492 0 0 0 0
0.12457275 -0.030319214 -0.35229492 0 0 0 0
0.12634277 -0.030319214 -0.35229492 0 0 0 0
0.12817383 -0.030319214 -0.35229492 0 0 0 0
0.13000488 -0.030319214 -0.35229492 0 0 0 0
0.13183594 -0.030319214 -0.35229492 0 0 0 0
0.13366699 -0.030319214 -0.35229492 0 0 0 0
0.13549805 -0.030319214 -0.35229492 0 0 0 0
0.1373291 -0.030319214 -0.35229492 0 0 0 0
0.13916016 -0.030319214 -0.35229492 0 0 0 0
0.14099121 -0.030319214 -0.35229492 0 0 0 0
0.1427002 -0.030319214 -0.35229492 0 0 0 0
0.14453125 -0.030319214 -0.35229492 0 0 0 0
0.1463623 -0.030319214 -0.35229492 0 0 0 0
0.14819336 -0.030319214 -0.35229492 0 0 0 0
0.15002441 -0.030319214 -0.35229492 0 0 0 0
0.15185547 -0.030319214 -0.35229492 0 0 0 0
0.15368652 -0.030319214 -0.35229492 0 0 0 0
0.15551758 -0.030319214 -0.35229492 0 0 0 0
0.15734863 -0.030319214 -0.35229492 0 0 0 0
0.15917969 -0.030319214 -0.35229492 0 0 0 0
0.16101074 -0.030319214 -0.35229492 0 0 0 0
0.1628418 -0.030319214 -0.35229492 0 0 0 0
0.16467285 -0.030319214 -0.35229492 0 0 0 0
0.16650391 -0.030319214 -0.35229492 0 0 0 0
0.16784668 -0.03024292 -0.35131836 0 0 0 0
0.16967773 -0.03024292 -0.35131836 0 0 0 0
0.17150879 -0.03024292 -0.35131836 0 0 0 0
0.17333984 -0.03024292 -0.35131836 0 0 0 0
0.17504883 -0.03024292 -0.35131836 0 0 0 0
0.17687988 -0.03024292 -0.35131836 0 0 0 0
0.17871094 -0.03024292 -0.35131836 0 0 0 0
0.18054199 -0.03024292 -0.35131836 0 0 0 0
0.18237305 -0.03024292 -0.35131836 0 0 0 0
0.1842041 -0.03024292 -0.35131836 0 0 0 0
0.18603516 -0.03024292 -0.35131836 0 0 0 0
0.18786621 -0.03024292 -0.35131836 0 0 0 0
0.18969727 -0.03024292 -0.35131836 0 0 0 0
0.19152832 -0.03024292 -0.35131836 0 0 0 0
0.1932373 -0.03024292 -0.35131836 0 0 0 0
0.19506836 -0.03024292 -0.35131836 0 0 0 0
0.19689941 -0.03024292 -0.35131836 0 0 0 0
0.19873047 -0.03024292 -0.35131836 0 0 0 0
0.20056152 -0.03024292 -0.35131836 0 0 0 0
0.20239258 -0.03024292 -0.35131836 0 0 0 0
0.20422363 -0.03024292 -0.35131836 0 0 0 0
0.20605469 -0.03024292 -0.35131836 0 0 0 0
0.20788574 -0.03024292 -0.35131836 0 0 0 0
0.2097168 -0.03024292 -0.35131836 0 0 0 0
0.21154785 -0.03024292 -0.35131836 0 0 0 0
0.21325684 -0.03024292 -0.35131836 0 0 0 0
0.21447754 -0.030151367 -0.3503418 0 0 0 0
0.21630859 -0.030151367 -0.3503418 0 0 0 0
0.21813965 -0.030151367 -0.3503418 0 0 0 0
0.2199707 -0.030151367 -0.3503418 0 0 0 0
0.22180176 -0.030151367 -0.3503418 0 0 0 0
0.00050067902 -0.032226562 -0.35327148 0 0 0 0
0.0023288727 -0.032226562 -0.35327148 0 0 0 0
0.00415802 -0.032226562 -0.35327148 0 0 0 0
0.0059890747 -0.032226562 -0.35327148 0 0 0 0
0.0078201294 -0.032226562 -0.35327148 0 0 0 0
0.0096435547 -0.032226562 -0.35327148 0 0 0 0
0.011474609 -0.032226562 -0.35327148 0 0 0 0
0.013305664 -0.032226562 -0.35327148 0 0 0 0
0.015136719 -0.032226562 -0.35327148 0 0 0 0
0.016967773 -0.032226562 -0.35327148 0 0 0 0
0.018798828 -0.032226562 -0.35327148 0 0 0 0
0.020614624 -0.032226562 -0.35327148 0 0 0 0
0.024688721 -0.032775879 -0.359375 0 0 0 0
0.026550293 -0.032775879 -0.359375 0 0 0 0
0.028656006 -0.033050537 -0.36230469 0 0 0 0
0.030532837 -0.033050537 -0.36230469 0 0 0 0
0.032501221 -0.03314209 -0.36328125 0 0 0 0
0.034454346 -0.033233643 -0.36425781 0 0 0 0
0.036468506 -0.033325195 -0.36523438 0 0 0 0
0.038452148 -0.033416748 -0.36621094 0 0 0 0
0.040344238 -0.033416748 -0.36621094 0 0 0 0
0.042480469 -0.033599854 -0.3684082 0 0 0 0
0.044494629 -0.033691406 -0.36938477 0 0 0 0
0.080383301 -0.036071777 -0.39550781 0 0 0 0
0.081176758 -0.035522461 -0.3894043 0 0 0 0
0.082763672 -0.035339355 -0.38745117 0 0 0 0
0.084350586 -0.03515625 -0.38549805 0 0 0 0
0.086120605 -0.035064697 -0.38427734 0 0 0 0
0.087890625 -0.034973145 -0.38330078 0 0 0 0
0.08984375 -0.034973145 -0.38330078 0 0 0 0
0.09185791 -0.034973145 -0.38330078 0 0 0 0
0.09387207 -0.034973145 -0.38330078 0 0 0 0
0.095825195 -0.034973145 -0.38330078 0 0 0 0
0.093811035 -0.032226562 -0.35327148 0 0 0 0
0.09564209 -0.032226562 -0.35327148 0 0 0 0
0.097473145 -0.032226562 -0.35327148 0 0 0 0
0.099304199 -0.032226562 -0.35327148 0 0 0 0
0.10083008 -0.03213501 -0.35229492 0 0 0 0
0.10266113 -0.03213501 -0.35229492 0 0 0 0
0.10449219 -0.03213501 -0.35229492 0 0 0 0
0.10632324 -0.03213501 -0.35229492 0 0 0 0
0.10809326 -0.03213501 -0.35229492 0 0 0 0
0.10992432 -0.03213501 -0.35229492 0 0 0 0
0.11175537 -0.03213501 -0.35229492 0 0 0 0
0.11358643 -0.03213501 -0.35229492 0 0 0 0
0.11541748 -0.03213501 -0.35229492 0 0 0 0
0.11724854 -0.03213501 -0.35229492 0 0 0 0
0.11907959 -0.03213501 -0.35229492 0 0 0 0
0.12091064 -0.03213501 -0.35229492 0 0 0 0
0.1227417 -0.03213501 -0.35229492 0 0 0 0
0.12457275 -0.03213501 -0.35229492 0 0 0 0
0.12634277 -0.03213501 -0.35229492 0 0 0 0
0.12817383 -0.03213501 -0.35229492 0 0 0 0
0.13000488 -0.03213501 -0.35229492 0 0 0 0
0.13183594 -0.03213501 -0.35229492 0 0 0 0
0.13366699 -0.03213501 -0.35229492 0 0 0 0
0.13549805 -0.03213501 -0.35229492 0 0 0 0
0.1373291 -0.03213501 -0.35229492 0 0 0 0
0.13916016 -0.03213501 -0.35229492 0 0 0 0
0.14099121 -0.03213501 -0.35229492 0 0 0 0
0.1427002 -0.03213501 -0.35229492 0 0 0 0
0.14453125 -0.03213501 -0.35229492 0 0 0 0
0.1463623 -0.03213501 -0.35229492 0 0 0 0
0.14819336 -0.03213501 -0.35229492 0 0 0 0
0.15002441 -0.03213501 -0.35229492 0 0 0 0
0.15185547 -0.03213501 -0.35229492 0 0 0 0
0.15368652 -0.03213501 -0.35229492 0 0 0 0
0.15551758 -0.03213501 -0.35229492 0 0 0 0
0.15734863 -0.03213501 -0.35229492 0 0 0 0
0.15917969 -0.03213501 -0.35229492 0 0 0 0
0.16101074 -0.03213501 -0.35229492 0 0 0 0
0.1628418 -0.03213501 -0.35229492 0 0 0 0
0.16418457 -0.032043457 -0.35131836 0 0 0 0
0.16601562 -0.032043457 -0.35131836 0 0 0 0
0.16784668 -0.032043457 -0.35131836 0 0 0 0
0.16967773 -0.032043457 -0.35131836 0 0 0 0
0.17150879 -0.032043457 -0.35131836 0 0 0 0
0.17333984 -0.032043457 -0.35131836 0 0 0 0
0.17504883 -0.032043457 -0.35131836 0 0 0 0
0.17687988 -0.032043457 -0.35131836 0 0 0 0
0.17871094 -0.032043457 -0.35131836 0 0 0 0
0.18054199 -0.032043457 -0.35131836 0 0 0 0
0.18237305 -0.032043457 -0.35131836 0 0 0 0
0.1842041 -0.032043457 -0.35131836 0 0 0 0
0.18603516 -0.032043457 -0.35131836 0 0 0 0
0.18786621 -0.032043457 -0.35131836 0 0 0 0
0.18969727 -0.032043457 -0.35131836 0 0 0 0
0.19152832 -0.032043457 -0.35131836 0 0 0 0
0.1932373 -0.032043457 -0.35131836 0 0 0 0
0.19506836 -0.032043457 -0.35131836 0 0 0 0
0.19689941 -0.032043457 -0.35131836 0 0 0 0
0.19873047 -0.032043457 -0.35131836 0 0 0 0
0.20056152 -0.032043457 -0.35131836 0 0 0 0
0.20239258 -0.032043457 -0.35131836 0 0 0 0
0.20422363 -0.032043457 -0.35131836 0 0 0 0
0.20605469 -0.032043457 -0.35131836 0 0 0 0
0.20788574 -0.032043457 -0.35131836 0 0 0 0
0.2097168 -0.032043457 -0.35131836 0 0 0 0
0.21154785 -0.032043457 -0.35131836 0 0 0 0
0.21325684 -0.032043457 -0.35131836 0 0 0 0
0.21447754 -0.031951904 -0.3503418 0 0 0 0
0.21630859 -0.031951904 -0.3503418 0 0 0 0
0.21813965 -0.031951904 -0.3503418 0 0 0 0
0.2199707 -0.031951904 -0.3503418 0 0 0 0
0.22180176 -0.031951904 -0.3503418 0 0 0 0
0.00050067902 -0.034057617 -0.35327148 0 0 0 0
0.0023231506 -0.033966064 -0.35229492 0 0 0 0
0.0041465759 -0.033966064 -0.35229492 0 0 0 0
0.0059700012 -0.033966064 -0.35229492 0 0 0 0
0.0077972412 -0.033966064 -0.35229492 0 0 0 0
0.0096206665 -0.033966064 -0.35229492 0 0 0 0
0.011444092 -0.033966064 -0.35229492 0 0 0 0
0.013267517 -0.033966064 -0.35229492 0 0 0 0
0.015090942 -0.033966064 -0.35229492 0 0 0 0
0.016967773 -0.034057617 -0.35327148 0 0 0 0
0.018798828 -0.034057617 -0.35327148 0 0 0 0
0.020614624 -0.034057617 -0.35327148 0 0 0 0
0.022521973 -0.03414917 -0.35424805 0 0 0 0
0.024551392 -0.034454346 -0.35717773 0 0 0 0
0.026489258 -0.034545898 -0.35839844 0 0 0 0
0.028411865 -0.034637451 -0.359375 0 0 0 0
0.030441284 -0.034851074 -0.36132812 0 0 0 0
0.032409668 -0.034942627 -0.36230469 0 0 0 0
0.03427124 -0.034942627 -0.36230469 0 0 0 0
0.036254883 -0.03503418 -0.36328125 0 0 0 0
0.038238525 -0.035125732 -0.36425781 0 0 0 0
0.040130615 -0.035125732 -0.36425781 0 0 0 0
0.042480469 -0.035522461 -0.3684082 0 0 0 0
0.080993652 -0.037445068 -0.38842773 0 0 0 0
0.082580566 -0.037261963 -0.38647461 0 0 0 0
0.084350586 -0.03717041 -0.38549805 0 0 0 0
0.086120605 -0.037078857 -0.38427734 0 0 0 0
0.087890625 -0.036956787 -0.38330078 0 0 0 0
0.08984375 -0.036956787 -0.38330078 0 0 0 0
0.09161377 -0.036865234 -0.38232422 0 0 0 0
0.09362793 -0.036865234 -0.38232422 0 0 0 0
0.095581055 -0.036865234 -0.38232422 0 0 0 0
0.092224121 -0.03414917 -0.35424805 0 0 0 0
0.093811035 -0.034057617 -0.35327148 0 0 0 0
0.09564209 -0.034057617 -0.35327148 0 0 0 0
0.097473145 -0.034057617 -0.35327148 0 0 0 0
0.098999023 -0.033966064 -0.35229492 0 0 0 0
0.10083008 -0.033966064 -0.35229492 0 0 0 0
0.10266113 -0.033966064 -0.35229492 0 0 0 0
0.10449219 -0.033966064 -0.35229492 0 0 0 0
0.10632324 -0.033966064 -0.35229492 0 0 0 0
0.10809326 -0.033966064 -0.35229492 0 0 0 0
0.10992432 -0.033966064 -0.35229492 0 0 0 0
0.11175537 -0.033966064 -0.35229492 0 0 0 0
0.11358643 -0.033966064 -0.35229492 0 0 0 0
0.11541748 -0.033966064 -0.35229492 0 0 0 0
0.11724854 -0.033966064 -0.35229492 0 0 0 0
0.11907959 -0.033966064 -0.35229492 0 0 0 0
0.12091064 -0.033966064 -0.35229492 0 0 0 0
0.1227417 -0.033966064 -0.35229492 0 0 0 0
0.12457275 -0.033966064 -0.35229492 0 0 0 0
0.12634277 -0.033966064 -0.35229492 0 0 0 0
0.12817383 -0.033966064 -0.35229492 0 0 0 0
0.13000488 -0.033966064 -0.35229492 0 0 0 0
0.13183594 -0.033966064 -0.35229492 0 0 0 0
0.13366699 -0.033966064 -0.35229492 0 0 0 0
0.13549805 -0.033966064 -0.35229492 0 0 0 0
0.1373291 -0.033966064 -0.35229492 0 0 0 0
0.13916016 -0.033966064 -0.35229492 0 0 0 0
0.14099121 -0.033966064 -0.35229492 0 0 0 0
0.1427002 -0.033966064 -0.35229492 0 0 0 0
0.14453125 -0.033966064 -0.35229492 0 0 0 0
0.1463623 -0.033966064 -0.35229492 0 0 0 0
0.14819336 -0.033966064 -0.35229492 0 0 0 0
0.15002441 -0.033966064 -0.35229492 0 0 0 0
0.15185547 -0.033966064 -0.35229492 0 0 0 0
0.15368652 -0.033966064 -0.35229492 0 0 0 0
0.15551758 -0.033966064 -0.35229492 0 0 0 0
0.15734863 -0.033966064 -0.35229492 0 0 0 0
0.15917969 -0.033966064 -0.35229492 0 0 0 0
0.16101074 -0.033966064 -0.35229492 0 0 0 0
0.16235352 -0.033874512 -0.35131836 0 0 0 0
0.16418457 -0.033874512 -0.35131836 0 0 0 0
0.16601562 -0.033874512 -0.35131836 0 0 0 0
0.16784668 -0.033874512 -0.35131836 0 0 0 0
0.16967773 -0.033874512 -0.35131836 0 0 0 0
0.17150879 -0.033874512 -0.35131836 0 0 0 0
0.17333984 -0.033874512 -0.35131836 0 0 0 0
0.17504883 -0.033874512 -0.35131836 0 0 0 0
0.17687988 -0.033874512 -0.35131836 0 0 0 0
0.17871094 -0.033874512 -0.35131836 0 0 0 0
0.18054199 -0.033874512 -0.35131836 0 0 0 0
0.18237305 -0.033874512 -0.35131836 0 0 0 0
0.1842041 -0.033874512 -0.35131836 0 0 0 0
0.18603516 -0.033874512 -0.35131836 0 0 0 0
0.18786621 -0.033874512 -0.35131836 0 0 0 0
0.18969727 -0.033874512 -0.35131836 0 0 0 0
0.19152832 -0.033874512 -0.35131836 0 0 0 0
0.1932373 -0.033874512 -0.35131836 0 0 0 0
0.19506836 -0.033874512 -0.35131836 0 0 0 0
0.19689941 -0.033874512 -0.35131836 0 0 0 0
0.19873047 -0.033874512 -0.35131836 0 0 0 0
0.20056152 -0.033874512 -0.35131836 0 0 0 0
0.20239258 -0.033874512 -0.35131836 0 0 0 0
0.20422363 -0.033874512 -0.35131836 0 0 0 0
0.20605469 -0.033874512 -0.35131836 0 0 0 0
0.20788574 -0.033874512 -0.35131836 0 0 0 0
0.2097168 -0.033874512 -0.35131836 0 0 0 0
0.21154785 -0.033874512 -0.35131836 0 0 0 0
0.21325684 -0.033874512 -0.35131836 0 0 0 0
0.21447754 -0.033782959 -0.3503418 0 0 0 0
0.21630859 -0.033782959 -0.3503418 0 0 0 0
0.21813965 -0.033782959 -0.3503418 0 0 0 0
0.2199707 -0.033782959 -0.3503418 0 0 0 0
0.22180176 -0.033782959 -0.3503418 0 0 0 0
-0.0031585693 -0.035888672 -0.35327148 0 0 0 0
-0.0013284683 -0.035888672 -0.35327148 0 0 0 0
0.00050067902 -0.035888672 -0.35327148 0 0 0 0
0.0023231506 -0.035797119 -0.35229492 0 0 0 0
0.0041465759 -0.035797119 -0.35229492 0 0 0 0
0.0059700012 -0.035797119 -0.35229492 0 0 0 0
0.007774353 -0.035675049 -0.35131836 0 0 0 0
0.0095901489 -0.035675049 -0.35131836 0 0 0 0
0.011444092 -0.035797119 -0.35229492 0 0 0 0
0.013267517 -0.035797119 -0.35229492 0 0 0 0
0.015090942 -0.035797119 -0.35229492 0 0 0 0
0.016967773 -0.035888672 -0.35327148 0 0 0 0
0.020614624 -0.035888672 -0.35327148 0 0 0 0
0.022521973 -0.036010742 -0.35424805 0 0 0 0
0.024490356 -0.036193848 -0.35620117 0 0 0 0
0.026412964 -0.036315918 -0.35717773 0 0 0 0
0.028335571 -0.036407471 -0.35839844 0 0 0 0
0.03036499 -0.036621094 -0.36035156 0 0 0 0
0.032226562 -0.036621094 -0.36035156 0 0 0 0
0.034179688 -0.036712646 -0.36132812 0 0 0 0
0.03604126 -0.036712646 -0.36132812 0 0 0 0
0.03793335 -0.036712646 -0.36132812 0 0 0 0
0.039916992 -0.036804199 -0.36230469 0 0 0 0
0.082336426 -0.039154053 -0.38549805 0 0 0 0
0.084106445 -0.0390625 -0.38427734 0 0 0 0
0.085876465 -0.03894043 -0.38330078 0 0 0 0
0.087890625 -0.03894043 -0.38330078 0 0 0 0
0.089660645 -0.038848877 -0.38232422 0 0 0 0
0.09161377 -0.038848877 -0.38232422 0 0 0 0
0.09362793 -0.038848877 -0.38232422 0 0 0 0
0.090637207 -0.036102295 -0.35522461 0 0 0 0
0.092224121 -0.036010742 -0.35424805 0 0 0 0
0.093811035 -0.035888672 -0.35327148 0 0 0 0
0.09564209 -0.035888672 -0.35327148 0 0 0 0
0.097473145 -0.035888672 -0.35327148 0 0 0 0
0.098999023 -0.035797119 -0.35229492 0 0 0 0
0.10083008 -0.035797119 -0.35229492 0 0 0 0
0.10266113 -0.035797119 -0.35229492 0 0 0 0
0.10449219 -0.035797119 -0.35229492 0 0 0 0
0.10632324 -0.035797119 -0.35229492 0 0 0 0
0.10809326 -0.035797119 -0.35229492 0 0 0 0
0.10992432 -0.035797119 -0.35229492 0 0 0 0
0.11175537 -0.035797119 -0.35229492 0 0 0 0
0.11358643 -0.035797119 -0.35229492 0 0 0 0
0.11541748 -0.035797119 -0.35229492 0 0 0 0
0.11724854 -0.035797119 -0.35229492 0 0 0 0
0.11907959 -0.035797119 -0.35229492 0 0 0 0
0.12091064 -0.035797119 -0.35229492 0 0 0 0
0.1227417 -0.035797119 -0.35229492 0 0 0 0
0.12457275 -0.035797119 -0.35229492 0 0 0 0
0.12634277 -0.035797119 -0.35229492 0 0 0 0
0.12817383 -0.035797119 -0.35229492 0 0 0 0
0.13000488 -0.035797119 -0.35229492 0 0 0 0
0.13183594 -0.035797119 -0.35229492 0 0 0 0
0.13366699 -0.035797119 -0.35229492 0 0 0 0
0.13549805 -0.035797119 -0.35229492 0 0 0 0
0.1373291 -0.035797119 -0.35229492 0 0 0 0
0.13916016 -0.035797119 -0.35229492 0 0 0 0
0.14099121 -0.035797119 -0.35229492 0 0 0 0
0.1427002 -0.035797119 -0.35229492 0 0 0 0
0.14453125 -0.035797119 -0.35229492 0 0 0 0
0.1463623 -0.035797119 -0.35229492 0 0 0 0
0.14819336 -0.035797119 -0.35229492 0 0 0 0
0.15002441 -0.035797119 -0.35229492 0 0 0 0
0.15185547 -0.035797119 -0.35229492 0 0 0 0
0.15368652 -0.035797119 -0.35229492 0 0 0 0
0.15551758 -0.035797119 -0.35229492 0 0 0 0
0.15734863 -0.035797119 -0.35229492 0 0 0 0
0.15917969 -0.035797119 -0.35229492 0 0 0 0
0.16052246 -0.035675049 -0.35131836 0 0 0 0
0.16235352 -0.035675049 -0.35131836 0 0 0 0
0.16418457 -0.035675049 -0.35131836 0 0 0 0
0.16601562 -0.035675049 -0.35131836 0 0 0 0
0.16784668 -0.035675049 -0.35131836 0 0 0 0
0.16967773 -0.035675049 -0.35131836 0 0 0 0
0.17150879 -0.035675049 -0.35131836 0 0 0 0
0.17333984 -0.035675049 -0.35131836 0 0 0 0
0.17504883 -0.035675049 -0.35131836 0 0 0 0
0.17687988 -0.035675049 -0.35131836 0 0 0 0
0.17871094 -0.035675049 -0.35131836 0 0 0 0
0.18054199 -0.035675049 -0.35131836 0 0 0 0
0.18237305 -0.035675049 -0.35131836 0 0 0 0
0.1842041 -0.035675049 -0.35131836 0 0 0 0
0.18603516 -0.035675049 -0.35131836 0 0 0 0
0.18786621 -0.035675049 -0.35131836 0 0 0 0
0.18969727 -0.035675049 -0.35131836 0 0 0 0
0.19152832 -0.035675049 -0.35131836 0 0 0 0
0.1932373 -0.035675049 -0.35131836 0 0 0 0
0.19506836 -0.035675049 -0.35131836 0 0 0 0
0.19689941 -0.035675049 -0.35131836 0 0 0 0
0.19873047 -0.035675049 -0.35131836 0 0 0 0
0.20056152 -0.035675049 -0.35131836 0 0 0 0
0.20239258 -0.035675049 -0.35131836 0 0 0 0
0.20422363 -0.035675049 -0.35131836 0 0 0 0
0.20605469 -0.035675049 -0.35131836 0 0 0 0
0.20788574 -0.035675049 -0.35131836 0 0 0 0
0.2097168 -0.035675049 -0.35131836 0 0 0 0
0.21154785 -0.035675049 -0.35131836 0 0 0 0
0.21325684 -0.035675049 -0.35131836 0 0 0 0
0.21447754 -0.035583496 -0.3503418 0 0 0 0
0.21630859 -0.035583496 -0.3503418 0 0 0 0
0.21813965 -0.035583496 -0.3503418 0 0 0 0
0.2199707 -0.035583496 -0.3503418 0 0 0 0
-0.006855011 -0.03793335 -0.35522461 0 0 0 0
-0.0050163269 -0.03793335 -0.35522461 0 0 0 0
-0.0031661987 -0.037841797 -0.35424805 0 0 0 0
-0.0013284683 -0.037719727 -0.35327148 0 0 0 0
0.00050067902 -0.037719727 -0.35327148 0 0 0 0
0.0023231506 -0.037628174 -0.35229492 0 0 0 0
0.0041465759 -0.037628174 -0.35229492 0 0 0 0
0.0059547424 -0.037506104 -0.35131836 0 0 0 0
0.007774353 -0.037506104 -0.35131836 0 0 0 0
0.0095901489 -0.037506104 -0.35131836 0 0 0 0
0.011413574 -0.037506104 -0.35131836 0 0 0 0
0.013267517 -0.037628174 -0.35229492 0 0 0 0
0.02633667 -0.03805542 -0.35620117 0 0 0 0
0.028259277 -0.038146973 -0.35717773 0 0 0 0
0.030273438 -0.038360596 -0.359375 0 0 0 0
0.03213501 -0.038360596 -0.359375 0 0 0 0
0.034088135 -0.038482666 -0.36035156 0 0 0 0
0.035949707 -0.038482666 -0.36035156 0 0 0 0
0.037811279 -0.038482666 -0.36035156 0 0 0 0
0.039672852 -0.038482666 -0.36035156 0 0 0 0
0.04119873 -0.038146973 -0.35717773 0 0 0 0
0.08392334 -0.04095459 -0.38330078 0 0 0 0
0.085876465 -0.04095459 -0.38330078 0 0 0 0
0.087646484 -0.04083252 -0.38232422 0 0 0 0
0.089660645 -0.04083252 -0.38232422 0 0 0 0
0.091369629 -0.040740967 -0.38134766 0 0 0 0
0.088806152 -0.03793335 -0.35522461 0 0 0 0
0.090393066 -0.037841797 -0.35424805 0 0 0 0
0.092224121 -0.037841797 -0.35424805 0 0 0 0
0.093811035 -0.037719727 -0.35327148 0 0 0 0
0.09564209 -0.037719727 -0.35327148 0 0 0 0
0.097473145 -0.037719727 -0.35327148 0 0 0 0
0.098999023 -0.037628174 -0.35229492 0 0 0 0
0.10083008 -0.037628174 -0.35229492 0 0 0 0
0.10266113 -0.037628174 -0.35229492 0 0 0 0
0.10449219 -0.037628174 -0.35229492 0 0 0 0
0.10632324 -0.037628174 -0.35229492 0 0 0 0
0.10809326 -0.037628174 -0.35229492 0 0 0 0
0.10992432 -0.037628174 -0.35229492 0 0 0 0
0.11175537 -0.037628174 -0.35229492 0 0 0 0
0.11358643 -0.037628174 -0.35229492 0 0 0 0
0.11541748 -0.037628174 -0.35229492 0 0 0 0
0.11724854 -0.037628174 -0.35229492 0 0 0 0
0.11907959 -0.037628174 -0.35229492 0 0 0 0
0.12091064 -0.037628174 -0.35229492 0 0 0 0
0.1227417 -0.037628174 -0.35229492 0 0 0 0
0.12457275 -0.037628174 -0.35229492 0 0 0 0
0.12634277 -0.037628174 -0.35229492 0 0 0 0
0.12817383 -0.037628174 -0.35229492 0 0 0 0
0.13000488 -0.037628174 -0.35229492 0 0 0 0
0.13183594 -0.037628174 -0.35229492 0 0 0 0
0.13366699 -0.037628174 -0.35229492 0 0 0 0
0.13549805 -0.037628174 -0.35229492 0 0 0 0
0.1373291 -0.037628174 -0.35229492 0 0 0 0
0.13916016 -0.037628174 -0.35229492 0 0 0 0
0.14099121 -0.037628174 -0.35229492 0 0 0 0
0.1427002 -0.037628174 -0.35229492 0 0 0 0
0.14453125 -0.037628174 -0.35229492 0 0 0 0
0.1463623 -0.037628174 -0.35229492 0 0 0 0
0.14819336 -0.037628174 -0.35229492 0 0 0 0
0.15002441 -0.037628174 -0.35229492 0 0 0 0
0.15185547 -0.037628174 -0.35229492 0 0 0 0
0.15368652 -0.037628174 -0.35229492 0 0 0 0
0.15551758 -0.037628174 -0.35229492 0 0 0 0
0.15734863 -0.037628174 -0.35229492 0 0 0 0
0.15869141 -0.037506104 -0.35131836 0 0 0 0
0.16052246 -0.037506104 -0.35131836 0 0 0 0
0.16235352 -0.037506104 -0.35131836 0 0 0 0
0.16418457 -0.037506104 -0.35131836 0 0 0 0
0.16601562 -0.037506104 -0.35131836 0 0 0 0
0.16784668 -0.037506104 -0.35131836 0 0 0 0
0.16967773 -0.037506104 -0.35131836 0 0 0 0
0.17150879 -0.037506104 -0.35131836 0 0 0 0
0.17333984 -0.037506104 -0.35131836 0 0 0 0
0.17504883 -0.037506104 -0.35131836 0 0 0 0
0.17687988 -0.037506104 -0.35131836 0 0 0 0
0.17871094 -0.037506104 -0.35131836 0 0 0 0
0.18054199 -0.037506104 -0.35131836 0 0 0 0
0.18237305 -0.037506104 -0.35131836 0 0 0 0
0.1842041 -0.037506104 -0.35131836 0 0 0 0
0.18603516 -0.037506104 -0.35131836 0 0 0 0
0.18786621 -0.037506104 -0.35131836 0 0 0 0
0.18969727 -0.037506104 -0.35131836 0 0 0 0
0.19152832 -0.037506104 -0.35131836 0 0 0 0
0.1932373 -0.037506104 -0.35131836 0 0 0 0
0.19506836 -0.037506104 -0.35131836 0 0 0 0
0.19689941 -0.037506104 -0.35131836 0 0 0 0
0.19873047 -0.037506104 -0.35131836 0 0 0 0
0.20056152 -0.037506104 -0.35131836 0 0 0 0
0.20239258 -0.037506104 -0.35131836 0 0 0 0
0.20422363 -0.037506104 -0.35131836 0 0 0 0
0.20605469 -0.037506104 -0.35131836 0 0 0 0
0.20788574 -0.037506104 -0.35131836 0 0 0 0
0.2097168 -0.037506104 -0.35131836 0 0 0 0
0.21154785 -0.037506104 -0.35131836 0 0 0 0
0.21325684 -0.037506104 -0.35131836 0 0 0 0
0.21508789 -0.037506104 -0.35131836 0 0 0 0
0.21630859 -0.037414551 -0.3503418 0 0 0 0
0.21813965 -0.037414551 -0.3503418 0 0 0 0
-0.0087203979 -0.039886475 -0.35620117 0 0 0 0
-0.0068740845 -0.039886475 -0.35620117 0 0 0 0
-0.0050163269 -0.039764404 -0.35522461 0 0 0 0
-0.0031661987 -0.039672852 -0.35424805 0 0 0 0
-0.0013284683 -0.039550781 -0.35327148 0 0 0 0
0.00050067902 -0.039550781 -0.35327148 0 0 0 0
0.0023231506 -0.039428711 -0.35229492 0 0 0 0
0.0041351318 -0.039337158 -0.35131836 0 0 0 0
0.0059547424 -0.039337158 -0.35131836 0 0 0 0
0.007774353 -0.039337158 -0.35131836 0 0 0 0
0.0095672607 -0.039215088 -0.3503418 0 0 0 0
0.011413574 -0.039337158 -0.35131836 0 0 0 0
0.030197144 -0.040130615 -0.35839844 0 0 0 0
0.03213501 -0.040222168 -0.359375 0 0 0 0
0.033996582 -0.040222168 -0.359375 0 0 0 0
0.035858154 -0.040222168 -0.359375 0 0 0 0
0.037719727 -0.040222168 -0.359375 0 0 0 0
0.039459229 -0.040130615 -0.35839844 0 0 0 0
0.04119873 -0.040008545 -0.35717773 0 0 0 0
0.042938232 -0.039886475 -0.35620117 0 0 0 0
0.088562012 -0.039672852 -0.35424805 0 0 0 0
0.090393066 -0.039672852 -0.35424805 0 0 0 0
0.09197998 -0.039550781 -0.35327148 0 0 0 0
0.093811035 -0.039550781 -0.35327148 0 0 0 0
0.09564209 -0.039550781 -0.35327148 0 0 0 0
0.097167969 -0.039428711 -0.35229492 0 0 0 0
0.098999023 -0.039428711 -0.35229492 0 0 0 0
0.10083008 -0.039428711 -0.35229492 0 0 0 0
0.10266113 -0.039428711 -0.35229492 0 0 0 0
0.10449219 -0.039428711 -0.35229492 0 0 0 0
0.10632324 -0.039428711 -0.35229492 0 0 0 0
0.10809326 -0.039428711 -0.35229492 0 0 0 0
0.10992432 -0.039428711 -0.35229492 0 0 0 0
0.11175537 -0.039428711 -0.35229492 0 0 0 0
0.11358643 -0.039428711 -0.35229492 0 0 0 0
0.11541748 -0.039428711 -0.35229492 0 0 0 0
0.11724854 -0.039428711 -0.35229492 0 0 0 0
0.11871338 -0.039337158 -0.35131836 0 0 0 0
0.12054443 -0.039337158 -0.35131836 0 0 0 0
0.12237549 -0.039337158 -0.35131836 0 0 0 0
0.12420654 -0.039337158 -0.35131836 0 0 0 0
0.12597656 -0.039337158 -0.35131836 0 0 0 0
0.12817383 -0.039428711 -0.35229492 0 0 0 0
0.13000488 -0.039428711 -0.35229492 0 0 0 0
0.13183594 -0.039428711 -0.35229492 0 0 0 0
0.13366699 -0.039428711 -0.35229492 0 0 0 0
0.13549805 -0.039428711 -0.35229492 0 0 0 0
0.1373291 -0.039428711 -0.35229492 0 0 0 0
0.13916016 -0.039428711 -0.35229492 0 0 0 0
0.14099121 -0.039428711 -0.35229492 0 0 0 0
0.14233398 -0.039337158 -0.35131836 0 0 0 0
0.14416504 -0.039337158 -0.35131836 0 0 0 0
0.14599609 -0.039337158 -0.35131836 0 0 0 0
0.14782715 -0.039337158 -0.35131836 0 0 0 0
0.1496582 -0.039337158 -0.35131836 0 0 0 0
0.15148926 -0.039337158 -0.35131836 0 0 0 0
0.15332031 -0.039337158 -0.35131836 0 0 0 0
0.1550293 -0.039337158 -0.35131836 0 0 0 0
0.15686035 -0.039337158 -0.35131836 0 0 0 0
0.15869141 -0.039337158 -0.35131836 0 0 0 0
0.16052246 -0.039337158 -0.35131836 0 0 0 0
0.16235352 -0.039337158 -0.35131836 0 0 0 0
0.16418457 -0.039337158 -0.35131836 0 0 0 0
0.16601562 -0.039337158 -0.35131836 0 0 0 0
