ply
format ascii 1.0
comment PCL generated
element vertex 1074
property float x
property float y
property float z
property float nx
property float ny
property float nz
property float curvature
element face 0
element camera 0
property float view_px
property float view_py
property float view_pz
property float x_axisx
property float x_axisy
property float x_axisz
property float y_axisx
property float y_axisy
property float y_axisz
property float z_axisx
property float z_axisy
property float z_axisz
property float focal
property float scalex
property float scaley
property float centerx
property float centery
property int viewportx
property int viewporty
property float k1
property float k2
end_header
-0.043640137 0.05770874 -0.35522461 0 0 0 0
-0.041809082 0.05770874 -0.35522461 0 0 0 0
-0.039978027 0.05770874 -0.35522461 0 0 0 0
-0.038116455 0.05770874 -0.35522461 0 0 0 0
-0.0362854 0.05770874 -0.35522461 0 0 0 0
-0.034454346 0.05770874 -0.35522461 0 0 0 0
-0.032684326 0.057891846 -0.35620117 0 0 0 0
-0.030853271 0.057891846 -0.35620117 0 0 0 0
-0.029006958 0.057891846 -0.35620117 0 0 0 0
-0.027175903 0.057891846 -0.35620117 0 0 0 0
-0.025390625 0.058044434 -0.35717773 0 0 0 0
-0.023544312 0.058044434 -0.35717773 0 0 0 0
-0.021697998 0.058044434 -0.35717773 0 0 0 0
-0.019836426 0.058044434 -0.35717773 0 0 0 0
-0.018035889 0.058197021 -0.35839844 0 0 0 0
-0.016189575 0.058197021 -0.35839844 0 0 0 0
-0.014373779 0.058380127 -0.359375 0 0 0 0
-0.012550354 0.058532715 -0.36035156 0 0 0 0
-0.01071167 0.05871582 -0.36132812 0 0 0 0
-0.0088653564 0.058868408 -0.36230469 0 0 0 0
-0.0070114136 0.059020996 -0.36328125 0 0 0 0
-0.0051422119 0.059204102 -0.36425781 0 0 0 0
-0.0032653809 0.059356689 -0.36523438 0 0 0 0
-0.0013780594 0.059509277 -0.36621094 0 0 0 0
0.00051784515 0.059356689 -0.36523438 0 0 0 0
0.0024089813 0.059356689 -0.36523438 0 0 0 0
0.0042877197 0.059204102 -0.36425781 0 0 0 0
0.0061569214 0.059020996 -0.36328125 0 0 0 0
0.0080184937 0.058868408 -0.36230469 0 0 0 0
0.0098648071 0.05871582 -0.36132812 0 0 0 0
0.011703491 0.058532715 -0.36035156 0 0 0 0
0.013534546 0.058380127 -0.359375 0 0 0 0
0.015396118 0.058380127 -0.359375 0 0 0 0
0.01725769 0.058380127 -0.359375 0 0 0 0
0.019119263 0.058380127 -0.359375 0 0 0 0
0.020965576 0.058380127 -0.359375 0 0 0 0
0.022827148 0.058380127 -0.359375 0 0 0 0
0.024688721 0.058380127 -0.359375 0 0 0 0
0.026489258 0.058197021 -0.35839844 0 0 0 0
0.028335571 0.058197021 -0.35839844 0 0 0 0
0.030197144 0.058197021 -0.35839844 0 0 0 0
0.032043457 0.058197021 -0.35839844 0 0 0 0
0.033905029 0.058197021 -0.35839844 0 0 0 0
0.035766602 0.058197021 -0.35839844 0 0 0 0
0.037597656 0.058197021 -0.35839844 0 0 0 0
0.039459229 0.058197021 -0.35839844 0 0 0 0
0.041320801 0.058197021 -0.35839844 0 0 0 0
0.043182373 0.058197021 -0.35839844 0 0 0 0
0.045043945 0.058197021 -0.35839844 0 0 0 0
0.046875 0.058197021 -0.35839844 0 0 0 0
0.048736572 0.058197021 -0.35839844 0 0 0 0
0.050598145 0.058197021 -0.35839844 0 0 0 0
0.052459717 0.058197021 -0.35839844 0 0 0 0
0.054321289 0.058197021 -0.35839844 0 0 0 0
0.053955078 0.049407959 -0.30395508 0 0 0 0
0.055358887 0.049255371 -0.30297852 0 0 0 0
0.056945801 0.049255371 -0.30297852 0 0 0 0
0.058319092 0.049072266 -0.30200195 0 0 0 0
0.059661865 0.048919678 -0.30102539 0 0 0 0
0.061035156 0.04876709 -0.30004883 0 0 0 0
0.06237793 0.048583984 -0.29907227 0 0 0 0
0.063903809 0.048583984 -0.29907227 0 0 0 0
0.065002441 0.048248291 -0.29711914 0 0 0 0
0.066345215 0.048095703 -0.29614258 0 0 0 0
0.067626953 0.047943115 -0.29492188 0 0 0 0
0.068908691 0.04776001 -0.29394531 0 0 0 0
0.07019043 0.047607422 -0.29296875 0 0 0 0
0.071472168 0.047454834 -0.29199219 0 0 0 0
0.072753906 0.047271729 -0.29101562 0 0 0 0
0.074279785 0.047271729 -0.29101562 0 0 0 0
0.075500488 0.047119141 -0.29003906 0 0 0 0
0.077026367 0.047119141 -0.29003906 0 0 0 0
0.078491211 0.047119141 -0.29003906 0 0 0 0
0.08001709 0.047119141 -0.29003906 0 0 0 0
0.10040283 0.058044434 -0.35717773 0 0 0 0
0.10223389 0.058044434 -0.35717773 0 0 0 0
0.10412598 0.058044434 -0.35717773 0 0 0 0
0.10595703 0.058044434 -0.35717773 0 0 0 0
0.10778809 0.058044434 -0.35717773 0 0 0 0
0.10968018 0.058044434 -0.35717773 0 0 0 0
0.11151123 0.058044434 -0.35717773 0 0 0 0
0.11334229 0.058044434 -0.35717773 0 0 0 0
0.11523438 0.058044434 -0.35717773 0 0 0 0
0.11706543 0.058044434 -0.35717773 0 0 0 0
0.1192627 0.058197021 -0.35839844 0 0 0 0
0.12109375 0.058197021 -0.35839844 0 0 0 0
0.12298584 0.058197021 -0.35839844 0 0 0 0
-0.067382812 0.057312012 -0.36425781 0 0 0 0
-0.065307617 0.057159424 -0.36328125 0 0 0 0
-0.063232422 0.056976318 -0.36230469 0 0 0 0
-0.061401367 0.056976318 -0.36230469 0 0 0 0
-0.059356689 0.05682373 -0.36132812 0 0 0 0
-0.057159424 0.056518555 -0.359375 0 0 0 0
-0.055145264 0.056365967 -0.35839844 0 0 0 0
-0.053131104 0.056213379 -0.35717773 0 0 0 0
-0.051147461 0.056030273 -0.35620117 0 0 0 0
-0.049316406 0.056030273 -0.35620117 0 0 0 0
-0.047332764 0.055877686 -0.35522461 0 0 0 0
-0.045501709 0.055877686 -0.35522461 0 0 0 0
-0.043640137 0.055877686 -0.35522461 0 0 0 0
-0.041809082 0.055877686 -0.35522461 0 0 0 0
-0.039978027 0.055877686 -0.35522461 0 0 0 0
-0.038116455 0.055877686 -0.35522461 0 0 0 0
-0.0362854 0.055877686 -0.35522461 0 0 0 0
-0.034454346 0.055877686 -0.35522461 0 0 0 0
-0.032592773 0.055877686 -0.35522461 0 0 0 0
-0.030853271 0.056030273 -0.35620117 0 0 0 0
-0.029006958 0.056030273 -0.35620117 0 0 0 0
-0.027175903 0.056030273 -0.35620117 0 0 0 0
-0.025390625 0.056213379 -0.35717773 0 0 0 0
-0.023544312 0.056213379 -0.35717773 0 0 0 0
-0.021697998 0.056213379 -0.35717773 0 0 0 0
-0.019836426 0.056213379 -0.35717773 0 0 0 0
-0.018035889 0.056365967 -0.35839844 0 0 0 0
-0.016189575 0.056365967 -0.35839844 0 0 0 0
-0.0070304871 0.057312012 -0.36425781 0 0 0 0
-0.0051574707 0.0574646 -0.36523438 0 0 0 0
-0.0032749176 0.057617188 -0.36621094 0 0 0 0
-0.0013780594 0.057617188 -0.36621094 0 0 0 0
0.00051927567 0.057617188 -0.36621094 0 0 0 0
0.0098342896 0.056671143 -0.36035156 0 0 0 0
0.011703491 0.056671143 -0.36035156 0 0 0 0
0.013534546 0.056518555 -0.359375 0 0 0 0
0.015396118 0.056518555 -0.359375 0 0 0 0
0.01725769 0.056518555 -0.359375 0 0 0 0
0.019119263 0.056518555 -0.359375 0 0 0 0
0.020965576 0.056518555 -0.359375 0 0 0 0
0.022766113 0.056365967 -0.35839844 0 0 0 0
0.024627686 0.056365967 -0.35839844 0 0 0 0
0.026489258 0.056365967 -0.35839844 0 0 0 0
0.028335571 0.056365967 -0.35839844 0 0 0 0
0.030197144 0.056365967 -0.35839844 0 0 0 0
0.032043457 0.056365967 -0.35839844 0 0 0 0
0.033905029 0.056365967 -0.35839844 0 0 0 0
0.035766602 0.056365967 -0.35839844 0 0 0 0
0.037597656 0.056365967 -0.35839844 0 0 0 0
0.039459229 0.056365967 -0.35839844 0 0 0 0
0.041320801 0.056365967 -0.35839844 0 0 0 0
0.043182373 0.056365967 -0.35839844 0 0 0 0
0.045043945 0.056365967 -0.35839844 0 0 0 0
0.046875 0.056365967 -0.35839844 0 0 0 0
0.048736572 0.056365967 -0.35839844 0 0 0 0
0.050598145 0.056365967 -0.35839844 0 0 0 0
0.052459717 0.056365967 -0.35839844 0 0 0 0
0.054321289 0.056365967 -0.35839844 0 0 0 0
0.055358887 0.047668457 -0.30297852 0 0 0 0
0.056945801 0.047668457 -0.30297852 0 0 0 0
0.058319092 0.047515869 -0.30200195 0 0 0 0
0.059875488 0.047515869 -0.30200195 0 0 0 0
0.061218262 0.047363281 -0.30102539 0 0 0 0
0.062561035 0.047210693 -0.30004883 0 0 0 0
0.063903809 0.047027588 -0.29907227 0 0 0 0
0.065246582 0.046875 -0.2980957 0 0 0 0
0.06652832 0.046722412 -0.29711914 0 0 0 0
0.067871094 0.046569824 -0.29614258 0 0 0 0
0.068908691 0.046264648 -0.29394531 0 0 0 0
0.07019043 0.046081543 -0.29296875 0 0 0 0
0.071472168 0.045928955 -0.29199219 0 0 0 0
0.072998047 0.045928955 -0.29199219 0 0 0 0
0.074279785 0.045776367 -0.29101562 0 0 0 0
0.075744629 0.045776367 -0.29101562 0 0 0 0
0.077270508 0.045776367 -0.29101562 0 0 0 0
0.098571777 0.056213379 -0.35717773 0 0 0 0
0.10040283 0.056213379 -0.35717773 0 0 0 0
0.10223389 0.056213379 -0.35717773 0 0 0 0
0.10412598 0.056213379 -0.35717773 0 0 0 0
0.10595703 0.056213379 -0.35717773 0 0 0 0
0.10778809 0.056213379 -0.35717773 0 0 0 0
0.10968018 0.056213379 -0.35717773 0 0 0 0
0.11151123 0.056213379 -0.35717773 0 0 0 0
0.11334229 0.056213379 -0.35717773 0 0 0 0
0.11523438 0.056213379 -0.35717773 0 0 0 0
0.11706543 0.056213379 -0.35717773 0 0 0 0
0.1192627 0.056365967 -0.35839844 0 0 0 0
0.12109375 0.056365967 -0.35839844 0 0 0 0
-0.069458008 0.05557251 -0.36523438 0 0 0 0
-0.067382812 0.055419922 -0.36425781 0 0 0 0
-0.065307617 0.055267334 -0.36328125 0 0 0 0
-0.063415527 0.055267334 -0.36328125 0 0 0 0
-0.061401367 0.055114746 -0.36230469 0 0 0 0
-0.059356689 0.054962158 -0.36132812 0 0 0 0
-0.057159424 0.054656982 -0.359375 0 0 0 0
-0.055145264 0.054504395 -0.35839844 0 0 0 0
-0.053131104 0.054351807 -0.35717773 0 0 0 0
-0.051147461 0.054199219 -0.35620117 0 0 0 0
-0.049316406 0.054199219 -0.35620117 0 0 0 0
-0.047332764 0.054046631 -0.35522461 0 0 0 0
-0.045501709 0.054046631 -0.35522461 0 0 0 0
-0.043640137 0.054046631 -0.35522461 0 0 0 0
-0.041687012 0.053894043 -0.35424805 0 0 0 0
-0.039855957 0.053894043 -0.35424805 0 0 0 0
-0.038024902 0.053894043 -0.35424805 0 0 0 0
-0.0362854 0.054046631 -0.35522461 0 0 0 0
-0.034454346 0.054046631 -0.35522461 0 0 0 0
-0.032592773 0.054046631 -0.35522461 0 0 0 0
-0.030853271 0.054199219 -0.35620117 0 0 0 0
-0.029006958 0.054199219 -0.35620117 0 0 0 0
-0.027252197 0.054351807 -0.35717773 0 0 0 0
-0.025390625 0.054351807 -0.35717773 0 0 0 0
-0.023544312 0.054351807 -0.35717773 0 0 0 0
-0.021697998 0.054351807 -0.35717773 0 0 0 0
-0.019836426 0.054351807 -0.35717773 0 0 0 0
-0.018035889 0.054504395 -0.35839844 0 0 0 0
0.0043869019 0.039367676 -0.25878906 0 0 0 0
0.0057296753 0.039367676 -0.25878906 0 0 0 0
0.0070724487 0.039367676 -0.25878906 0 0 0 0
0.0084075928 0.039367676 -0.25878906 0 0 0 0
0.0097503662 0.039367676 -0.25878906 0 0 0 0
0.015396118 0.054656982 -0.359375 0 0 0 0
0.01725769 0.054656982 -0.359375 0 0 0 0
0.019119263 0.054656982 -0.359375 0 0 0 0
0.0209198 0.054504395 -0.35839844 0 0 0 0
0.022766113 0.054504395 -0.35839844 0 0 0 0
0.024627686 0.054504395 -0.35839844 0 0 0 0
0.026489258 0.054504395 -0.35839844 0 0 0 0
0.028335571 0.054504395 -0.35839844 0 0 0 0
0.030197144 0.054504395 -0.35839844 0 0 0 0
0.032043457 0.054504395 -0.35839844 0 0 0 0
0.033905029 0.054504395 -0.35839844 0 0 0 0
0.035766602 0.054504395 -0.35839844 0 0 0 0
0.037597656 0.054504395 -0.35839844 0 0 0 0
0.039459229 0.054504395 -0.35839844 0 0 0 0
0.041320801 0.054504395 -0.35839844 0 0 0 0
0.043182373 0.054504395 -0.35839844 0 0 0 0
0.045043945 0.054504395 -0.35839844 0 0 0 0
0.046875 0.054504395 -0.35839844 0 0 0 0
0.048736572 0.054504395 -0.35839844 0 0 0 0
0.050598145 0.054504395 -0.35839844 0 0 0 0
0.052459717 0.054504395 -0.35839844 0 0 0 0
0.054321289 0.054504395 -0.35839844 0 0 0 0
0.056152344 0.054504395 -0.35839844 0 0 0 0
0.055358887 0.046112061 -0.30297852 0 0 0 0
0.056945801 0.046112061 -0.30297852 0 0 0 0
0.058319092 0.045959473 -0.30200195 0 0 0 0
0.059875488 0.045959473 -0.30200195 0 0 0 0
0.061218262 0.045806885 -0.30102539 0 0 0 0
0.062561035 0.045654297 -0.30004883 0 0 0 0
0.064147949 0.045654297 -0.30004883 0 0 0 0
0.065429688 0.045501709 -0.29907227 0 0 0 0
0.066772461 0.045349121 -0.2980957 0 0 0 0
0.068115234 0.045196533 -0.29711914 0 0 0 0
0.069396973 0.045043945 -0.29614258 0 0 0 0
0.07043457 0.04473877 -0.29394531 0 0 0 0
0.094848633 0.054351807 -0.35717773 0 0 0 0
0.096679688 0.054351807 -0.35717773 0 0 0 0
0.098571777 0.054351807 -0.35717773 0 0 0 0
0.10040283 0.054351807 -0.35717773 0 0 0 0
0.10223389 0.054351807 -0.35717773 0 0 0 0
0.10412598 0.054351807 -0.35717773 0 0 0 0
0.10595703 0.054351807 -0.35717773 0 0 0 0
0.10778809 0.054351807 -0.35717773 0 0 0 0
0.10968018 0.054351807 -0.35717773 0 0 0 0
0.11151123 0.054351807 -0.35717773 0 0 0 0
0.11334229 0.054351807 -0.35717773 0 0 0 0
0.11523438 0.054351807 -0.35717773 0 0 0 0
0.11737061 0.054504395 -0.35839844 0 0 0 0
0.1192627 0.054504395 -0.35839844 0 0 0 0
0.12109375 0.054504395 -0.35839844 0 0 0 0
-0.069458008 0.05368042 -0.36523438 0 0 0 0
-0.067382812 0.053527832 -0.36425781 0 0 0 0
-0.065490723 0.053527832 -0.36425781 0 0 0 0
-0.063415527 0.053375244 -0.36328125 0 0 0 0
-0.061401367 0.053222656 -0.36230469 0 0 0 0
-0.059356689 0.053100586 -0.36132812 0 0 0 0
-0.057159424 0.05279541 -0.359375 0 0 0 0
-0.055145264 0.052642822 -0.35839844 0 0 0 0
-0.053009033 0.052337646 -0.35620117 0 0 0 0
-0.051147461 0.052337646 -0.35620117 0 0 0 0
-0.049163818 0.052215576 -0.35522461 0 0 0 0
-0.047332764 0.052215576 -0.35522461 0 0 0 0
-0.045501709 0.052215576 -0.35522461 0 0 0 0
-0.043518066 0.052062988 -0.35424805 0 0 0 0
-0.041687012 0.052062988 -0.35424805 0 0 0 0
-0.039855957 0.052062988 -0.35424805 0 0 0 0
-0.038024902 0.052062988 -0.35424805 0 0 0 0
-0.027252197 0.052490234 -0.35717773 0 0 0 0
-0.025390625 0.052490234 -0.35717773 0 0 0 0
-0.023544312 0.052490234 -0.35717773 0 0 0 0
-0.021697998 0.052490234 -0.35717773 0 0 0 0
0.0043869019 0.03805542 -0.25878906 0 0 0 0
0.0057296753 0.03805542 -0.25878906 0 0 0 0
0.0070724487 0.03805542 -0.25878906 0 0 0 0
0.0084075928 0.03805542 -0.25878906 0 0 0 0
0.0097122192 0.037902832 -0.2578125 0 0 0 0
0.011047363 0.037902832 -0.2578125 0 0 0 0
0.012382507 0.037902832 -0.2578125 0 0 0 0
0.0209198 0.052642822 -0.35839844 0 0 0 0
0.022766113 0.052642822 -0.35839844 0 0 0 0
0.024627686 0.052642822 -0.35839844 0 0 0 0
0.026489258 0.052642822 -0.35839844 0 0 0 0
0.028335571 0.052642822 -0.35839844 0 0 0 0
0.030197144 0.052642822 -0.35839844 0 0 0 0
0.032043457 0.052642822 -0.35839844 0 0 0 0
0.033905029 0.052642822 -0.35839844 0 0 0 0
0.035766602 0.052642822 -0.35839844 0 0 0 0
0.037597656 0.052642822 -0.35839844 0 0 0 0
0.039459229 0.052642822 -0.35839844 0 0 0 0
0.041320801 0.052642822 -0.35839844 0 0 0 0
0.043182373 0.052642822 -0.35839844 0 0 0 0
0.045043945 0.052642822 -0.35839844 0 0 0 0
0.046875 0.052642822 -0.35839844 0 0 0 0
0.048736572 0.052642822 -0.35839844 0 0 0 0
0.050598145 0.052642822 -0.35839844 0 0 0 0
0.052459717 0.052642822 -0.35839844 0 0 0 0
0.054321289 0.052642822 -0.35839844 0 0 0 0
0.056152344 0.052642822 -0.35839844 0 0 0 0
0.056945801 0.044525146 -0.30297852 0 0 0 0
0.058502197 0.044525146 -0.30297852 0 0 0 0
0.059875488 0.044372559 -0.30200195 0 0 0 0
0.061431885 0.044372559 -0.30200195 0 0 0 0
0.062805176 0.044250488 -0.30102539 0 0 0 0
0.064147949 0.0440979 -0.30004883 0 0 0 0
0.065429688 0.043945312 -0.29907227 0 0 0 0
0.066772461 0.043792725 -0.2980957 0 0 0 0
0.068115234 0.043640137 -0.29711914 0 0 0 0
0.092773438 0.052337646 -0.35620117 0 0 0 0
0.094848633 0.052490234 -0.35717773 0 0 0 0
0.096679688 0.052490234 -0.35717773 0 0 0 0
0.098571777 0.052490234 -0.35717773 0 0 0 0
0.10040283 0.052490234 -0.35717773 0 0 0 0
0.10223389 0.052490234 -0.35717773 0 0 0 0
0.10412598 0.052490234 -0.35717773 0 0 0 0
0.10595703 0.052490234 -0.35717773 0 0 0 0
0.10778809 0.052490234 -0.35717773 0 0 0 0
0.10968018 0.052490234 -0.35717773 0 0 0 0
0.11151123 0.052490234 -0.35717773 0 0 0 0
0.11334229 0.052490234 -0.35717773 0 0 0 0
0.11553955 0.052642822 -0.35839844 0 0 0 0
0.11737061 0.052642822 -0.35839844 0 0 0 0
0.1192627 0.052642822 -0.35839844 0 0 0 0
-0.073059082 0.051635742 -0.36425781 0 0 0 0
-0.071166992 0.051635742 -0.36425781 0 0 0 0
-0.069458008 0.05178833 -0.36523438 0 0 0 0
-0.067382812 0.051635742 -0.36425781 0 0 0 0
-0.065490723 0.051635742 -0.36425781 0 0 0 0
-0.063415527 0.051513672 -0.36328125 0 0 0 0
-0.061401367 0.051361084 -0.36230469 0 0 0 0
-0.059356689 0.051208496 -0.36132812 0 0 0 0
-0.057159424 0.050933838 -0.359375 0 0 0 0
-0.054992676 0.05065918 -0.35717773 0 0 0 0
-0.053009033 0.050506592 -0.35620117 0 0 0 0
-0.050994873 0.050354004 -0.35522461 0 0 0 0
-0.049163818 0.050354004 -0.35522461 0 0 0 0
-0.047332764 0.050354004 -0.35522461 0 0 0 0
-0.045349121 0.050231934 -0.35424805 0 0 0 0
-0.043518066 0.050231934 -0.35424805 0 0 0 0
-0.041687012 0.050231934 -0.35424805 0 0 0 0
-0.039855957 0.050231934 -0.35424805 0 0 0 0
-0.038024902 0.050231934 -0.35424805 0 0 0 0
0.0043869019 0.036712646 -0.25878906 0 0 0 0
0.0057296753 0.036712646 -0.25878906 0 0 0 0
0.0070724487 0.036712646 -0.25878906 0 0 0 0
0.0083770752 0.036560059 -0.2578125 0 0 0 0
0.0097122192 0.036560059 -0.2578125 0 0 0 0
0.011047363 0.036560059 -0.2578125 0 0 0 0
0.012382507 0.036560059 -0.2578125 0 0 0 0
0.013725281 0.036560059 -0.2578125 0 0 0 0
0.022766113 0.05078125 -0.35839844 0 0 0 0
0.024627686 0.05078125 -0.35839844 0 0 0 0
0.026489258 0.05078125 -0.35839844 0 0 0 0
0.028335571 0.05078125 -0.35839844 0 0 0 0
0.030197144 0.05078125 -0.35839844 0 0 0 0
0.032043457 0.05078125 -0.35839844 0 0 0 0
0.033905029 0.05078125 -0.35839844 0 0 0 0
0.035766602 0.05078125 -0.35839844 0 0 0 0
0.037597656 0.05078125 -0.35839844 0 0 0 0
0.039459229 0.05078125 -0.35839844 0 0 0 0
0.041320801 0.05078125 -0.35839844 0 0 0 0
0.043182373 0.05078125 -0.35839844 0 0 0 0
0.045043945 0.05078125 -0.35839844 0 0 0 0
0.046875 0.05078125 -0.35839844 0 0 0 0
0.048736572 0.05078125 -0.35839844 0 0 0 0
0.050598145 0.05078125 -0.35839844 0 0 0 0
0.052459717 0.05078125 -0.35839844 0 0 0 0
0.054321289 0.05078125 -0.35839844 0 0 0 0
0.056152344 0.05078125 -0.35839844 0 0 0 0
0.057861328 0.05065918 -0.35717773 0 0 0 0
0.059875488 0.042816162 -0.30200195 0 0 0 0
0.061431885 0.042816162 -0.30200195 0 0 0 0
0.062805176 0.042663574 -0.30102539 0 0 0 0
0.064331055 0.042663574 -0.30102539 0 0 0 0
0.090881348 0.050506592 -0.35620117 0 0 0 0
0.092773438 0.050506592 -0.35620117 0 0 0 0
0.094604492 0.050506592 -0.35620117 0 0 0 0
0.096679688 0.05065918 -0.35717773 0 0 0 0
0.098571777 0.05065918 -0.35717773 0 0 0 0
0.10040283 0.05065918 -0.35717773 0 0 0 0
0.10223389 0.05065918 -0.35717773 0 0 0 0
0.10412598 0.05065918 -0.35717773 0 0 0 0
0.10595703 0.05065918 -0.35717773 0 0 0 0
0.10778809 0.05065918 -0.35717773 0 0 0 0
0.10968018 0.05065918 -0.35717773 0 0 0 0
0.11151123 0.05065918 -0.35717773 0 0 0 0
0.11334229 0.05065918 -0.35717773 0 0 0 0
0.11553955 0.05078125 -0.35839844 0 0 0 0
0.11737061 0.05078125 -0.35839844 0 0 0 0
0.1192627 0.05078125 -0.35839844 0 0 0 0
-0.074707031 0.049621582 -0.36328125 0 0 0 0
-0.073059082 0.049743652 -0.36425781 0 0 0 0
-0.071166992 0.049743652 -0.36425781 0 0 0 0
-0.069274902 0.049743652 -0.36425781 0 0 0 0
-0.067382812 0.049743652 -0.36425781 0 0 0 0
-0.065307617 0.049621582 -0.36328125 0 0 0 0
-0.063415527 0.049621582 -0.36328125 0 0 0 0
-0.061401367 0.049468994 -0.36230469 0 0 0 0
-0.059509277 0.049468994 -0.36230469 0 0 0 0
-0.057159424 0.049072266 -0.359375 0 0 0 0
-0.054840088 0.04864502 -0.35620117 0 0 0 0
-0.052856445 0.048522949 -0.35522461 0 0 0 0
-0.050994873 0.048522949 -0.35522461 0 0 0 0
-0.049163818 0.048522949 -0.35522461 0 0 0 0
-0.047332764 0.048522949 -0.35522461 0 0 0 0
-0.045349121 0.048370361 -0.35424805 0 0 0 0
-0.043518066 0.048370361 -0.35424805 0 0 0 0
-0.041687012 0.048370361 -0.35424805 0 0 0 0
-0.039855957 0.048370361 -0.35424805 0 0 0 0
0.00034284592 0.03302002 -0.24194336 0 0 0 0
0.0015954971 0.03302002 -0.24194336 0 0 0 0
0.0028591156 0.033172607 -0.24291992 0 0 0 0
0.0041160583 0.033172607 -0.24291992 0 0 0 0
0.0070724487 0.035369873 -0.25878906 0 0 0 0
0.0083770752 0.035217285 -0.2578125 0 0 0 0
0.0097122192 0.035217285 -0.2578125 0 0 0 0
0.011047363 0.035217285 -0.2578125 0 0 0 0
0.012382507 0.035217285 -0.2578125 0 0 0 0
0.013725281 0.035217285 -0.2578125 0 0 0 0
0.015060425 0.035217285 -0.2578125 0 0 0 0
0.024627686 0.048919678 -0.35839844 0 0 0 0
0.026489258 0.048919678 -0.35839844 0 0 0 0
0.028335571 0.048919678 -0.35839844 0 0 0 0
0.030197144 0.048919678 -0.35839844 0 0 0 0
0.032043457 0.048919678 -0.35839844 0 0 0 0
0.033905029 0.048919678 -0.35839844 0 0 0 0
0.035766602 0.048919678 -0.35839844 0 0 0 0
0.037597656 0.048919678 -0.35839844 0 0 0 0
0.039459229 0.048919678 -0.35839844 0 0 0 0
0.041320801 0.048919678 -0.35839844 0 0 0 0
0.043182373 0.048919678 -0.35839844 0 0 0 0
0.045043945 0.048919678 -0.35839844 0 0 0 0
0.046875 0.048919678 -0.35839844 0 0 0 0
0.048736572 0.048919678 -0.35839844 0 0 0 0
0.050598145 0.048919678 -0.35839844 0 0 0 0
0.052459717 0.048919678 -0.35839844 0 0 0 0
0.054321289 0.048919678 -0.35839844 0 0 0 0
0.056152344 0.048919678 -0.35839844 0 0 0 0
0.057861328 0.048797607 -0.35717773 0 0 0 0
0.0597229 0.048797607 -0.35717773 0 0 0 0
0.061553955 0.048797607 -0.35717773 0 0 0 0
0.063232422 0.04864502 -0.35620117 0 0 0 0
0.065063477 0.04864502 -0.35620117 0 0 0 0
0.066894531 0.04864502 -0.35620117 0 0 0 0
0.068725586 0.04864502 -0.35620117 0 0 0 0
0.070617676 0.04864502 -0.35620117 0 0 0 0
0.07244873 0.04864502 -0.35620117 0 0 0 0
0.074279785 0.04864502 -0.35620117 0 0 0 0
0.07611084 0.04864502 -0.35620117 0 0 0 0
0.077758789 0.048522949 -0.35522461 0 0 0 0
0.079589844 0.048522949 -0.35522461 0 0 0 0
0.081420898 0.048522949 -0.35522461 0 0 0 0
0.083312988 0.048522949 -0.35522461 0 0 0 0
0.085144043 0.048522949 -0.35522461 0 0 0 0
0.086975098 0.048522949 -0.35522461 0 0 0 0
0.088806152 0.048522949 -0.35522461 0 0 0 0
0.090881348 0.04864502 -0.35620117 0 0 0 0
0.092773438 0.04864502 -0.35620117 0 0 0 0
0.094604492 0.04864502 -0.35620117 0 0 0 0
0.096679688 0.048797607 -0.35717773 0 0 0 0
0.098571777 0.048797607 -0.35717773 0 0 0 0
0.10040283 0.048797607 -0.35717773 0 0 0 0
0.10223389 0.048797607 -0.35717773 0 0 0 0
0.10412598 0.048797607 -0.35717773 0 0 0 0
0.10595703 0.048797607 -0.35717773 0 0 0 0
0.10778809 0.048797607 -0.35717773 0 0 0 0
0.10968018 0.048797607 -0.35717773 0 0 0 0
0.11151123 0.048797607 -0.35717773 0 0 0 0
0.1137085 0.048919678 -0.35839844 0 0 0 0
0.11553955 0.048919678 -0.35839844 0 0 0 0
0.11737061 0.048919678 -0.35839844 0 0 0 0
-0.076599121 0.047729492 -0.36328125 0 0 0 0
-0.074707031 0.047729492 -0.36328125 0 0 0 0
-0.072814941 0.047729492 -0.36328125 0 0 0 0
-0.070983887 0.047729492 -0.36328125 0 0 0 0
-0.069091797 0.047729492 -0.36328125 0 0 0 0
-0.067199707 0.047729492 -0.36328125 0 0 0 0
-0.065307617 0.047729492 -0.36328125 0 0 0 0
-0.063232422 0.047607422 -0.36230469 0 0 0 0
-0.061401367 0.047607422 -0.36230469 0 0 0 0
-0.059356689 0.047485352 -0.36132812 0 0 0 0
-0.052856445 0.046691895 -0.35522461 0 0 0 0
-0.050994873 0.046691895 -0.35522461 0 0 0 0
-0.049163818 0.046691895 -0.35522461 0 0 0 0
-0.047180176 0.046539307 -0.35424805 0 0 0 0
-0.045349121 0.046539307 -0.35424805 0 0 0 0
-0.043640137 0.046691895 -0.35522461 0 0 0 0
-0.041809082 0.046691895 -0.35522461 0 0 0 0
-0.039855957 0.046539307 -0.35424805 0 0 0 0
-0.002161026 0.031768799 -0.24194336 0 0 0 0
-0.0009098053 0.031768799 -0.24194336 0 0 0 0
0.00034284592 0.031768799 -0.24194336 0 0 0 0
0.0015954971 0.031768799 -0.24194336 0 0 0 0
0.0028476715 0.031768799 -0.24194336 0 0 0 0
0.0041007996 0.031768799 -0.24194336 0 0 0 0
0.0053520203 0.031768799 -0.24194336 0 0 0 0
0.0097122192 0.033874512 -0.2578125 0 0 0 0
0.011047363 0.033874512 -0.2578125 0 0 0 0
0.012382507 0.033874512 -0.2578125 0 0 0 0
0.013725281 0.033874512 -0.2578125 0 0 0 0
0.015060425 0.033874512 -0.2578125 0 0 0 0
0.016387939 0.033874512 -0.2578125 0 0 0 0
0.024627686 0.047088623 -0.35839844 0 0 0 0
0.026489258 0.047088623 -0.35839844 0 0 0 0
0.028335571 0.047088623 -0.35839844 0 0 0 0
0.030197144 0.047088623 -0.35839844 0 0 0 0
0.032043457 0.047088623 -0.35839844 0 0 0 0
0.033905029 0.047088623 -0.35839844 0 0 0 0
0.035766602 0.047088623 -0.35839844 0 0 0 0
0.037597656 0.047088623 -0.35839844 0 0 0 0
0.039459229 0.047088623 -0.35839844 0 0 0 0
0.041320801 0.047088623 -0.35839844 0 0 0 0
0.043182373 0.047088623 -0.35839844 0 0 0 0
0.045043945 0.047088623 -0.35839844 0 0 0 0
0.046875 0.047088623 -0.35839844 0 0 0 0
0.048736572 0.047088623 -0.35839844 0 0 0 0
0.050598145 0.047088623 -0.35839844 0 0 0 0
0.052459717 0.047088623 -0.35839844 0 0 0 0
0.054321289 0.047088623 -0.35839844 0 0 0 0
0.055999756 0.046936035 -0.35717773 0 0 0 0
0.057861328 0.046936035 -0.35717773 0 0 0 0
0.0597229 0.046936035 -0.35717773 0 0 0 0
0.061553955 0.046936035 -0.35717773 0 0 0 0
0.063415527 0.046936035 -0.35717773 0 0 0 0
0.065063477 0.046813965 -0.35620117 0 0 0 0
0.066894531 0.046813965 -0.35620117 0 0 0 0
0.068725586 0.046813965 -0.35620117 0 0 0 0
0.070617676 0.046813965 -0.35620117 0 0 0 0
0.07244873 0.046813965 -0.35620117 0 0 0 0
0.074279785 0.046813965 -0.35620117 0 0 0 0
0.07611084 0.046813965 -0.35620117 0 0 0 0
0.07800293 0.046813965 -0.35620117 0 0 0 0
0.079589844 0.046691895 -0.35522461 0 0 0 0
0.081420898 0.046691895 -0.35522461 0 0 0 0
0.083312988 0.046691895 -0.35522461 0 0 0 0
0.085144043 0.046691895 -0.35522461 0 0 0 0
0.086975098 0.046691895 -0.35522461 0 0 0 0
0.088806152 0.046691895 -0.35522461 0 0 0 0
0.090881348 0.046813965 -0.35620117 0 0 0 0
0.092773438 0.046813965 -0.35620117 0 0 0 0
0.094604492 0.046813965 -0.35620117 0 0 0 0
0.096435547 0.046813965 -0.35620117 0 0 0 0
0.098571777 0.046936035 -0.35717773 0 0 0 0
0.10040283 0.046936035 -0.35717773 0 0 0 0
0.10223389 0.046936035 -0.35717773 0 0 0 0
0.10412598 0.046936035 -0.35717773 0 0 0 0
0.10595703 0.046936035 -0.35717773 0 0 0 0
0.10778809 0.046936035 -0.35717773 0 0 0 0
0.10968018 0.046936035 -0.35717773 0 0 0 0
0.11151123 0.046936035 -0.35717773 0 0 0 0
0.1137085 0.047088623 -0.35839844 0 0 0 0
-0.07824707 0.045715332 -0.36230469 0 0 0 0
-0.076416016 0.045715332 -0.36230469 0 0 0 0
-0.074523926 0.045715332 -0.36230469 0 0 0 0
-0.072814941 0.04586792 -0.36328125 0 0 0 0
-0.070983887 0.04586792 -0.36328125 0 0 0 0
-0.069091797 0.04586792 -0.36328125 0 0 0 0
-0.067016602 0.045715332 -0.36230469 0 0 0 0
-0.065124512 0.045715332 -0.36230469 0 0 0 0
-0.063232422 0.045715332 -0.36230469 0 0 0 0
-0.061218262 0.045593262 -0.36132812 0 0 0 0
-0.059020996 0.045349121 -0.359375 0 0 0 0
-0.05670166 0.04498291 -0.35620117 0 0 0 0
-0.0546875 0.044830322 -0.35522461 0 0 0 0
-0.052856445 0.044830322 -0.35522461 0 0 0 0
-0.050994873 0.044830322 -0.35522461 0 0 0 0
-0.049041748 0.044708252 -0.35424805 0 0 0 0
-0.047180176 0.044708252 -0.35424805 0 0 0 0
-0.045501709 0.044830322 -0.35522461 0 0 0 0
-0.043640137 0.044830322 -0.35522461 0 0 0 0
-0.041809082 0.044830322 -0.35522461 0 0 0 0
-0.039978027 0.044830322 -0.35522461 0 0 0 0
-0.0046653748 0.030532837 -0.24194336 0 0 0 0
-0.0034141541 0.030532837 -0.24194336 0 0 0 0
-0.002161026 0.030532837 -0.24194336 0 0 0 0
-0.0009098053 0.030532837 -0.24194336 0 0 0 0
0.00034284592 0.030532837 -0.24194336 0 0 0 0
0.0015954971 0.030532837 -0.24194336 0 0 0 0
0.0028476715 0.030532837 -0.24194336 0 0 0 0
0.0041007996 0.030532837 -0.24194336 0 0 0 0
0.0053520203 0.030532837 -0.24194336 0 0 0 0
0.006603241 0.030532837 -0.24194336 0 0 0 0
0.0078582764 0.030532837 -0.24194336 0 0 0 0
0.011047363 0.032562256 -0.2578125 0 0 0 0
0.012382507 0.032562256 -0.2578125 0 0 0 0
0.013725281 0.032562256 -0.2578125 0 0 0 0
0.015060425 0.032562256 -0.2578125 0 0 0 0
0.016387939 0.032562256 -0.2578125 0 0 0 0
0.026489258 0.045227051 -0.35839844 0 0 0 0
0.028335571 0.045227051 -0.35839844 0 0 0 0
0.030197144 0.045227051 -0.35839844 0 0 0 0
0.031951904 0.04510498 -0.35717773 0 0 0 0
0.033905029 0.045227051 -0.35839844 0 0 0 0
0.035766602 0.045227051 -0.35839844 0 0 0 0
0.037597656 0.045227051 -0.35839844 0 0 0 0
0.039459229 0.045227051 -0.35839844 0 0 0 0
0.041320801 0.045227051 -0.35839844 0 0 0 0
0.043182373 0.045227051 -0.35839844 0 0 0 0
0.045043945 0.045227051 -0.35839844 0 0 0 0
0.046875 0.045227051 -0.35839844 0 0 0 0
0.048736572 0.045227051 -0.35839844 0 0 0 0
0.050598145 0.045227051 -0.35839844 0 0 0 0
0.052459717 0.045227051 -0.35839844 0 0 0 0
0.054321289 0.045227051 -0.35839844 0 0 0 0
0.055999756 0.04510498 -0.35717773 0 0 0 0
0.057861328 0.04510498 -0.35717773 0 0 0 0
0.0597229 0.04510498 -0.35717773 0 0 0 0
0.061553955 0.04510498 -0.35717773 0 0 0 0
0.063415527 0.04510498 -0.35717773 0 0 0 0
0.065246582 0.04510498 -0.35717773 0 0 0 0
0.067077637 0.04510498 -0.35717773 0 0 0 0
0.068969727 0.04510498 -0.35717773 0 0 0 0
0.070800781 0.04510498 -0.35717773 0 0 0 0
0.07244873 0.04498291 -0.35620117 0 0 0 0
0.074279785 0.04498291 -0.35620117 0 0 0 0
0.07611084 0.04498291 -0.35620117 0 0 0 0
0.07800293 0.04498291 -0.35620117 0 0 0 0
0.079833984 0.04498291 -0.35620117 0 0 0 0
0.081420898 0.044830322 -0.35522461 0 0 0 0
0.083312988 0.044830322 -0.35522461 0 0 0 0
0.085144043 0.044830322 -0.35522461 0 0 0 0
0.086975098 0.044830322 -0.35522461 0 0 0 0
0.089050293 0.04498291 -0.35620117 0 0 0 0
0.090881348 0.04498291 -0.35620117 0 0 0 0
0.092773438 0.04498291 -0.35620117 0 0 0 0
0.094604492 0.04498291 -0.35620117 0 0 0 0
0.096435547 0.04498291 -0.35620117 0 0 0 0
0.098571777 0.04510498 -0.35717773 0 0 0 0
0.10040283 0.04510498 -0.35717773 0 0 0 0
0.10223389 0.04510498 -0.35717773 0 0 0 0
0.10412598 0.04510498 -0.35717773 0 0 0 0
0.10595703 0.04510498 -0.35717773 0 0 0 0
0.10778809 0.04510498 -0.35717773 0 0 0 0
0.10968018 0.04510498 -0.35717773 0 0 0 0
0.11151123 0.04510498 -0.35717773 0 0 0 0
-0.080383301 0.04397583 -0.36328125 0 0 0 0
-0.07824707 0.04385376 -0.36230469 0 0 0 0
-0.076416016 0.04385376 -0.36230469 0 0 0 0
-0.074523926 0.04385376 -0.36230469 0 0 0 0
-0.072631836 0.04385376 -0.36230469 0 0 0 0
-0.070739746 0.04385376 -0.36230469 0 0 0 0
-0.068908691 0.04385376 -0.36230469 0 0 0 0
-0.067016602 0.04385376 -0.36230469 0 0 0 0
-0.065124512 0.04385376 -0.36230469 0 0 0 0
-0.063110352 0.043731689 -0.36132812 0 0 0 0
-0.061065674 0.043609619 -0.36035156 0 0 0 0
-0.059204102 0.043609619 -0.36035156 0 0 0 0
-0.05670166 0.043121338 -0.35620117 0 0 0 0
-0.0546875 0.042999268 -0.35522461 0 0 0 0
-0.052856445 0.042999268 -0.35522461 0 0 0 0
-0.050872803 0.042877197 -0.35424805 0 0 0 0
-0.049041748 0.042877197 -0.35424805 0 0 0 0
-0.047180176 0.042877197 -0.35424805 0 0 0 0
-0.045501709 0.042999268 -0.35522461 0 0 0 0
-0.043640137 0.042999268 -0.35522461 0 0 0 0
-0.041809082 0.042999268 -0.35522461 0 0 0 0
-0.0059204102 0.029281616 -0.24194336 0 0 0 0
-0.0046653748 0.029281616 -0.24194336 0 0 0 0
-0.0034141541 0.029281616 -0.24194336 0 0 0 0
-0.0021533966 0.029159546 -0.24084473 0 0 0 0
-0.0009059906 0.029159546 -0.24084473 0 0 0 0
0.00034141541 0.029159546 -0.24084473 0 0 0 0
0.0015888214 0.029159546 -0.24084473 0 0 0 0
0.0028362274 0.029159546 -0.24084473 0 0 0 0
0.0040817261 0.029159546 -0.24084473 0 0 0 0
0.0053291321 0.029159546 -0.24084473 0 0 0 0
0.006603241 0.029281616 -0.24194336 0 0 0 0
0.0078201294 0.029159546 -0.24084473 0 0 0 0
0.013725281 0.031219482 -0.2578125 0 0 0 0
0.015060425 0.031219482 -0.2578125 0 0 0 0
0.016387939 0.031219482 -0.2578125 0 0 0 0
0.017730713 0.031219482 -0.2578125 0 0 0 0
0.026489258 0.043365479 -0.35839844 0 0 0 0
0.028259277 0.043243408 -0.35717773 0 0 0 0
0.030105591 0.043243408 -0.35717773 0 0 0 0
0.031951904 0.043243408 -0.35717773 0 0 0 0
0.033813477 0.043243408 -0.35717773 0 0 0 0
0.035644531 0.043243408 -0.35717773 0 0 0 0
0.037506104 0.043243408 -0.35717773 0 0 0 0
0.039459229 0.043365479 -0.35839844 0 0 0 0
0.041320801 0.043365479 -0.35839844 0 0 0 0
0.043182373 0.043365479 -0.35839844 0 0 0 0
0.045043945 0.043365479 -0.35839844 0 0 0 0
0.046875 0.043365479 -0.35839844 0 0 0 0
0.048736572 0.043365479 -0.35839844 0 0 0 0
0.050598145 0.043365479 -0.35839844 0 0 0 0
0.052459717 0.043365479 -0.35839844 0 0 0 0
0.054321289 0.043365479 -0.35839844 0 0 0 0
0.055999756 0.043243408 -0.35717773 0 0 0 0
0.057861328 0.043243408 -0.35717773 0 0 0 0
0.0597229 0.043243408 -0.35717773 0 0 0 0
0.061553955 0.043243408 -0.35717773 0 0 0 0
0.063415527 0.043243408 -0.35717773 0 0 0 0
0.065246582 0.043243408 -0.35717773 0 0 0 0
0.067077637 0.043243408 -0.35717773 0 0 0 0
0.068969727 0.043243408 -0.35717773 0 0 0 0
0.070800781 0.043243408 -0.35717773 0 0 0 0
0.072631836 0.043243408 -0.35717773 0 0 0 0
0.074279785 0.043121338 -0.35620117 0 0 0 0
0.07611084 0.043121338 -0.35620117 0 0 0 0
0.07800293 0.043121338 -0.35620117 0 0 0 0
0.079833984 0.043121338 -0.35620117 0 0 0 0
0.081665039 0.043121338 -0.35620117 0 0 0 0
0.083496094 0.043121338 -0.35620117 0 0 0 0
0.085388184 0.043121338 -0.35620117 0 0 0 0
0.087219238 0.043121338 -0.35620117 0 0 0 0
0.089050293 0.043121338 -0.35620117 0 0 0 0
0.090881348 0.043121338 -0.35620117 0 0 0 0
0.092773438 0.043121338 -0.35620117 0 0 0 0
0.094604492 0.043121338 -0.35620117 0 0 0 0
0.096679688 0.043243408 -0.35717773 0 0 0 0
0.098571777 0.043243408 -0.35717773 0 0 0 0
0.10040283 0.043243408 -0.35717773 0 0 0 0
0.10223389 0.043243408 -0.35717773 0 0 0 0
0.10412598 0.043243408 -0.35717773 0 0 0 0
0.10595703 0.043243408 -0.35717773 0 0 0 0
0.10778809 0.043243408 -0.35717773 0 0 0 0
0.10968018 0.043243408 -0.35717773 0 0 0 0
-0.08013916 0.04196167 -0.36230469 0 0 0 0
-0.07824707 0.04196167 -0.36230469 0 0 0 0
-0.076416016 0.04196167 -0.36230469 0 0 0 0
-0.074523926 0.04196167 -0.36230469 0 0 0 0
-0.072631836 0.04196167 -0.36230469 0 0 0 0
-0.070739746 0.04196167 -0.36230469 0 0 0 0
-0.068908691 0.04196167 -0.36230469 0 0 0 0
-0.067016602 0.04196167 -0.36230469 0 0 0 0
-0.064941406 0.041870117 -0.36132812 0 0 0 0
-0.063110352 0.041870117 -0.36132812 0 0 0 0
-0.06072998 0.041503906 -0.35839844 0 0 0 0
-0.058685303 0.041381836 -0.35717773 0 0 0 0
-0.056518555 0.041168213 -0.35522461 0 0 0 0
-0.0546875 0.041168213 -0.35522461 0 0 0 0
-0.052703857 0.041046143 -0.35424805 0 0 0 0
-0.050872803 0.041046143 -0.35424805 0 0 0 0
-0.0071716309 0.028030396 -0.24194336 0 0 0 0
-0.0059204102 0.028030396 -0.24194336 0 0 0 0
-0.0046653748 0.028030396 -0.24194336 0 0 0 0
-0.0034008026 0.027908325 -0.24084473 0 0 0 0
-0.0021533966 0.027908325 -0.24084473 0 0 0 0
-0.0009059906 0.027908325 -0.24084473 0 0 0 0
0.00034141541 0.027908325 -0.24084473 0 0 0 0
0.0015888214 0.027908325 -0.24084473 0 0 0 0
0.0028362274 0.027908325 -0.24084473 0 0 0 0
0.0040817261 0.027908325 -0.24084473 0 0 0 0
0.0053291321 0.027908325 -0.24084473 0 0 0 0
0.0065765381 0.027908325 -0.24084473 0 0 0 0
0.0078201294 0.027908325 -0.24084473 0 0 0 0
0.0090713501 0.027908325 -0.24084473 0 0 0 0
0.010314941 0.027908325 -0.24084473 0 0 0 0
0.015060425 0.029891968 -0.2578125 0 0 0 0
0.016387939 0.029891968 -0.2578125 0 0 0 0
0.017730713 0.029891968 -0.2578125 0 0 0 0
0.028259277 0.041381836 -0.35717773 0 0 0 0
0.030105591 0.041381836 -0.35717773 0 0 0 0
0.031951904 0.041381836 -0.35717773 0 0 0 0
0.033813477 0.041381836 -0.35717773 0 0 0 0
0.035644531 0.041381836 -0.35717773 0 0 0 0
0.037506104 0.041381836 -0.35717773 0 0 0 0
0.039367676 0.041381836 -0.35717773 0 0 0 0
0.041320801 0.041503906 -0.35839844 0 0 0 0
0.043182373 0.041503906 -0.35839844 0 0 0 0
0.045043945 0.041503906 -0.35839844 0 0 0 0
0.046875 0.041503906 -0.35839844 0 0 0 0
0.048736572 0.041503906 -0.35839844 0 0 0 0
0.050598145 0.041503906 -0.35839844 0 0 0 0
0.052459717 0.041503906 -0.35839844 0 0 0 0
0.054168701 0.041381836 -0.35717773 0 0 0 0
0.055999756 0.041381836 -0.35717773 0 0 0 0
0.057861328 0.041381836 -0.35717773 0 0 0 0
0.0597229 0.041381836 -0.35717773 0 0 0 0
0.061553955 0.041381836 -0.35717773 0 0 0 0
0.063415527 0.041381836 -0.35717773 0 0 0 0
0.065246582 0.041381836 -0.35717773 0 0 0 0
0.067077637 0.041381836 -0.35717773 0 0 0 0
0.068969727 0.041381836 -0.35717773 0 0 0 0
0.070800781 0.041381836 -0.35717773 0 0 0 0
0.072631836 0.041381836 -0.35717773 0 0 0 0
0.074523926 0.041381836 -0.35717773 0 0 0 0
0.07611084 0.041290283 -0.35620117 0 0 0 0
0.07800293 0.041290283 -0.35620117 0 0 0 0
0.079833984 0.041290283 -0.35620117 0 0 0 0
0.081665039 0.041290283 -0.35620117 0 0 0 0
0.083496094 0.041290283 -0.35620117 0 0 0 0
0.085388184 0.041290283 -0.35620117 0 0 0 0
0.087219238 0.041290283 -0.35620117 0 0 0 0
0.089050293 0.041290283 -0.35620117 0 0 0 0
0.090881348 0.041290283 -0.35620117 0 0 0 0
0.092773438 0.041290283 -0.35620117 0 0 0 0
0.094604492 0.041290283 -0.35620117 0 0 0 0
0.096679688 0.041381836 -0.35717773 0 0 0 0
0.098571777 0.041381836 -0.35717773 0 0 0 0
0.10040283 0.041381836 -0.35717773 0 0 0 0
0.10223389 0.041381836 -0.35717773 0 0 0 0
0.10412598 0.041381836 -0.35717773 0 0 0 0
0.10595703 0.041381836 -0.35717773 0 0 0 0
0.10778809 0.041381836 -0.35717773 0 0 0 0
-0.08392334 0.040100098 -0.36230469 0 0 0 0
-0.081787109 0.039978027 -0.36132812 0 0 0 0
-0.079956055 0.039978027 -0.36132812 0 0 0 0
-0.078063965 0.039978027 -0.36132812 0 0 0 0
-0.076171875 0.039978027 -0.36132812 0 0 0 0
-0.07434082 0.039978027 -0.36132812 0 0 0 0
-0.07244873 0.039978027 -0.36132812 0 0 0 0
-0.070556641 0.039978027 -0.36132812 0 0 0 0
-0.068725586 0.039978027 -0.36132812 0 0 0 0
-0.066833496 0.039978027 -0.36132812 0 0 0 0
-0.064941406 0.039978027 -0.36132812 0 0 0 0
-0.062927246 0.039886475 -0.36035156 0 0 0 0
-0.060546875 0.039550781 -0.35717773 0 0 0 0
-0.058532715 0.039428711 -0.35620117 0 0 0 0
-0.056518555 0.039306641 -0.35522461 0 0 0 0
-0.0546875 0.039306641 -0.35522461 0 0 0 0
-0.052856445 0.039306641 -0.35522461 0 0 0 0
-0.050872803 0.039215088 -0.35424805 0 0 0 0
-0.011016846 0.026992798 -0.24389648 0 0 0 0
-0.0097579956 0.026992798 -0.24389648 0 0 0 0
-0.0084609985 0.026885986 -0.24291992 0 0 0 0
-0.0071716309 0.026779175 -0.24194336 0 0 0 0
-0.0059204102 0.026779175 -0.24194336 0 0 0 0
-0.0046653748 0.026779175 -0.24194336 0 0 0 0
-0.0034008026 0.026657104 -0.24084473 0 0 0 0
-0.0021533966 0.026657104 -0.24084473 0 0 0 0
-0.0009059906 0.026657104 -0.24084473 0 0 0 0
0.00034141541 0.026657104 -0.24084473 0 0 0 0
0.0015888214 0.026657104 -0.24084473 0 0 0 0
0.0028362274 0.026657104 -0.24084473 0 0 0 0
0.0040817261 0.026657104 -0.24084473 0 0 0 0
0.0053291321 0.026657104 -0.24084473 0 0 0 0
0.0065765381 0.026657104 -0.24084473 0 0 0 0
0.0078201294 0.026657104 -0.24084473 0 0 0 0
0.0090713501 0.026657104 -0.24084473 0 0 0 0
0.010360718 0.026779175 -0.24194336 0 0 0 0
0.011611938 0.026779175 -0.24194336 0 0 0 0
0.015060425 0.028549194 -0.2578125 0 0 0 0
0.016387939 0.028549194 -0.2578125 0 0 0 0
0.017730713 0.028549194 -0.2578125 0 0 0 0
0.030105591 0.039550781 -0.35717773 0 0 0 0
0.031951904 0.039550781 -0.35717773 0 0 0 0
0.033813477 0.039550781 -0.35717773 0 0 0 0
0.035644531 0.039550781 -0.35717773 0 0 0 0
0.037506104 0.039550781 -0.35717773 0 0 0 0
0.039367676 0.039550781 -0.35717773 0 0 0 0
0.04119873 0.039550781 -0.35717773 0 0 0 0
0.043060303 0.039550781 -0.35717773 0 0 0 0
0.044891357 0.039550781 -0.35717773 0 0 0 0
0.04675293 0.039550781 -0.35717773 0 0 0 0
0.048736572 0.039642334 -0.35839844 0 0 0 0
0.050598145 0.039642334 -0.35839844 0 0 0 0
0.052307129 0.039550781 -0.35717773 0 0 0 0
0.054168701 0.039550781 -0.35717773 0 0 0 0
0.055999756 0.039550781 -0.35717773 0 0 0 0
0.057861328 0.039550781 -0.35717773 0 0 0 0
0.0597229 0.039550781 -0.35717773 0 0 0 0
0.061553955 0.039550781 -0.35717773 0 0 0 0
0.063415527 0.039550781 -0.35717773 0 0 0 0
0.065246582 0.039550781 -0.35717773 0 0 0 0
0.067077637 0.039550781 -0.35717773 0 0 0 0
0.068969727 0.039550781 -0.35717773 0 0 0 0
0.070800781 0.039550781 -0.35717773 0 0 0 0
0.072631836 0.039550781 -0.35717773 0 0 0 0
0.074523926 0.039550781 -0.35717773 0 0 0 0
0.07635498 0.039550781 -0.35717773 0 0 0 0
0.07800293 0.039428711 -0.35620117 0 0 0 0
0.079833984 0.039428711 -0.35620117 0 0 0 0
0.081665039 0.039428711 -0.35620117 0 0 0 0
0.083496094 0.039428711 -0.35620117 0 0 0 0
0.085388184 0.039428711 -0.35620117 0 0 0 0
0.087219238 0.039428711 -0.35620117 0 0 0 0
0.089050293 0.039428711 -0.35620117 0 0 0 0
0.090881348 0.039428711 -0.35620117 0 0 0 0
0.092773438 0.039428711 -0.35620117 0 0 0 0
0.094848633 0.039550781 -0.35717773 0 0 0 0
0.096679688 0.039550781 -0.35717773 0 0 0 0
0.098571777 0.039550781 -0.35717773 0 0 0 0
0.10040283 0.039550781 -0.35717773 0 0 0 0
0.10223389 0.039550781 -0.35717773 0 0 0 0
0.10412598 0.039550781 -0.35717773 0 0 0 0
0.10595703 0.039550781 -0.35717773 0 0 0 0
-0.083679199 0.038116455 -0.36132812 0 0 0 0
-0.081787109 0.038116455 -0.36132812 0 0 0 0
-0.079956055 0.038116455 -0.36132812 0 0 0 0
-0.078063965 0.038116455 -0.36132812 0 0 0 0
-0.076171875 0.038116455 -0.36132812 0 0 0 0
-0.07434082 0.038116455 -0.36132812 0 0 0 0
-0.07244873 0.038116455 -0.36132812 0 0 0 0
-0.070556641 0.038116455 -0.36132812 0 0 0 0
-0.068725586 0.038116455 -0.36132812 0 0 0 0
-0.066833496 0.038116455 -0.36132812 0 0 0 0
-0.065124512 0.038208008 -0.36230469 0 0 0 0
-0.062561035 0.037811279 -0.35839844 0 0 0 0
-0.060546875 0.037689209 -0.35717773 0 0 0 0
-0.058532715 0.037597656 -0.35620117 0 0 0 0
-0.056518555 0.037475586 -0.35522461 0 0 0 0
-0.0546875 0.037475586 -0.35522461 0 0 0 0
-0.012336731 0.02583313 -0.24487305 0 0 0 0
-0.011016846 0.025726318 -0.24389648 0 0 0 0
-0.0097579956 0.025726318 -0.24389648 0 0 0 0
-0.0084609985 0.025619507 -0.24291992 0 0 0 0
-0.0071716309 0.025512695 -0.24194336 0 0 0 0
-0.0059204102 0.025512695 -0.24194336 0 0 0 0
-0.0046653748 0.025512695 -0.24194336 0 0 0 0
-0.0034008026 0.025405884 -0.24084473 0 0 0 0
-0.0021533966 0.025405884 -0.24084473 0 0 0 0
-0.0009059906 0.025405884 -0.24084473 0 0 0 0
0.00033998489 0.025314331 -0.23986816 0 0 0 0
0.0015821457 0.025314331 -0.23986816 0 0 0 0
0.0028247833 0.025314331 -0.23986816 0 0 0 0
0.0040664673 0.025314331 -0.23986816 0 0 0 0
0.0053062439 0.025314331 -0.23986816 0 0 0 0
0.0065765381 0.025405884 -0.24084473 0 0 0 0
0.0078201294 0.025405884 -0.24084473 0 0 0 0
0.0090713501 0.025405884 -0.24084473 0 0 0 0
0.010314941 0.025405884 -0.24084473 0 0 0 0
0.011611938 0.025512695 -0.24194336 0 0 0 0
0.012870789 0.025512695 -0.24194336 0 0 0 0
0.030105591 0.037689209 -0.35717773 0 0 0 0
0.031951904 0.037689209 -0.35717773 0 0 0 0
0.033813477 0.037689209 -0.35717773 0 0 0 0
0.035644531 0.037689209 -0.35717773 0 0 0 0
0.037506104 0.037689209 -0.35717773 0 0 0 0
0.039367676 0.037689209 -0.35717773 0 0 0 0
0.04119873 0.037689209 -0.35717773 0 0 0 0
0.043060303 0.037689209 -0.35717773 0 0 0 0
0.044891357 0.037689209 -0.35717773 0 0 0 0
0.04675293 0.037689209 -0.35717773 0 0 0 0
0.048614502 0.037689209 -0.35717773 0 0 0 0
0.050445557 0.037689209 -0.35717773 0 0 0 0
0.052307129 0.037689209 -0.35717773 0 0 0 0
0.054168701 0.037689209 -0.35717773 0 0 0 0
0.055999756 0.037689209 -0.35717773 0 0 0 0
0.057861328 0.037689209 -0.35717773 0 0 0 0
0.0597229 0.037689209 -0.35717773 0 0 0 0
0.061553955 0.037689209 -0.35717773 0 0 0 0
0.063415527 0.037689209 -0.35717773 0 0 0 0
0.065246582 0.037689209 -0.35717773 0 0 0 0
0.067077637 0.037689209 -0.35717773 0 0 0 0
0.068969727 0.037689209 -0.35717773 0 0 0 0
0.070800781 0.037689209 -0.35717773 0 0 0 0
0.072631836 0.037689209 -0.35717773 0 0 0 0
0.074523926 0.037689209 -0.35717773 0 0 0 0
0.07611084 0.037597656 -0.35620117 0 0 0 0
0.07800293 0.037597656 -0.35620117 0 0 0 0
0.079833984 0.037597656 -0.35620117 0 0 0 0
0.081665039 0.037597656 -0.35620117 0 0 0 0
0.083496094 0.037597656 -0.35620117 0 0 0 0
0.085388184 0.037597656 -0.35620117 0 0 0 0
0.087219238 0.037597656 -0.35620117 0 0 0 0
0.089050293 0.037597656 -0.35620117 0 0 0 0
0.090881348 0.037597656 -0.35620117 0 0 0 0
0.093017578 0.037689209 -0.35717773 0 0 0 0
0.094848633 0.037689209 -0.35717773 0 0 0 0
0.096679688 0.037689209 -0.35717773 0 0 0 0
0.098571777 0.037689209 -0.35717773 0 0 0 0
0.10040283 0.037689209 -0.35717773 0 0 0 0
0.10223389 0.037689209 -0.35717773 0 0 0 0
0.10412598 0.037689209 -0.35717773 0 0 0 0
-0.085327148 0.036132812 -0.36035156 0 0 0 0
-0.083435059 0.036132812 -0.36035156 0 0 0 0
-0.081787109 0.036254883 -0.36132812 0 0 0 0
-0.079711914 0.036132812 -0.36035156 0 0 0 0
-0.077819824 0.036132812 -0.36035156 0 0 0 0
-0.07598877 0.036132812 -0.36035156 0 0 0 0
-0.07434082 0.036254883 -0.36132812 0 0 0 0
-0.07244873 0.036254883 -0.36132812 0 0 0 0
-0.070556641 0.036254883 -0.36132812 0 0 0 0
-0.068725586 0.036254883 -0.36132812 0 0 0 0
-0.067016602 0.036346436 -0.36230469 0 0 0 0
-0.065124512 0.036346436 -0.36230469 0 0 0 0
-0.062561035 0.035949707 -0.35839844 0 0 0 0
-0.06036377 0.035736084 -0.35620117 0 0 0 0
-0.058380127 0.035644531 -0.35522461 0 0 0 0
-0.056518555 0.035644531 -0.35522461 0 0 0 0
-0.0546875 0.035644531 -0.35522461 0 0 0 0
-0.013656616 0.024673462 -0.24584961 0 0 0 0
-0.012336731 0.02456665 -0.24487305 0 0 0 0
-0.011016846 0.024475098 -0.24389648 0 0 0 0
-0.0097579956 0.024475098 -0.24389648 0 0 0 0
-0.0084609985 0.024368286 -0.24291992 0 0 0 0
-0.0071716309 0.024261475 -0.24194336 0 0 0 0
-0.0059204102 0.024261475 -0.24194336 0 0 0 0
-0.0046463013 0.024169922 -0.24084473 0 0 0 0
-0.0034008026 0.024169922 -0.24084473 0 0 0 0
-0.0021533966 0.024169922 -0.24084473 0 0 0 0
-0.0009021759 0.02406311 -0.23986816 0 0 0 0
0.00033998489 0.02406311 -0.23986816 0 0 0 0
0.0015821457 0.02406311 -0.23986816 0 0 0 0
0.0028247833 0.02406311 -0.23986816 0 0 0 0
0.0040664673 0.02406311 -0.23986816 0 0 0 0
0.0053062439 0.02406311 -0.23986816 0 0 0 0
0.0065498352 0.02406311 -0.23986816 0 0 0 0
0.0078201294 0.024169922 -0.24084473 0 0 0 0
0.0090713501 0.024169922 -0.24084473 0 0 0 0
0.010314941 0.024169922 -0.24084473 0 0 0 0
0.011611938 0.024261475 -0.24194336 0 0 0 0
0.012870789 0.024261475 -0.24194336 0 0 0 0
0.030105591 0.035827637 -0.35717773 0 0 0 0
0.031951904 0.035827637 -0.35717773 0 0 0 0
0.033813477 0.035827637 -0.35717773 0 0 0 0
0.035644531 0.035827637 -0.35717773 0 0 0 0
0.037506104 0.035827637 -0.35717773 0 0 0 0
0.039367676 0.035827637 -0.35717773 0 0 0 0
0.04119873 0.035827637 -0.35717773 0 0 0 0
0.043060303 0.035827637 -0.35717773 0 0 0 0
0.044891357 0.035827637 -0.35717773 0 0 0 0
0.04675293 0.035827637 -0.35717773 0 0 0 0
0.048614502 0.035827637 -0.35717773 0 0 0 0
0.050445557 0.035827637 -0.35717773 0 0 0 0
0.052307129 0.035827637 -0.35717773 0 0 0 0
0.054168701 0.035827637 -0.35717773 0 0 0 0
0.055999756 0.035827637 -0.35717773 0 0 0 0
0.057861328 0.035827637 -0.35717773 0 0 0 0
0.0597229 0.035827637 -0.35717773 0 0 0 0
0.061553955 0.035827637 -0.35717773 0 0 0 0
0.063415527 0.035827637 -0.35717773 0 0 0 0
0.065246582 0.035827637 -0.35717773 0 0 0 0
0.067077637 0.035827637 -0.35717773 0 0 0 0
0.068969727 0.035827637 -0.35717773 0 0 0 0
0.070800781 0.035827637 -0.35717773 0 0 0 0
0.072631836 0.035827637 -0.35717773 0 0 0 0
0.074523926 0.035827637 -0.35717773 0 0 0 0
0.07611084 0.035736084 -0.35620117 0 0 0 0
0.07800293 0.035736084 -0.35620117 0 0 0 0
0.079833984 0.035736084 -0.35620117 0 0 0 0
0.081665039 0.035736084 -0.35620117 0 0 0 0
0.083496094 0.035736084 -0.35620117 0 0 0 0
0.085388184 0.035736084 -0.35620117 0 0 0 0
0.087219238 0.035736084 -0.35620117 0 0 0 0
0.089050293 0.035736084 -0.35620117 0 0 0 0
0.090881348 0.035736084 -0.35620117 0 0 0 0
0.093017578 0.035827637 -0.35717773 0 0 0 0
0.094848633 0.035827637 -0.35717773 0 0 0 0
0.096679688 0.035827637 -0.35717773 0 0 0 0
0.098571777 0.035827637 -0.35717773 0 0 0 0
0.10040283 0.035827637 -0.35717773 0 0 0 0
0.10223389 0.035827637 -0.35717773 0 0 0 0
-0.087158203 0.03427124 -0.36035156 0 0 0 0
-0.085327148 0.03427124 -0.36035156 0 0 0 0
-0.083435059 0.03427124 -0.36035156 0 0 0 0
-0.081542969 0.03427124 -0.36035156 0 0 0 0
-0.079711914 0.03427124 -0.36035156 0 0 0 0
-0.077819824 0.03427124 -0.36035156 0 0 0 0
-0.07598877 0.03427124 -0.36035156 0 0 0 0
-0.07409668 0.03427124 -0.36035156 0 0 0 0
-0.072265625 0.03427124 -0.36035156 0 0 0 0
-0.070373535 0.03427124 -0.36035156 0 0 0 0
-0.068725586 0.034362793 -0.36132812 0 0 0 0
-0.066650391 0.03427124 -0.36035156 0 0 0 0
-0.064758301 0.03427124 -0.36035156 0 0 0 0
-0.062225342 0.033905029 -0.35620117 0 0 0 0
-0.06036377 0.033905029 -0.35620117 0 0 0 0
-0.058380127 0.033813477 -0.35522461 0 0 0 0
-0.056518555 0.033813477 -0.35522461 0 0 0 0
-0.0546875 0.033813477 -0.35522461 0 0 0 0
-0.052703857 0.033691406 -0.35424805 0 0 0 0
-0.016265869 0.023498535 -0.24694824 0 0 0 0
-0.014930725 0.023391724 -0.24584961 0 0 0 0
-0.013656616 0.023391724 -0.24584961 0 0 0 0
-0.012336731 0.023300171 -0.24487305 0 0 0 0
-0.011016846 0.023208618 -0.24389648 0 0 0 0
-0.0097579956 0.023208618 -0.24389648 0 0 0 0
-0.0084609985 0.023101807 -0.24291992 0 0 0 0
-0.0072021484 0.023101807 -0.24291992 0 0 0 0
-0.0059204102 0.023010254 -0.24194336 0 0 0 0
-0.0046463013 0.022918701 -0.24084473 0 0 0 0
-0.0034008026 0.022918701 -0.24084473 0 0 0 0
-0.0021533966 0.022918701 -0.24084473 0 0 0 0
-0.0009021759 0.022827148 -0.23986816 0 0 0 0
