ply
format ascii 1.0
comment PCL generated
element vertex 1081
property float x
property float y
property float z
property float nx
property float ny
property float nz
property float curvature
element face 0
element camera 0
property float view_px
property float view_py
property float view_pz
property float x_axisx
property float x_axisy
property float x_axisz
property float y_axisx
property float y_axisy
property float y_axisz
property float z_axisx
property float z_axisy
property float z_axisz
property float focal
property float scalex
property float scaley
property float centerx
property float centery
property int viewportx
property int viewporty
property float k1
property float k2
end_header
0.16137695 0.043365479 -0.37426758 0 0 0 0
0.16333008 0.043365479 -0.37426758 0 0 0 0
0.16577148 0.043487549 -0.37524414 0 0 0 0
0.16772461 0.043487549 -0.37524414 0 0 0 0
0.16955566 0.043487549 -0.37524414 0 0 0 0
0.17199707 0.043609619 -0.37646484 0 0 0 0
0.1739502 0.043609619 -0.37646484 0 0 0 0
0.1763916 0.043731689 -0.37744141 0 0 0 0
0.17834473 0.043731689 -0.37744141 0 0 0 0
0.18029785 0.043731689 -0.37744141 0 0 0 0
0.18273926 0.043823242 -0.37841797 0 0 0 0
0.19396973 0.046051025 -0.39746094 0 0 0 0
-0.014335632 0.039642334 -0.35839844 0 0 0 0
-0.012481689 0.039642334 -0.35839844 0 0 0 0
-0.010620117 0.039642334 -0.35839844 0 0 0 0
-0.0087661743 0.039642334 -0.35839844 0 0 0 0
-0.0069122314 0.039642334 -0.35839844 0 0 0 0
-0.0050582886 0.039642334 -0.35839844 0 0 0 0
-0.0032024384 0.039642334 -0.35839844 0 0 0 0
-0.0013475418 0.039642334 -0.35839844 0 0 0 0
0.00050640106 0.039550781 -0.35717773 0 0 0 0
0.0023555756 0.039550781 -0.35717773 0 0 0 0
0.0042076111 0.039550781 -0.35717773 0 0 0 0
0.0060577393 0.039550781 -0.35717773 0 0 0 0
0.0079040527 0.039550781 -0.35717773 0 0 0 0
0.0097808838 0.039642334 -0.35839844 0 0 0 0
0.011642456 0.039642334 -0.35839844 0 0 0 0
0.013496399 0.039642334 -0.35839844 0 0 0 0
0.015350342 0.039642334 -0.35839844 0 0 0 0
0.017196655 0.039642334 -0.35839844 0 0 0 0
0.019058228 0.039642334 -0.35839844 0 0 0 0
0.0209198 0.039642334 -0.35839844 0 0 0 0
0.022766113 0.039642334 -0.35839844 0 0 0 0
0.024627686 0.039642334 -0.35839844 0 0 0 0
0.026489258 0.039642334 -0.35839844 0 0 0 0
0.028335571 0.039642334 -0.35839844 0 0 0 0
0.030197144 0.039642334 -0.35839844 0 0 0 0
0.032043457 0.039642334 -0.35839844 0 0 0 0
0.033905029 0.039642334 -0.35839844 0 0 0 0
0.035644531 0.039550781 -0.35717773 0 0 0 0
0.037506104 0.039550781 -0.35717773 0 0 0 0
0.039367676 0.039550781 -0.35717773 0 0 0 0
0.04119873 0.039550781 -0.35717773 0 0 0 0
0.043060303 0.039550781 -0.35717773 0 0 0 0
0.044891357 0.039550781 -0.35717773 0 0 0 0
0.04675293 0.039550781 -0.35717773 0 0 0 0
0.048736572 0.039642334 -0.35839844 0 0 0 0
0.050598145 0.039642334 -0.35839844 0 0 0 0
0.052459717 0.039642334 -0.35839844 0 0 0 0
0.054321289 0.039642334 -0.35839844 0 0 0 0
0.056152344 0.039642334 -0.35839844 0 0 0 0
0.058013916 0.039642334 -0.35839844 0 0 0 0
0.0597229 0.039550781 -0.35717773 0 0 0 0
0.061553955 0.039550781 -0.35717773 0 0 0 0
0.063415527 0.039550781 -0.35717773 0 0 0 0
0.065246582 0.039550781 -0.35717773 0 0 0 0
0.067077637 0.039550781 -0.35717773 0 0 0 0
0.068969727 0.039550781 -0.35717773 0 0 0 0
0.070800781 0.039550781 -0.35717773 0 0 0 0
0.072631836 0.039550781 -0.35717773 0 0 0 0
0.074523926 0.039550781 -0.35717773 0 0 0 0
0.07635498 0.039550781 -0.35717773 0 0 0 0
0.078186035 0.039550781 -0.35717773 0 0 0 0
0.080078125 0.039550781 -0.35717773 0 0 0 0
0.08190918 0.039550781 -0.35717773 0 0 0 0
0.083740234 0.039550781 -0.35717773 0 0 0 0
0.085632324 0.039550781 -0.35717773 0 0 0 0
0.087463379 0.039550781 -0.35717773 0 0 0 0
0.089294434 0.039550781 -0.35717773 0 0 0 0
0.091186523 0.039550781 -0.35717773 0 0 0 0
0.093017578 0.039550781 -0.35717773 0 0 0 0
0.094848633 0.039550781 -0.35717773 0 0 0 0
0.096679688 0.039550781 -0.35717773 0 0 0 0
0.098571777 0.039550781 -0.35717773 0 0 0 0
0.10040283 0.039550781 -0.35717773 0 0 0 0
0.10198975 0.039428711 -0.35620117 0 0 0 0
0.1038208 0.039428711 -0.35620117 0 0 0 0
0.10595703 0.039550781 -0.35717773 0 0 0 0
0.10778809 0.039550781 -0.35717773 0 0 0 0
0.10968018 0.039550781 -0.35717773 0 0 0 0
0.11151123 0.039550781 -0.35717773 0 0 0 0
0.11334229 0.039550781 -0.35717773 0 0 0 0
0.11523438 0.039550781 -0.35717773 0 0 0 0
0.14587402 0.041992188 -0.37939453 0 0 0 0
0.14746094 0.041870117 -0.37841797 0 0 0 0
0.14904785 0.041778564 -0.37744141 0 0 0 0
0.15063477 0.041656494 -0.37646484 0 0 0 0
0.15246582 0.041656494 -0.37646484 0 0 0 0
0.15405273 0.041534424 -0.37524414 0 0 0 0
0.15600586 0.041534424 -0.37524414 0 0 0 0
0.15795898 0.041534424 -0.37524414 0 0 0 0
0.15991211 0.041534424 -0.37524414 0 0 0 0
0.16186523 0.041534424 -0.37524414 0 0 0 0
0.16381836 0.041534424 -0.37524414 0 0 0 0
0.16577148 0.041534424 -0.37524414 0 0 0 0
0.16772461 0.041534424 -0.37524414 0 0 0 0
0.16955566 0.041534424 -0.37524414 0 0 0 0
0.17199707 0.041656494 -0.37646484 0 0 0 0
0.1739502 0.041656494 -0.37646484 0 0 0 0
0.1763916 0.041778564 -0.37744141 0 0 0 0
0.17834473 0.041778564 -0.37744141 0 0 0 0
0.18029785 0.041778564 -0.37744141 0 0 0 0
0.19055176 0.043640137 -0.39453125 0 0 0 0
0.19348145 0.043884277 -0.39648438 0 0 0 0
0.19555664 0.043884277 -0.39648438 0 0 0 0
0.19812012 0.04397583 -0.39746094 0 0 0 0
-0.016189575 0.037811279 -0.35839844 0 0 0 0
-0.014335632 0.037811279 -0.35839844 0 0 0 0
-0.012481689 0.037811279 -0.35839844 0 0 0 0
-0.010620117 0.037811279 -0.35839844 0 0 0 0
-0.0087661743 0.037811279 -0.35839844 0 0 0 0
-0.0069122314 0.037811279 -0.35839844 0 0 0 0
-0.0050582886 0.037811279 -0.35839844 0 0 0 0
-0.0031929016 0.037689209 -0.35717773 0 0 0 0
-0.0013437271 0.037689209 -0.35717773 0 0 0 0
0.00050640106 0.037689209 -0.35717773 0 0 0 0
0.0023555756 0.037689209 -0.35717773 0 0 0 0
0.0042076111 0.037689209 -0.35717773 0 0 0 0
0.0060577393 0.037689209 -0.35717773 0 0 0 0
0.0079040527 0.037689209 -0.35717773 0 0 0 0
0.0097579956 0.037689209 -0.35717773 0 0 0 0
0.011604309 0.037689209 -0.35717773 0 0 0 0
0.013496399 0.037811279 -0.35839844 0 0 0 0
0.015350342 0.037811279 -0.35839844 0 0 0 0
0.017196655 0.037811279 -0.35839844 0 0 0 0
0.019058228 0.037811279 -0.35839844 0 0 0 0
0.0209198 0.037811279 -0.35839844 0 0 0 0
0.022766113 0.037811279 -0.35839844 0 0 0 0
0.024627686 0.037811279 -0.35839844 0 0 0 0
0.026489258 0.037811279 -0.35839844 0 0 0 0
0.028335571 0.037811279 -0.35839844 0 0 0 0
0.030197144 0.037811279 -0.35839844 0 0 0 0
0.032043457 0.037811279 -0.35839844 0 0 0 0
0.033813477 0.037689209 -0.35717773 0 0 0 0
0.035644531 0.037689209 -0.35717773 0 0 0 0
0.037506104 0.037689209 -0.35717773 0 0 0 0
0.039367676 0.037689209 -0.35717773 0 0 0 0
0.04119873 0.037689209 -0.35717773 0 0 0 0
0.043060303 0.037689209 -0.35717773 0 0 0 0
0.044891357 0.037689209 -0.35717773 0 0 0 0
0.04675293 0.037689209 -0.35717773 0 0 0 0
0.048614502 0.037689209 -0.35717773 0 0 0 0
0.050445557 0.037689209 -0.35717773 0 0 0 0
0.052307129 0.037689209 -0.35717773 0 0 0 0
0.054168701 0.037689209 -0.35717773 0 0 0 0
0.055999756 0.037689209 -0.35717773 0 0 0 0
0.057861328 0.037689209 -0.35717773 0 0 0 0
0.0597229 0.037689209 -0.35717773 0 0 0 0
0.061553955 0.037689209 -0.35717773 0 0 0 0
0.063415527 0.037689209 -0.35717773 0 0 0 0
0.065246582 0.037689209 -0.35717773 0 0 0 0
0.067077637 0.037689209 -0.35717773 0 0 0 0
0.068969727 0.037689209 -0.35717773 0 0 0 0
0.070800781 0.037689209 -0.35717773 0 0 0 0
0.072631836 0.037689209 -0.35717773 0 0 0 0
0.074523926 0.037689209 -0.35717773 0 0 0 0
0.07611084 0.037597656 -0.35620117 0 0 0 0
0.07800293 0.037597656 -0.35620117 0 0 0 0
0.079833984 0.037597656 -0.35620117 0 0 0 0
0.081665039 0.037597656 -0.35620117 0 0 0 0
0.083496094 0.037597656 -0.35620117 0 0 0 0
0.085632324 0.037689209 -0.35717773 0 0 0 0
0.087463379 0.037689209 -0.35717773 0 0 0 0
0.089294434 0.037689209 -0.35717773 0 0 0 0
0.091186523 0.037689209 -0.35717773 0 0 0 0
0.093017578 0.037689209 -0.35717773 0 0 0 0
0.094848633 0.037689209 -0.35717773 0 0 0 0
0.096679688 0.037689209 -0.35717773 0 0 0 0
0.098571777 0.037689209 -0.35717773 0 0 0 0
0.10009766 0.037597656 -0.35620117 0 0 0 0
0.10198975 0.037597656 -0.35620117 0 0 0 0
0.1038208 0.037597656 -0.35620117 0 0 0 0
0.10565186 0.037597656 -0.35620117 0 0 0 0
0.10778809 0.037689209 -0.35717773 0 0 0 0
0.10968018 0.037689209 -0.35717773 0 0 0 0
0.11151123 0.037689209 -0.35717773 0 0 0 0
0.11334229 0.037689209 -0.35717773 0 0 0 0
0.11523438 0.037689209 -0.35717773 0 0 0 0
0.14587402 0.040008545 -0.37939453 0 0 0 0
0.14746094 0.039916992 -0.37841797 0 0 0 0
0.14941406 0.039916992 -0.37841797 0 0 0 0
0.15100098 0.039825439 -0.37744141 0 0 0 0
0.1529541 0.039825439 -0.37744141 0 0 0 0
0.15441895 0.039703369 -0.37646484 0 0 0 0
0.15637207 0.039703369 -0.37646484 0 0 0 0
0.1583252 0.039703369 -0.37646484 0 0 0 0
0.15991211 0.039611816 -0.37524414 0 0 0 0
0.16186523 0.039611816 -0.37524414 0 0 0 0
0.16381836 0.039611816 -0.37524414 0 0 0 0
0.16577148 0.039611816 -0.37524414 0 0 0 0
0.16772461 0.039611816 -0.37524414 0 0 0 0
0.17004395 0.039703369 -0.37646484 0 0 0 0
0.17199707 0.039703369 -0.37646484 0 0 0 0
0.17443848 0.039825439 -0.37744141 0 0 0 0
0.1763916 0.039825439 -0.37744141 0 0 0 0
0.17834473 0.039825439 -0.37744141 0 0 0 0
0.18029785 0.039825439 -0.37744141 0 0 0 0
0.1895752 0.041412354 -0.39233398 0 0 0 0
0.19299316 0.041717529 -0.39550781 0 0 0 0
0.19555664 0.041809082 -0.39648438 0 0 0 0
0.19763184 0.041809082 -0.39648438 0 0 0 0
-0.018035889 0.035949707 -0.35839844 0 0 0 0
-0.016189575 0.035949707 -0.35839844 0 0 0 0
-0.014335632 0.035949707 -0.35839844 0 0 0 0
-0.012481689 0.035949707 -0.35839844 0 0 0 0
-0.010620117 0.035949707 -0.35839844 0 0 0 0
-0.0087661743 0.035949707 -0.35839844 0 0 0 0
-0.006893158 0.035827637 -0.35717773 0 0 0 0
-0.0050430298 0.035827637 -0.35717773 0 0 0 0
-0.0031929016 0.035827637 -0.35717773 0 0 0 0
-0.0013437271 0.035827637 -0.35717773 0 0 0 0
0.00050640106 0.035827637 -0.35717773 0 0 0 0
0.0023555756 0.035827637 -0.35717773 0 0 0 0
0.0042076111 0.035827637 -0.35717773 0 0 0 0
0.0060577393 0.035827637 -0.35717773 0 0 0 0
0.0079040527 0.035827637 -0.35717773 0 0 0 0
0.0097579956 0.035827637 -0.35717773 0 0 0 0
0.011604309 0.035827637 -0.35717773 0 0 0 0
0.013458252 0.035827637 -0.35717773 0 0 0 0
0.015350342 0.035949707 -0.35839844 0 0 0 0
0.017196655 0.035949707 -0.35839844 0 0 0 0
0.019058228 0.035949707 -0.35839844 0 0 0 0
0.0209198 0.035949707 -0.35839844 0 0 0 0
0.022766113 0.035949707 -0.35839844 0 0 0 0
0.024627686 0.035949707 -0.35839844 0 0 0 0
0.026489258 0.035949707 -0.35839844 0 0 0 0
0.028335571 0.035949707 -0.35839844 0 0 0 0
0.030197144 0.035949707 -0.35839844 0 0 0 0
0.032043457 0.035949707 -0.35839844 0 0 0 0
0.033813477 0.035827637 -0.35717773 0 0 0 0
0.035644531 0.035827637 -0.35717773 0 0 0 0
0.037506104 0.035827637 -0.35717773 0 0 0 0
0.039367676 0.035827637 -0.35717773 0 0 0 0
0.04119873 0.035827637 -0.35717773 0 0 0 0
0.043060303 0.035827637 -0.35717773 0 0 0 0
0.044891357 0.035827637 -0.35717773 0 0 0 0
0.04675293 0.035827637 -0.35717773 0 0 0 0
0.048614502 0.035827637 -0.35717773 0 0 0 0
0.050445557 0.035827637 -0.35717773 0 0 0 0
0.052307129 0.035827637 -0.35717773 0 0 0 0
0.054168701 0.035827637 -0.35717773 0 0 0 0
0.055999756 0.035827637 -0.35717773 0 0 0 0
0.057861328 0.035827637 -0.35717773 0 0 0 0
0.0597229 0.035827637 -0.35717773 0 0 0 0
0.061553955 0.035827637 -0.35717773 0 0 0 0
0.063415527 0.035827637 -0.35717773 0 0 0 0
0.065246582 0.035827637 -0.35717773 0 0 0 0
0.067077637 0.035827637 -0.35717773 0 0 0 0
0.068969727 0.035827637 -0.35717773 0 0 0 0
0.070800781 0.035827637 -0.35717773 0 0 0 0
0.072631836 0.035827637 -0.35717773 0 0 0 0
0.074279785 0.035736084 -0.35620117 0 0 0 0
0.07611084 0.035736084 -0.35620117 0 0 0 0
0.07800293 0.035736084 -0.35620117 0 0 0 0
0.079833984 0.035736084 -0.35620117 0 0 0 0
0.081665039 0.035736084 -0.35620117 0 0 0 0
0.083496094 0.035736084 -0.35620117 0 0 0 0
0.085388184 0.035736084 -0.35620117 0 0 0 0
0.087463379 0.035827637 -0.35717773 0 0 0 0
0.089294434 0.035827637 -0.35717773 0 0 0 0
0.091186523 0.035827637 -0.35717773 0 0 0 0
0.093017578 0.035827637 -0.35717773 0 0 0 0
0.094848633 0.035827637 -0.35717773 0 0 0 0
0.096679688 0.035827637 -0.35717773 0 0 0 0
0.098571777 0.035827637 -0.35717773 0 0 0 0
0.10009766 0.035736084 -0.35620117 0 0 0 0
0.10198975 0.035736084 -0.35620117 0 0 0 0
0.1038208 0.035736084 -0.35620117 0 0 0 0
0.10565186 0.035736084 -0.35620117 0 0 0 0
0.10748291 0.035736084 -0.35620117 0 0 0 0
0.10968018 0.035827637 -0.35717773 0 0 0 0
0.11151123 0.035827637 -0.35717773 0 0 0 0
0.11334229 0.035827637 -0.35717773 0 0 0 0
0.11523438 0.035827637 -0.35717773 0 0 0 0
0.11706543 0.035827637 -0.35717773 0 0 0 0
0.14624023 0.038146973 -0.38037109 0 0 0 0
0.14782715 0.03805542 -0.37939453 0 0 0 0
0.14978027 0.03805542 -0.37939453 0 0 0 0
0.15136719 0.037963867 -0.37841797 0 0 0 0
0.15332031 0.037963867 -0.37841797 0 0 0 0
0.15490723 0.037841797 -0.37744141 0 0 0 0
0.15686035 0.037841797 -0.37744141 0 0 0 0
0.1583252 0.037750244 -0.37646484 0 0 0 0
0.16027832 0.037750244 -0.37646484 0 0 0 0
0.16223145 0.037750244 -0.37646484 0 0 0 0
0.16418457 0.037750244 -0.37646484 0 0 0 0
0.1661377 0.037750244 -0.37646484 0 0 0 0
0.16809082 0.037750244 -0.37646484 0 0 0 0
0.17004395 0.037750244 -0.37646484 0 0 0 0
0.17199707 0.037750244 -0.37646484 0 0 0 0
0.17443848 0.037841797 -0.37744141 0 0 0 0
0.17687988 0.037963867 -0.37841797 0 0 0 0
0.17883301 0.037963867 -0.37841797 0 0 0 0
0.18078613 0.037963867 -0.37841797 0 0 0 0
0.19006348 0.039459229 -0.39331055 0 0 0 0
0.19250488 0.039581299 -0.39453125 0 0 0 0
0.19506836 0.039672852 -0.39550781 0 0 0 0
0.19763184 0.039764404 -0.39648438 0 0 0 0
-0.023605347 0.034088135 -0.35839844 0 0 0 0
-0.021759033 0.034088135 -0.35839844 0 0 0 0
-0.019897461 0.034088135 -0.35839844 0 0 0 0
-0.018035889 0.034088135 -0.35839844 0 0 0 0
-0.016189575 0.034088135 -0.35839844 0 0 0 0
-0.014335632 0.034088135 -0.35839844 0 0 0 0
-0.012481689 0.034088135 -0.35839844 0 0 0 0
-0.010620117 0.034088135 -0.35839844 0 0 0 0
-0.0087432861 0.033996582 -0.35717773 0 0 0 0
-0.006893158 0.033996582 -0.35717773 0 0 0 0
-0.0050430298 0.033996582 -0.35717773 0 0 0 0
-0.0031929016 0.033996582 -0.35717773 0 0 0 0
-0.0013437271 0.033996582 -0.35717773 0 0 0 0
0.00050640106 0.033996582 -0.35717773 0 0 0 0
0.0023555756 0.033996582 -0.35717773 0 0 0 0
0.0042076111 0.033996582 -0.35717773 0 0 0 0
0.0060577393 0.033996582 -0.35717773 0 0 0 0
0.0079040527 0.033996582 -0.35717773 0 0 0 0
0.0097579956 0.033996582 -0.35717773 0 0 0 0
0.011604309 0.033996582 -0.35717773 0 0 0 0
0.013458252 0.033996582 -0.35717773 0 0 0 0
0.015304565 0.033996582 -0.35717773 0 0 0 0
0.017196655 0.034088135 -0.35839844 0 0 0 0
0.019058228 0.034088135 -0.35839844 0 0 0 0
0.0209198 0.034088135 -0.35839844 0 0 0 0
0.022766113 0.034088135 -0.35839844 0 0 0 0
0.024627686 0.034088135 -0.35839844 0 0 0 0
0.026412964 0.033996582 -0.35717773 0 0 0 0
0.028259277 0.033996582 -0.35717773 0 0 0 0
0.030105591 0.033996582 -0.35717773 0 0 0 0
0.031951904 0.033996582 -0.35717773 0 0 0 0
0.033813477 0.033996582 -0.35717773 0 0 0 0
0.035644531 0.033996582 -0.35717773 0 0 0 0
0.037506104 0.033996582 -0.35717773 0 0 0 0
0.039367676 0.033996582 -0.35717773 0 0 0 0
0.04119873 0.033996582 -0.35717773 0 0 0 0
0.043060303 0.033996582 -0.35717773 0 0 0 0
0.044891357 0.033996582 -0.35717773 0 0 0 0
0.04675293 0.033996582 -0.35717773 0 0 0 0
0.048614502 0.033996582 -0.35717773 0 0 0 0
0.050445557 0.033996582 -0.35717773 0 0 0 0
0.052307129 0.033996582 -0.35717773 0 0 0 0
0.054168701 0.033996582 -0.35717773 0 0 0 0
0.055999756 0.033996582 -0.35717773 0 0 0 0
0.057861328 0.033996582 -0.35717773 0 0 0 0
0.0597229 0.033996582 -0.35717773 0 0 0 0
0.061553955 0.033996582 -0.35717773 0 0 0 0
0.063415527 0.033996582 -0.35717773 0 0 0 0
0.065246582 0.033996582 -0.35717773 0 0 0 0
0.067077637 0.033996582 -0.35717773 0 0 0 0
0.068969727 0.033996582 -0.35717773 0 0 0 0
0.070800781 0.033996582 -0.35717773 0 0 0 0
0.07244873 0.033905029 -0.35620117 0 0 0 0
0.074279785 0.033905029 -0.35620117 0 0 0 0
0.07611084 0.033905029 -0.35620117 0 0 0 0
0.07800293 0.033905029 -0.35620117 0 0 0 0
0.079833984 0.033905029 -0.35620117 0 0 0 0
0.081665039 0.033905029 -0.35620117 0 0 0 0
0.083496094 0.033905029 -0.35620117 0 0 0 0
0.085388184 0.033905029 -0.35620117 0 0 0 0
0.087463379 0.033996582 -0.35717773 0 0 0 0
0.089294434 0.033996582 -0.35717773 0 0 0 0
0.091186523 0.033996582 -0.35717773 0 0 0 0
0.093017578 0.033996582 -0.35717773 0 0 0 0
0.094848633 0.033996582 -0.35717773 0 0 0 0
0.096679688 0.033996582 -0.35717773 0 0 0 0
0.098266602 0.033905029 -0.35620117 0 0 0 0
0.10009766 0.033905029 -0.35620117 0 0 0 0
0.10198975 0.033905029 -0.35620117 0 0 0 0
0.1038208 0.033905029 -0.35620117 0 0 0 0
0.10565186 0.033905029 -0.35620117 0 0 0 0
0.10748291 0.033905029 -0.35620117 0 0 0 0
0.10968018 0.033996582 -0.35717773 0 0 0 0
0.11151123 0.033996582 -0.35717773 0 0 0 0
0.11334229 0.033996582 -0.35717773 0 0 0 0
0.11523438 0.033996582 -0.35717773 0 0 0 0
0.11706543 0.033996582 -0.35717773 0 0 0 0
0.14624023 0.036193848 -0.38037109 0 0 0 0
0.14819336 0.036193848 -0.38037109 0 0 0 0
0.15026855 0.036193848 -0.38037109 0 0 0 0
0.1517334 0.036102295 -0.37939453 0 0 0 0
0.15332031 0.036010742 -0.37841797 0 0 0 0
0.15527344 0.036010742 -0.37841797 0 0 0 0
0.15686035 0.035888672 -0.37744141 0 0 0 0
0.15881348 0.035888672 -0.37744141 0 0 0 0
0.16027832 0.035797119 -0.37646484 0 0 0 0
0.16223145 0.035797119 -0.37646484 0 0 0 0
0.16418457 0.035797119 -0.37646484 0 0 0 0
0.1661377 0.035797119 -0.37646484 0 0 0 0
0.16809082 0.035797119 -0.37646484 0 0 0 0
0.17053223 0.035888672 -0.37744141 0 0 0 0
0.17248535 0.035888672 -0.37744141 0 0 0 0
0.17492676 0.036010742 -0.37841797 0 0 0 0
0.17687988 0.036010742 -0.37841797 0 0 0 0
0.17932129 0.036102295 -0.37939453 0 0 0 0
0.18701172 0.037231445 -0.39135742 0 0 0 0
0.19006348 0.037414551 -0.39331055 0 0 0 0
0.19250488 0.037536621 -0.39453125 0 0 0 0
0.19506836 0.037628174 -0.39550781 0 0 0 0
0.19763184 0.037719727 -0.39648438 0 0 0 0
-0.025390625 0.03213501 -0.35717773 0 0 0 0
-0.023544312 0.03213501 -0.35717773 0 0 0 0
-0.021697998 0.03213501 -0.35717773 0 0 0 0
-0.019836426 0.03213501 -0.35717773 0 0 0 0
-0.018035889 0.032226562 -0.35839844 0 0 0 0
-0.016189575 0.032226562 -0.35839844 0 0 0 0
-0.014335632 0.032226562 -0.35839844 0 0 0 0
-0.012481689 0.032226562 -0.35839844 0 0 0 0
-0.0105896 0.03213501 -0.35717773 0 0 0 0
-0.0087432861 0.03213501 -0.35717773 0 0 0 0
-0.006893158 0.03213501 -0.35717773 0 0 0 0
-0.0050430298 0.03213501 -0.35717773 0 0 0 0
-0.0031929016 0.03213501 -0.35717773 0 0 0 0
-0.0013437271 0.03213501 -0.35717773 0 0 0 0
0.00050640106 0.03213501 -0.35717773 0 0 0 0
0.0023555756 0.03213501 -0.35717773 0 0 0 0
0.0042076111 0.03213501 -0.35717773 0 0 0 0
0.0060577393 0.03213501 -0.35717773 0 0 0 0
0.0079040527 0.03213501 -0.35717773 0 0 0 0
0.0097579956 0.03213501 -0.35717773 0 0 0 0
0.011604309 0.03213501 -0.35717773 0 0 0 0
0.013458252 0.03213501 -0.35717773 0 0 0 0
0.015304565 0.03213501 -0.35717773 0 0 0 0
0.017150879 0.03213501 -0.35717773 0 0 0 0
0.019012451 0.03213501 -0.35717773 0 0 0 0
0.020858765 0.03213501 -0.35717773 0 0 0 0
0.022705078 0.03213501 -0.35717773 0 0 0 0
0.024551392 0.03213501 -0.35717773 0 0 0 0
0.026412964 0.03213501 -0.35717773 0 0 0 0
0.028259277 0.03213501 -0.35717773 0 0 0 0
0.030105591 0.03213501 -0.35717773 0 0 0 0
0.031951904 0.03213501 -0.35717773 0 0 0 0
0.033813477 0.03213501 -0.35717773 0 0 0 0
0.035644531 0.03213501 -0.35717773 0 0 0 0
0.037506104 0.03213501 -0.35717773 0 0 0 0
0.039367676 0.03213501 -0.35717773 0 0 0 0
0.04119873 0.03213501 -0.35717773 0 0 0 0
0.043060303 0.03213501 -0.35717773 0 0 0 0
0.044891357 0.03213501 -0.35717773 0 0 0 0
0.04675293 0.03213501 -0.35717773 0 0 0 0
0.048614502 0.03213501 -0.35717773 0 0 0 0
0.050445557 0.03213501 -0.35717773 0 0 0 0
0.052307129 0.03213501 -0.35717773 0 0 0 0
0.054168701 0.03213501 -0.35717773 0 0 0 0
0.055999756 0.03213501 -0.35717773 0 0 0 0
0.057861328 0.03213501 -0.35717773 0 0 0 0
0.0597229 0.03213501 -0.35717773 0 0 0 0
0.061553955 0.03213501 -0.35717773 0 0 0 0
0.063415527 0.03213501 -0.35717773 0 0 0 0
0.065246582 0.03213501 -0.35717773 0 0 0 0
0.067077637 0.03213501 -0.35717773 0 0 0 0
0.068969727 0.03213501 -0.35717773 0 0 0 0
0.070617676 0.032043457 -0.35620117 0 0 0 0
0.07244873 0.032043457 -0.35620117 0 0 0 0
0.074279785 0.032043457 -0.35620117 0 0 0 0
0.07611084 0.032043457 -0.35620117 0 0 0 0
0.07800293 0.032043457 -0.35620117 0 0 0 0
0.079833984 0.032043457 -0.35620117 0 0 0 0
0.081665039 0.032043457 -0.35620117 0 0 0 0
0.083496094 0.032043457 -0.35620117 0 0 0 0
0.085388184 0.032043457 -0.35620117 0 0 0 0
0.087219238 0.032043457 -0.35620117 0 0 0 0
0.089294434 0.03213501 -0.35717773 0 0 0 0
0.091186523 0.03213501 -0.35717773 0 0 0 0
0.093017578 0.03213501 -0.35717773 0 0 0 0
0.094848633 0.03213501 -0.35717773 0 0 0 0
0.096435547 0.032043457 -0.35620117 0 0 0 0
0.098266602 0.032043457 -0.35620117 0 0 0 0
0.10009766 0.032043457 -0.35620117 0 0 0 0
0.10198975 0.032043457 -0.35620117 0 0 0 0
0.1038208 0.032043457 -0.35620117 0 0 0 0
0.10565186 0.032043457 -0.35620117 0 0 0 0
0.10748291 0.032043457 -0.35620117 0 0 0 0
0.10968018 0.03213501 -0.35717773 0 0 0 0
0.11151123 0.03213501 -0.35717773 0 0 0 0
0.11334229 0.03213501 -0.35717773 0 0 0 0
0.11523438 0.03213501 -0.35717773 0 0 0 0
0.11706543 0.03213501 -0.35717773 0 0 0 0
0.14660645 0.034301758 -0.38134766 0 0 0 0
0.14868164 0.034301758 -0.38134766 0 0 0 0
0.15026855 0.034210205 -0.38037109 0 0 0 0
0.15222168 0.034210205 -0.38037109 0 0 0 0
0.15368652 0.034118652 -0.37939453 0 0 0 0
0.15527344 0.0340271 -0.37841797 0 0 0 0
0.15722656 0.0340271 -0.37841797 0 0 0 0
0.15881348 0.033935547 -0.37744141 0 0 0 0
0.1607666 0.033935547 -0.37744141 0 0 0 0
0.16271973 0.033935547 -0.37744141 0 0 0 0
0.16418457 0.033843994 -0.37646484 0 0 0 0
0.16662598 0.033935547 -0.37744141 0 0 0 0
0.1685791 0.033935547 -0.37744141 0 0 0 0
0.17053223 0.033935547 -0.37744141 0 0 0 0
0.17297363 0.0340271 -0.37841797 0 0 0 0
0.17541504 0.034118652 -0.37939453 0 0 0 0
0.17773438 0.034210205 -0.38037109 0 0 0 0
0.18029785 0.034301758 -0.38134766 0 0 0 0
0.18701172 0.035217285 -0.39135742 0 0 0 0
0.19006348 0.035400391 -0.39331055 0 0 0 0
0.19250488 0.035491943 -0.39453125 0 0 0 0
0.19506836 0.035583496 -0.39550781 0 0 0 0
0.19763184 0.035675049 -0.39648438 0 0 0 0
-0.027175903 0.030212402 -0.35620117 0 0 0 0
-0.025390625 0.030303955 -0.35717773 0 0 0 0
-0.023544312 0.030303955 -0.35717773 0 0 0 0
-0.021697998 0.030303955 -0.35717773 0 0 0 0
-0.019836426 0.030303955 -0.35717773 0 0 0 0
-0.017990112 0.030303955 -0.35717773 0 0 0 0
-0.016143799 0.030303955 -0.35717773 0 0 0 0
-0.014297485 0.030303955 -0.35717773 0 0 0 0
-0.012443542 0.030303955 -0.35717773 0 0 0 0
-0.0105896 0.030303955 -0.35717773 0 0 0 0
-0.0087432861 0.030303955 -0.35717773 0 0 0 0
-0.006893158 0.030303955 -0.35717773 0 0 0 0
-0.0050430298 0.030303955 -0.35717773 0 0 0 0
-0.0031929016 0.030303955 -0.35717773 0 0 0 0
-0.0013437271 0.030303955 -0.35717773 0 0 0 0
0.00050640106 0.030303955 -0.35717773 0 0 0 0
0.0023555756 0.030303955 -0.35717773 0 0 0 0
0.0042076111 0.030303955 -0.35717773 0 0 0 0
0.0060577393 0.030303955 -0.35717773 0 0 0 0
0.0079040527 0.030303955 -0.35717773 0 0 0 0
0.0097579956 0.030303955 -0.35717773 0 0 0 0
0.011604309 0.030303955 -0.35717773 0 0 0 0
0.013458252 0.030303955 -0.35717773 0 0 0 0
0.015304565 0.030303955 -0.35717773 0 0 0 0
0.017150879 0.030303955 -0.35717773 0 0 0 0
0.019012451 0.030303955 -0.35717773 0 0 0 0
0.020858765 0.030303955 -0.35717773 0 0 0 0
0.022705078 0.030303955 -0.35717773 0 0 0 0
0.024551392 0.030303955 -0.35717773 0 0 0 0
0.026412964 0.030303955 -0.35717773 0 0 0 0
0.028259277 0.030303955 -0.35717773 0 0 0 0
0.030105591 0.030303955 -0.35717773 0 0 0 0
0.031951904 0.030303955 -0.35717773 0 0 0 0
0.033813477 0.030303955 -0.35717773 0 0 0 0
0.035644531 0.030303955 -0.35717773 0 0 0 0
0.037506104 0.030303955 -0.35717773 0 0 0 0
0.039367676 0.030303955 -0.35717773 0 0 0 0
0.04119873 0.030303955 -0.35717773 0 0 0 0
0.043060303 0.030303955 -0.35717773 0 0 0 0
0.044891357 0.030303955 -0.35717773 0 0 0 0
0.04675293 0.030303955 -0.35717773 0 0 0 0
0.048614502 0.030303955 -0.35717773 0 0 0 0
0.050445557 0.030303955 -0.35717773 0 0 0 0
0.052307129 0.030303955 -0.35717773 0 0 0 0
0.054168701 0.030303955 -0.35717773 0 0 0 0
0.055999756 0.030303955 -0.35717773 0 0 0 0
0.057861328 0.030303955 -0.35717773 0 0 0 0
0.0597229 0.030303955 -0.35717773 0 0 0 0
0.061553955 0.030303955 -0.35717773 0 0 0 0
0.063415527 0.030303955 -0.35717773 0 0 0 0
0.065246582 0.030303955 -0.35717773 0 0 0 0
0.067077637 0.030303955 -0.35717773 0 0 0 0
0.068725586 0.030212402 -0.35620117 0 0 0 0
0.070617676 0.030212402 -0.35620117 0 0 0 0
0.07244873 0.030212402 -0.35620117 0 0 0 0
0.074279785 0.030212402 -0.35620117 0 0 0 0
0.07611084 0.030212402 -0.35620117 0 0 0 0
0.07800293 0.030212402 -0.35620117 0 0 0 0
0.079833984 0.030212402 -0.35620117 0 0 0 0
0.081665039 0.030212402 -0.35620117 0 0 0 0
0.083496094 0.030212402 -0.35620117 0 0 0 0
0.085388184 0.030212402 -0.35620117 0 0 0 0
0.087219238 0.030212402 -0.35620117 0 0 0 0
0.089294434 0.030303955 -0.35717773 0 0 0 0
0.091186523 0.030303955 -0.35717773 0 0 0 0
0.093017578 0.030303955 -0.35717773 0 0 0 0
0.094604492 0.030212402 -0.35620117 0 0 0 0
0.096435547 0.030212402 -0.35620117 0 0 0 0
0.098266602 0.030212402 -0.35620117 0 0 0 0
0.10009766 0.030212402 -0.35620117 0 0 0 0
0.10198975 0.030212402 -0.35620117 0 0 0 0
0.1038208 0.030212402 -0.35620117 0 0 0 0
0.10565186 0.030212402 -0.35620117 0 0 0 0
0.10778809 0.030303955 -0.35717773 0 0 0 0
0.10968018 0.030303955 -0.35717773 0 0 0 0
0.11151123 0.030303955 -0.35717773 0 0 0 0
0.11334229 0.030303955 -0.35717773 0 0 0 0
0.11523438 0.030303955 -0.35717773 0 0 0 0
0.11706543 0.030303955 -0.35717773 0 0 0 0
0.14660645 0.032318115 -0.38134766 0 0 0 0
0.14904785 0.032409668 -0.38232422 0 0 0 0
0.15063477 0.032318115 -0.38134766 0 0 0 0
0.15222168 0.03225708 -0.38037109 0 0 0 0
0.1541748 0.03225708 -0.38037109 0 0 0 0
0.15576172 0.032165527 -0.37939453 0 0 0 0
0.15722656 0.032073975 -0.37841797 0 0 0 0
0.15917969 0.032073975 -0.37841797 0 0 0 0
0.1607666 0.031982422 -0.37744141 0 0 0 0
0.16271973 0.031982422 -0.37744141 0 0 0 0
0.16467285 0.031982422 -0.37744141 0 0 0 0
0.16662598 0.031982422 -0.37744141 0 0 0 0
0.16906738 0.032073975 -0.37841797 0 0 0 0
0.17102051 0.032073975 -0.37841797 0 0 0 0
0.17333984 0.032165527 -0.37939453 0 0 0 0
0.17578125 0.03225708 -0.38037109 0 0 0 0
0.17822266 0.032318115 -0.38134766 0 0 0 0
0.18212891 0.032684326 -0.38549805 0 0 0 0
0.18701172 0.033172607 -0.39135742 0 0 0 0
0.19006348 0.033355713 -0.39331055 0 0 0 0
0.19250488 0.033447266 -0.39453125 0 0 0 0
0.19555664 0.033599854 -0.39648438 0 0 0 0
-0.029006958 0.028366089 -0.35620117 0 0 0 0
-0.027175903 0.028366089 -0.35620117 0 0 0 0
-0.02532959 0.028366089 -0.35620117 0 0 0 0
-0.023544312 0.028442383 -0.35717773 0 0 0 0
-0.021697998 0.028442383 -0.35717773 0 0 0 0
-0.019836426 0.028442383 -0.35717773 0 0 0 0
-0.017990112 0.028442383 -0.35717773 0 0 0 0
-0.016143799 0.028442383 -0.35717773 0 0 0 0
-0.014297485 0.028442383 -0.35717773 0 0 0 0
-0.012443542 0.028442383 -0.35717773 0 0 0 0
-0.0105896 0.028442383 -0.35717773 0 0 0 0
-0.0087432861 0.028442383 -0.35717773 0 0 0 0
-0.006893158 0.028442383 -0.35717773 0 0 0 0
-0.0050430298 0.028442383 -0.35717773 0 0 0 0
-0.0031929016 0.028442383 -0.35717773 0 0 0 0
-0.0013437271 0.028442383 -0.35717773 0 0 0 0
0.00050640106 0.028442383 -0.35717773 0 0 0 0
0.0023555756 0.028442383 -0.35717773 0 0 0 0
0.0042076111 0.028442383 -0.35717773 0 0 0 0
0.0060577393 0.028442383 -0.35717773 0 0 0 0
0.0079040527 0.028442383 -0.35717773 0 0 0 0
0.0097579956 0.028442383 -0.35717773 0 0 0 0
0.011604309 0.028442383 -0.35717773 0 0 0 0
0.013458252 0.028442383 -0.35717773 0 0 0 0
0.015304565 0.028442383 -0.35717773 0 0 0 0
0.017150879 0.028442383 -0.35717773 0 0 0 0
0.019012451 0.028442383 -0.35717773 0 0 0 0
0.020858765 0.028442383 -0.35717773 0 0 0 0
0.022705078 0.028442383 -0.35717773 0 0 0 0
0.024551392 0.028442383 -0.35717773 0 0 0 0
0.026412964 0.028442383 -0.35717773 0 0 0 0
0.028259277 0.028442383 -0.35717773 0 0 0 0
0.030105591 0.028442383 -0.35717773 0 0 0 0
0.031951904 0.028442383 -0.35717773 0 0 0 0
0.033813477 0.028442383 -0.35717773 0 0 0 0
0.035644531 0.028442383 -0.35717773 0 0 0 0
0.037506104 0.028442383 -0.35717773 0 0 0 0
0.039367676 0.028442383 -0.35717773 0 0 0 0
0.04119873 0.028442383 -0.35717773 0 0 0 0
0.043060303 0.028442383 -0.35717773 0 0 0 0
0.044891357 0.028442383 -0.35717773 0 0 0 0
0.04675293 0.028442383 -0.35717773 0 0 0 0
0.048614502 0.028442383 -0.35717773 0 0 0 0
0.050445557 0.028442383 -0.35717773 0 0 0 0
0.052307129 0.028442383 -0.35717773 0 0 0 0
0.054168701 0.028442383 -0.35717773 0 0 0 0
0.055999756 0.028442383 -0.35717773 0 0 0 0
0.057861328 0.028442383 -0.35717773 0 0 0 0
0.0597229 0.028442383 -0.35717773 0 0 0 0
0.061553955 0.028442383 -0.35717773 0 0 0 0
0.063415527 0.028442383 -0.35717773 0 0 0 0
0.065063477 0.028366089 -0.35620117 0 0 0 0
0.066894531 0.028366089 -0.35620117 0 0 0 0
0.068725586 0.028366089 -0.35620117 0 0 0 0
0.070617676 0.028366089 -0.35620117 0 0 0 0
0.07244873 0.028366089 -0.35620117 0 0 0 0
0.074279785 0.028366089 -0.35620117 0 0 0 0
0.07611084 0.028366089 -0.35620117 0 0 0 0
0.07800293 0.028366089 -0.35620117 0 0 0 0
0.079833984 0.028366089 -0.35620117 0 0 0 0
0.081665039 0.028366089 -0.35620117 0 0 0 0
0.083496094 0.028366089 -0.35620117 0 0 0 0
0.085388184 0.028366089 -0.35620117 0 0 0 0
0.087219238 0.028366089 -0.35620117 0 0 0 0
0.089050293 0.028366089 -0.35620117 0 0 0 0
0.090881348 0.028366089 -0.35620117 0 0 0 0
0.092773438 0.028366089 -0.35620117 0 0 0 0
0.094604492 0.028366089 -0.35620117 0 0 0 0
0.096435547 0.028366089 -0.35620117 0 0 0 0
0.098266602 0.028366089 -0.35620117 0 0 0 0
0.10009766 0.028366089 -0.35620117 0 0 0 0
0.10198975 0.028366089 -0.35620117 0 0 0 0
0.1038208 0.028366089 -0.35620117 0 0 0 0
0.10565186 0.028366089 -0.35620117 0 0 0 0
0.10778809 0.028442383 -0.35717773 0 0 0 0
0.10968018 0.028442383 -0.35717773 0 0 0 0
0.11151123 0.028442383 -0.35717773 0 0 0 0
0.11334229 0.028442383 -0.35717773 0 0 0 0
0.11523438 0.028442383 -0.35717773 0 0 0 0
0.14660645 0.03036499 -0.38134766 0 0 0 0
0.14941406 0.030517578 -0.38330078 0 0 0 0
0.15100098 0.030441284 -0.38232422 0 0 0 0
0.15258789 0.03036499 -0.38134766 0 0 0 0
0.1541748 0.030288696 -0.38037109 0 0 0 0
0.15612793 0.030288696 -0.38037109 0 0 0 0
0.15771484 0.030212402 -0.37939453 0 0 0 0
0.15917969 0.03012085 -0.37841797 0 0 0 0
0.16113281 0.03012085 -0.37841797 0 0 0 0
0.16308594 0.03012085 -0.37841797 0 0 0 0
0.16503906 0.03012085 -0.37841797 0 0 0 0
0.16711426 0.03012085 -0.37841797 0 0 0 0
0.16906738 0.03012085 -0.37841797 0 0 0 0
0.17138672 0.030212402 -0.37939453 0 0 0 0
0.17382812 0.030288696 -0.38037109 0 0 0 0
0.17626953 0.03036499 -0.38134766 0 0 0 0
0.17919922 0.030517578 -0.38330078 0 0 0 0
0.18261719 0.030761719 -0.38647461 0 0 0 0
0.18701172 0.031158447 -0.39135742 0 0 0 0
0.19006348 0.031311035 -0.39331055 0 0 0 0
0.19299316 0.031463623 -0.39550781 0 0 0 0
0.19555664 0.031555176 -0.39648438 0 0 0 0
-0.030853271 0.026519775 -0.35620117 0 0 0 0
-0.029006958 0.026519775 -0.35620117 0 0 0 0
-0.027175903 0.026519775 -0.35620117 0 0 0 0
-0.02532959 0.026519775 -0.35620117 0 0 0 0
-0.023544312 0.026596069 -0.35717773 0 0 0 0
-0.021697998 0.026596069 -0.35717773 0 0 0 0
-0.019836426 0.026596069 -0.35717773 0 0 0 0
-0.017990112 0.026596069 -0.35717773 0 0 0 0
-0.016143799 0.026596069 -0.35717773 0 0 0 0
-0.014297485 0.026596069 -0.35717773 0 0 0 0
-0.012443542 0.026596069 -0.35717773 0 0 0 0
-0.0105896 0.026596069 -0.35717773 0 0 0 0
-0.0087432861 0.026596069 -0.35717773 0 0 0 0
-0.006893158 0.026596069 -0.35717773 0 0 0 0
-0.0050430298 0.026596069 -0.35717773 0 0 0 0
-0.0031929016 0.026596069 -0.35717773 0 0 0 0
-0.0013437271 0.026596069 -0.35717773 0 0 0 0
0.00050640106 0.026596069 -0.35717773 0 0 0 0
0.0023555756 0.026596069 -0.35717773 0 0 0 0
0.0042076111 0.026596069 -0.35717773 0 0 0 0
0.0060577393 0.026596069 -0.35717773 0 0 0 0
0.0079040527 0.026596069 -0.35717773 0 0 0 0
0.0097579956 0.026596069 -0.35717773 0 0 0 0
0.011604309 0.026596069 -0.35717773 0 0 0 0
0.013458252 0.026596069 -0.35717773 0 0 0 0
0.015304565 0.026596069 -0.35717773 0 0 0 0
0.017150879 0.026596069 -0.35717773 0 0 0 0
0.019012451 0.026596069 -0.35717773 0 0 0 0
0.020858765 0.026596069 -0.35717773 0 0 0 0
0.022705078 0.026596069 -0.35717773 0 0 0 0
0.024551392 0.026596069 -0.35717773 0 0 0 0
0.026412964 0.026596069 -0.35717773 0 0 0 0
0.028259277 0.026596069 -0.35717773 0 0 0 0
0.030105591 0.026596069 -0.35717773 0 0 0 0
0.031951904 0.026596069 -0.35717773 0 0 0 0
0.033813477 0.026596069 -0.35717773 0 0 0 0
0.035644531 0.026596069 -0.35717773 0 0 0 0
0.037506104 0.026596069 -0.35717773 0 0 0 0
0.039367676 0.026596069 -0.35717773 0 0 0 0
0.04119873 0.026596069 -0.35717773 0 0 0 0
0.043060303 0.026596069 -0.35717773 0 0 0 0
0.044891357 0.026596069 -0.35717773 0 0 0 0
0.04675293 0.026596069 -0.35717773 0 0 0 0
0.048614502 0.026596069 -0.35717773 0 0 0 0
0.050445557 0.026596069 -0.35717773 0 0 0 0
0.052307129 0.026596069 -0.35717773 0 0 0 0
0.054168701 0.026596069 -0.35717773 0 0 0 0
0.055999756 0.026596069 -0.35717773 0 0 0 0
0.057861328 0.026596069 -0.35717773 0 0 0 0
0.0597229 0.026596069 -0.35717773 0 0 0 0
0.061401367 0.026519775 -0.35620117 0 0 0 0
0.063232422 0.026519775 -0.35620117 0 0 0 0
0.065063477 0.026519775 -0.35620117 0 0 0 0
0.066894531 0.026519775 -0.35620117 0 0 0 0
0.068725586 0.026519775 -0.35620117 0 0 0 0
0.070617676 0.026519775 -0.35620117 0 0 0 0
0.07244873 0.026519775 -0.35620117 0 0 0 0
0.074279785 0.026519775 -0.35620117 0 0 0 0
0.07611084 0.026519775 -0.35620117 0 0 0 0
0.07800293 0.026519775 -0.35620117 0 0 0 0
0.079833984 0.026519775 -0.35620117 0 0 0 0
0.081665039 0.026519775 -0.35620117 0 0 0 0
0.083496094 0.026519775 -0.35620117 0 0 0 0
0.085388184 0.026519775 -0.35620117 0 0 0 0
0.087219238 0.026519775 -0.35620117 0 0 0 0
0.089050293 0.026519775 -0.35620117 0 0 0 0
0.090881348 0.026519775 -0.35620117 0 0 0 0
0.092773438 0.026519775 -0.35620117 0 0 0 0
0.094604492 0.026519775 -0.35620117 0 0 0 0
0.096435547 0.026519775 -0.35620117 0 0 0 0
0.098266602 0.026519775 -0.35620117 0 0 0 0
0.10009766 0.026519775 -0.35620117 0 0 0 0
0.10198975 0.026519775 -0.35620117 0 0 0 0
0.1038208 0.026519775 -0.35620117 0 0 0 0
0.10565186 0.026519775 -0.35620117 0 0 0 0
0.10778809 0.026596069 -0.35717773 0 0 0 0
0.10968018 0.026596069 -0.35717773 0 0 0 0
0.11151123 0.026596069 -0.35717773 0 0 0 0
0.11334229 0.026596069 -0.35717773 0 0 0 0
0.14978027 0.028610229 -0.38427734 0 0 0 0
0.15136719 0.028533936 -0.38330078 0 0 0 0
0.1529541 0.028457642 -0.38232422 0 0 0 0
0.15454102 0.028396606 -0.38134766 0 0 0 0
0.15612793 0.028320312 -0.38037109 0 0 0 0
0.15808105 0.028320312 -0.38037109 0 0 0 0
0.15966797 0.028244019 -0.37939453 0 0 0 0
0.16162109 0.028244019 -0.37939453 0 0 0 0
0.16308594 0.028167725 -0.37841797 0 0 0 0
0.16503906 0.028167725 -0.37841797 0 0 0 0
0.16748047 0.028244019 -0.37939453 0 0 0 0
0.16943359 0.028244019 -0.37939453 0 0 0 0
0.171875 0.028320312 -0.38037109 0 0 0 0
0.17382812 0.028320312 -0.38037109 0 0 0 0
0.17675781 0.028457642 -0.38232422 0 0 0 0
0.1796875 0.028610229 -0.38427734 0 0 0 0
0.18310547 0.028839111 -0.38745117 0 0 0 0
0.1875 0.029205322 -0.39233398 0 0 0 0
0.19091797 0.029434204 -0.39550781 0 0 0 0
0.19348145 0.029510498 -0.39648438 0 0 0 0
-0.032684326 0.024673462 -0.35620117 0 0 0 0
-0.030853271 0.024673462 -0.35620117 0 0 0 0
-0.029006958 0.024673462 -0.35620117 0 0 0 0
-0.027175903 0.024673462 -0.35620117 0 0 0 0
-0.02532959 0.024673462 -0.35620117 0 0 0 0
-0.023544312 0.024749756 -0.35717773 0 0 0 0
-0.021697998 0.024749756 -0.35717773 0 0 0 0
-0.019836426 0.024749756 -0.35717773 0 0 0 0
-0.017990112 0.024749756 -0.35717773 0 0 0 0
-0.016143799 0.024749756 -0.35717773 0 0 0 0
-0.014297485 0.024749756 -0.35717773 0 0 0 0
-0.012443542 0.024749756 -0.35717773 0 0 0 0
-0.0105896 0.024749756 -0.35717773 0 0 0 0
-0.0087432861 0.024749756 -0.35717773 0 0 0 0
-0.006893158 0.024749756 -0.35717773 0 0 0 0
-0.0050430298 0.024749756 -0.35717773 0 0 0 0
-0.0031929016 0.024749756 -0.35717773 0 0 0 0
-0.0013437271 0.024749756 -0.35717773 0 0 0 0
0.00050640106 0.024749756 -0.35717773 0 0 0 0
0.0023555756 0.024749756 -0.35717773 0 0 0 0
0.0042076111 0.024749756 -0.35717773 0 0 0 0
0.0060577393 0.024749756 -0.35717773 0 0 0 0
0.0079040527 0.024749756 -0.35717773 0 0 0 0
0.0097579956 0.024749756 -0.35717773 0 0 0 0
0.011604309 0.024749756 -0.35717773 0 0 0 0
0.013458252 0.024749756 -0.35717773 0 0 0 0
0.015304565 0.024749756 -0.35717773 0 0 0 0
0.017150879 0.024749756 -0.35717773 0 0 0 0
0.019012451 0.024749756 -0.35717773 0 0 0 0
0.020858765 0.024749756 -0.35717773 0 0 0 0
0.022705078 0.024749756 -0.35717773 0 0 0 0
0.024551392 0.024749756 -0.35717773 0 0 0 0
0.026412964 0.024749756 -0.35717773 0 0 0 0
0.028259277 0.024749756 -0.35717773 0 0 0 0
0.030105591 0.024749756 -0.35717773 0 0 0 0
0.031951904 0.024749756 -0.35717773 0 0 0 0
0.033813477 0.024749756 -0.35717773 0 0 0 0
0.035644531 0.024749756 -0.35717773 0 0 0 0
0.037506104 0.024749756 -0.35717773 0 0 0 0
0.039367676 0.024749756 -0.35717773 0 0 0 0
0.04119873 0.024749756 -0.35717773 0 0 0 0
0.043060303 0.024749756 -0.35717773 0 0 0 0
0.044891357 0.024749756 -0.35717773 0 0 0 0
0.04675293 0.024749756 -0.35717773 0 0 0 0
0.048614502 0.024749756 -0.35717773 0 0 0 0
0.050445557 0.024749756 -0.35717773 0 0 0 0
0.052307129 0.024749756 -0.35717773 0 0 0 0
0.054168701 0.024749756 -0.35717773 0 0 0 0
0.055999756 0.024749756 -0.35717773 0 0 0 0
0.05770874 0.024673462 -0.35620117 0 0 0 0
0.059539795 0.024673462 -0.35620117 0 0 0 0
0.061401367 0.024673462 -0.35620117 0 0 0 0
0.063232422 0.024673462 -0.35620117 0 0 0 0
0.065063477 0.024673462 -0.35620117 0 0 0 0
0.066894531 0.024673462 -0.35620117 0 0 0 0
0.068725586 0.024673462 -0.35620117 0 0 0 0
0.070617676 0.024673462 -0.35620117 0 0 0 0
0.07244873 0.024673462 -0.35620117 0 0 0 0
0.074279785 0.024673462 -0.35620117 0 0 0 0
0.07611084 0.024673462 -0.35620117 0 0 0 0
0.07800293 0.024673462 -0.35620117 0 0 0 0
0.079833984 0.024673462 -0.35620117 0 0 0 0
0.081665039 0.024673462 -0.35620117 0 0 0 0
0.083496094 0.024673462 -0.35620117 0 0 0 0
0.085388184 0.024673462 -0.35620117 0 0 0 0
0.087219238 0.024673462 -0.35620117 0 0 0 0
0.089050293 0.024673462 -0.35620117 0 0 0 0
0.090881348 0.024673462 -0.35620117 0 0 0 0
0.092773438 0.024673462 -0.35620117 0 0 0 0
0.094604492 0.024673462 -0.35620117 0 0 0 0
0.096435547 0.024673462 -0.35620117 0 0 0 0
0.098266602 0.024673462 -0.35620117 0 0 0 0
0.10009766 0.024673462 -0.35620117 0 0 0 0
0.10198975 0.024673462 -0.35620117 0 0 0 0
0.1038208 0.024673462 -0.35620117 0 0 0 0
0.10595703 0.024749756 -0.35717773 0 0 0 0
0.10778809 0.024749756 -0.35717773 0 0 0 0
0.10968018 0.024749756 -0.35717773 0 0 0 0
0.11151123 0.024749756 -0.35717773 0 0 0 0
0.15014648 0.026687622 -0.38549805 0 0 0 0
0.15185547 0.026626587 -0.38427734 0 0 0 0
0.15344238 0.026550293 -0.38330078 0 0 0 0
0.15490723 0.026489258 -0.38232422 0 0 0 0
0.15649414 0.026412964 -0.38134766 0 0 0 0
0.15808105 0.026351929 -0.38037109 0 0 0 0
0.16003418 0.026351929 -0.38037109 0 0 0 0
0.16162109 0.026275635 -0.37939453 0 0 0 0
0.16357422 0.026275635 -0.37939453 0 0 0 0
0.16552734 0.026275635 -0.37939453 0 0 0 0
0.16748047 0.026275635 -0.37939453 0 0 0 0
0.16992188 0.026351929 -0.38037109 0 0 0 0
0.171875 0.026351929 -0.38037109 0 0 0 0
0.17431641 0.026412964 -0.38134766 0 0 0 0
0.17675781 0.026489258 -0.38232422 0 0 0 0
0.1796875 0.026626587 -0.38427734 0 0 0 0
0.18310547 0.026824951 -0.38745117 0 0 0 0
0.18798828 0.027252197 -0.39331055 0 0 0 0
0.19140625 0.027450562 -0.39648438 0 0 0 0
-0.034545898 0.022827148 -0.35620117 0 0 0 0
-0.032684326 0.022827148 -0.35620117 0 0 0 0
-0.030853271 0.022827148 -0.35620117 0 0 0 0
-0.029006958 0.022827148 -0.35620117 0 0 0 0
-0.027175903 0.022827148 -0.35620117 0 0 0 0
-0.02532959 0.022827148 -0.35620117 0 0 0 0
-0.023544312 0.022888184 -0.35717773 0 0 0 0
-0.021697998 0.022888184 -0.35717773 0 0 0 0
-0.019836426 0.022888184 -0.35717773 0 0 0 0
-0.017990112 0.022888184 -0.35717773 0 0 0 0
-0.016143799 0.022888184 -0.35717773 0 0 0 0
-0.014297485 0.022888184 -0.35717773 0 0 0 0
-0.012443542 0.022888184 -0.35717773 0 0 0 0
-0.0105896 0.022888184 -0.35717773 0 0 0 0
-0.0087432861 0.022888184 -0.35717773 0 0 0 0
-0.006893158 0.022888184 -0.35717773 0 0 0 0
-0.0050430298 0.022888184 -0.35717773 0 0 0 0
-0.0031929016 0.022888184 -0.35717773 0 0 0 0
-0.0013437271 0.022888184 -0.35717773 0 0 0 0
0.00050640106 0.022888184 -0.35717773 0 0 0 0
0.0023555756 0.022888184 -0.35717773 0 0 0 0
0.0042076111 0.022888184 -0.35717773 0 0 0 0
0.0060577393 0.022888184 -0.35717773 0 0 0 0
0.0079040527 0.022888184 -0.35717773 0 0 0 0
0.0097579956 0.022888184 -0.35717773 0 0 0 0
0.011604309 0.022888184 -0.35717773 0 0 0 0
0.013458252 0.022888184 -0.35717773 0 0 0 0
0.015304565 0.022888184 -0.35717773 0 0 0 0
0.017150879 0.022888184 -0.35717773 0 0 0 0
0.019012451 0.022888184 -0.35717773 0 0 0 0
0.020858765 0.022888184 -0.35717773 0 0 0 0
0.022705078 0.022888184 -0.35717773 0 0 0 0
0.024551392 0.022888184 -0.35717773 0 0 0 0
0.026412964 0.022888184 -0.35717773 0 0 0 0
0.028259277 0.022888184 -0.35717773 0 0 0 0
0.030105591 0.022888184 -0.35717773 0 0 0 0
0.031951904 0.022888184 -0.35717773 0 0 0 0
0.033813477 0.022888184 -0.35717773 0 0 0 0
0.035644531 0.022888184 -0.35717773 0 0 0 0
0.037506104 0.022888184 -0.35717773 0 0 0 0
0.039367676 0.022888184 -0.35717773 0 0 0 0
0.04119873 0.022888184 -0.35717773 0 0 0 0
0.043060303 0.022888184 -0.35717773 0 0 0 0
0.044891357 0.022888184 -0.35717773 0 0 0 0
0.04675293 0.022888184 -0.35717773 0 0 0 0
0.048614502 0.022888184 -0.35717773 0 0 0 0
0.050445557 0.022888184 -0.35717773 0 0 0 0
0.052307129 0.022888184 -0.35717773 0 0 0 0
0.054016113 0.022827148 -0.35620117 0 0 0 0
0.055847168 0.022827148 -0.35620117 0 0 0 0
0.05770874 0.022827148 -0.35620117 0 0 0 0
0.059539795 0.022827148 -0.35620117 0 0 0 0
0.061401367 0.022827148 -0.35620117 0 0 0 0
0.063232422 0.022827148 -0.35620117 0 0 0 0
0.065063477 0.022827148 -0.35620117 0 0 0 0
0.066894531 0.022827148 -0.35620117 0 0 0 0
0.068725586 0.022827148 -0.35620117 0 0 0 0
0.070617676 0.022827148 -0.35620117 0 0 0 0
0.07244873 0.022827148 -0.35620117 0 0 0 0
0.074279785 0.022827148 -0.35620117 0 0 0 0
0.07611084 0.022827148 -0.35620117 0 0 0 0
0.07800293 0.022827148 -0.35620117 0 0 0 0
0.079833984 0.022827148 -0.35620117 0 0 0 0
0.081665039 0.022827148 -0.35620117 0 0 0 0
0.083496094 0.022827148 -0.35620117 0 0 0 0
0.085388184 0.022827148 -0.35620117 0 0 0 0
0.087219238 0.022827148 -0.35620117 0 0 0 0
0.089050293 0.022827148 -0.35620117 0 0 0 0
0.090881348 0.022827148 -0.35620117 0 0 0 0
0.092773438 0.022827148 -0.35620117 0 0 0 0
0.094604492 0.022827148 -0.35620117 0 0 0 0
0.096435547 0.022827148 -0.35620117 0 0 0 0
0.098266602 0.022827148 -0.35620117 0 0 0 0
0.10009766 0.022827148 -0.35620117 0 0 0 0
0.10198975 0.022827148 -0.35620117 0 0 0 0
0.1038208 0.022827148 -0.35620117 0 0 0 0
0.10595703 0.022888184 -0.35717773 0 0 0 0
0.10778809 0.022888184 -0.35717773 0 0 0 0
0.10968018 0.022888184 -0.35717773 0 0 0 0
0.15283203 0.025466919 -0.39746094 0 0 0 0
0.15100098 0.02482605 -0.38745117 0 0 0 0
0.15222168 0.024688721 -0.38549805 0 0 0 0
0.15380859 0.024627686 -0.38427734 0 0 0 0
0.15539551 0.02456665 -0.38330078 0 0 0 0
0.15698242 0.024505615 -0.38232422 0 0 0 0
0.15856934 0.02444458 -0.38134766 0 0 0 0
0.16003418 0.024368286 -0.38037109 0 0 0 0
0.1619873 0.024368286 -0.38037109 0 0 0 0
0.1640625 0.024368286 -0.38037109 0 0 0 0
0.16601562 0.024368286 -0.38037109 0 0 0 0
0.16796875 0.024368286 -0.38037109 0 0 0 0
0.16992188 0.024368286 -0.38037109 0 0 0 0
0.17236328 0.02444458 -0.38134766 0 0 0 0
0.17431641 0.02444458 -0.38134766 0 0 0 0
0.17675781 0.024505615 -0.38232422 0 0 0 0
-0.036376953 0.020980835 -0.35620117 0 0 0 0
-0.034545898 0.020980835 -0.35620117 0 0 0 0
-0.032684326 0.020980835 -0.35620117 0 0 0 0
-0.030853271 0.020980835 -0.35620117 0 0 0 0
-0.029006958 0.020980835 -0.35620117 0 0 0 0
-0.027175903 0.020980835 -0.35620117 0 0 0 0
-0.025390625 0.02104187 -0.35717773 0 0 0 0
-0.023544312 0.02104187 -0.35717773 0 0 0 0
-0.021697998 0.02104187 -0.35717773 0 0 0 0
-0.019836426 0.02104187 -0.35717773 0 0 0 0
-0.017990112 0.02104187 -0.35717773 0 0 0 0
-0.016143799 0.02104187 -0.35717773 0 0 0 0
-0.014297485 0.02104187 -0.35717773 0 0 0 0
-0.012443542 0.02104187 -0.35717773 0 0 0 0
-0.0105896 0.02104187 -0.35717773 0 0 0 0
-0.0087432861 0.02104187 -0.35717773 0 0 0 0
-0.006893158 0.02104187 -0.35717773 0 0 0 0
-0.0050430298 0.02104187 -0.35717773 0 0 0 0
-0.0031929016 0.02104187 -0.35717773 0 0 0 0
-0.0013437271 0.02104187 -0.35717773 0 0 0 0
0.00050640106 0.02104187 -0.35717773 0 0 0 0
0.0023555756 0.02104187 -0.35717773 0 0 0 0
0.0042076111 0.02104187 -0.35717773 0 0 0 0
0.0060577393 0.02104187 -0.35717773 0 0 0 0
0.0079040527 0.02104187 -0.35717773 0 0 0 0
0.0097579956 0.02104187 -0.35717773 0 0 0 0
0.011604309 0.02104187 -0.35717773 0 0 0 0
0.013458252 0.02104187 -0.35717773 0 0 0 0
0.015304565 0.02104187 -0.35717773 0 0 0 0
0.017150879 0.02104187 -0.35717773 0 0 0 0
0.019012451 0.02104187 -0.35717773 0 0 0 0
0.020858765 0.02104187 -0.35717773 0 0 0 0
0.022705078 0.02104187 -0.35717773 0 0 0 0
0.024551392 0.02104187 -0.35717773 0 0 0 0
0.026412964 0.02104187 -0.35717773 0 0 0 0
0.028259277 0.02104187 -0.35717773 0 0 0 0
0.030105591 0.02104187 -0.35717773 0 0 0 0
0.031951904 0.02104187 -0.35717773 0 0 0 0
0.033813477 0.02104187 -0.35717773 0 0 0 0
0.035644531 0.02104187 -0.35717773 0 0 0 0
0.037506104 0.02104187 -0.35717773 0 0 0 0
0.039367676 0.02104187 -0.35717773 0 0 0 0
0.04119873 0.02104187 -0.35717773 0 0 0 0
0.043060303 0.02104187 -0.35717773 0 0 0 0
0.044891357 0.02104187 -0.35717773 0 0 0 0
0.046630859 0.020980835 -0.35620117 0 0 0 0
0.048461914 0.020980835 -0.35620117 0 0 0 0
0.050323486 0.020980835 -0.35620117 0 0 0 0
0.052154541 0.020980835 -0.35620117 0 0 0 0
0.054016113 0.020980835 -0.35620117 0 0 0 0
0.055847168 0.020980835 -0.35620117 0 0 0 0
0.05770874 0.020980835 -0.35620117 0 0 0 0
0.059539795 0.020980835 -0.35620117 0 0 0 0
0.061401367 0.020980835 -0.35620117 0 0 0 0
0.063232422 0.020980835 -0.35620117 0 0 0 0
0.065063477 0.020980835 -0.35620117 0 0 0 0
0.066894531 0.020980835 -0.35620117 0 0 0 0
0.068725586 0.020980835 -0.35620117 0 0 0 0
0.070617676 0.020980835 -0.35620117 0 0 0 0
0.07244873 0.020980835 -0.35620117 0 0 0 0
0.074279785 0.020980835 -0.35620117 0 0 0 0
0.07611084 0.020980835 -0.35620117 0 0 0 0
0.07800293 0.020980835 -0.35620117 0 0 0 0
0.079833984 0.020980835 -0.35620117 0 0 0 0
0.081665039 0.020980835 -0.35620117 0 0 0 0
0.083496094 0.020980835 -0.35620117 0 0 0 0
0.085388184 0.020980835 -0.35620117 0 0 0 0
0.087219238 0.020980835 -0.35620117 0 0 0 0
0.089050293 0.020980835 -0.35620117 0 0 0 0
0.090881348 0.020980835 -0.35620117 0 0 0 0
0.092773438 0.020980835 -0.35620117 0 0 0 0
0.094604492 0.020980835 -0.35620117 0 0 0 0
0.096435547 0.020980835 -0.35620117 0 0 0 0
0.098266602 0.020980835 -0.35620117 0 0 0 0
0.10009766 0.020980835 -0.35620117 0 0 0 0
0.10198975 0.020980835 -0.35620117 0 0 0 0
0.1038208 0.020980835 -0.35620117 0 0 0 0
0.15209961 0.023284912 -0.39550781 0 0 0 0
0.15136719 0.022872925 -0.38842773 0 0 0 0
0.15258789 0.022766113 -0.38647461 0 0 0 0
0.15380859 0.022644043 -0.38427734 0 0 0 0
0.15539551 0.022583008 -0.38330078 0 0 0 0
0.15698242 0.022521973 -0.38232422 0 0 0 0
0.15856934 0.022460938 -0.38134766 0 0 0 0
0.16003418 0.022399902 -0.38037109 0 0 0 0
0.1619873 0.022399902 -0.38037109 0 0 0 0
0.1640625 0.022399902 -0.38037109 0 0 0 0
0.16601562 0.022399902 -0.38037109 0 0 0 0
