ply
format ascii 1.0
comment PCL generated
element vertex 1099
property float x
property float y
property float z
property float nx
property float ny
property float nz
property float curvature
element face 0
element camera 0
property float view_px
property float view_py
property float view_pz
property float x_axisx
property float x_axisy
property float x_axisz
property float y_axisx
property float y_axisy
property float y_axisz
property float z_axisx
property float z_axisy
property float z_axisz
property float focal
property float scalex
property float scaley
property float centerx
property float centery
property int viewportx
property int viewporty
property float k1
property float k2
end_header
0.083984375 0.071166992 -0.35839844 0 0 0 0
0.08581543 0.071166992 -0.35839844 0 0 0 0
0.08770752 0.071166992 -0.35839844 0 0 0 0
0.089294434 0.070983887 -0.35717773 0 0 0 0
0.12414551 0.070800781 -0.35620117 0 0 0 0
0.12561035 0.070617676 -0.35522461 0 0 0 0
0.1270752 0.070373535 -0.35424805 0 0 0 0
0.12854004 0.07019043 -0.35327148 0 0 0 0
0.13037109 0.07019043 -0.35327148 0 0 0 0
0.13183594 0.070007324 -0.35229492 0 0 0 0
0.13330078 0.069763184 -0.35131836 0 0 0 0
0.13464355 0.069580078 -0.3503418 0 0 0 0
0.1361084 0.069396973 -0.34912109 0 0 0 0
0.13757324 0.069213867 -0.34814453 0 0 0 0
0.13928223 0.069213867 -0.34814453 0 0 0 0
0.14074707 0.068969727 -0.34716797 0 0 0 0
0.14208984 0.068786621 -0.34619141 0 0 0 0
0.14343262 0.068603516 -0.34521484 0 0 0 0
0.14489746 0.06842041 -0.34423828 0 0 0 0
0.14660645 0.06842041 -0.34423828 0 0 0 0
0.14794922 0.06817627 -0.34326172 0 0 0 0
0.14929199 0.067993164 -0.34228516 0 0 0 0
0.15063477 0.067810059 -0.34130859 0 0 0 0
0.15197754 0.067626953 -0.34008789 0 0 0 0
0.15332031 0.067382812 -0.33911133 0 0 0 0
0.1550293 0.067382812 -0.33911133 0 0 0 0
0.15637207 0.067199707 -0.33813477 0 0 0 0
0.15759277 0.067016602 -0.3371582 0 0 0 0
0.15844727 0.066589355 -0.33520508 0 0 0 0
0.15966797 0.06640625 -0.33422852 0 0 0 0
0.16088867 0.066223145 -0.33325195 0 0 0 0
0.16210938 0.065979004 -0.33227539 0 0 0 0
0.16333008 0.065795898 -0.33105469 0 0 0 0
0.16503906 0.065795898 -0.33105469 0 0 0 0
0.16625977 0.065612793 -0.33007812 0 0 0 0
0.16748047 0.065429688 -0.32910156 0 0 0 0
0.16870117 0.065185547 -0.328125 0 0 0 0
0.16992188 0.065002441 -0.32714844 0 0 0 0
0.17150879 0.065002441 -0.32714844 0 0 0 0
0.17272949 0.064819336 -0.32617188 0 0 0 0
0.17382812 0.064575195 -0.32519531 0 0 0 0
0.17504883 0.06439209 -0.32421875 0 0 0 0
0.17675781 0.06439209 -0.32421875 0 0 0 0
0.17785645 0.064208984 -0.32324219 0 0 0 0
0.17895508 0.064025879 -0.32202148 0 0 0 0
0.18066406 0.064025879 -0.32202148 0 0 0 0
0.18225098 0.064025879 -0.32202148 0 0 0 0
0.18334961 0.063781738 -0.32104492 0 0 0 0
0.18505859 0.063781738 -0.32104492 0 0 0 0
0.18615723 0.063598633 -0.32006836 0 0 0 0
0.18774414 0.063598633 -0.32006836 0 0 0 0
0.18884277 0.063415527 -0.3190918 0 0 0 0
0.19055176 0.063415527 -0.3190918 0 0 0 0
0.19152832 0.063232422 -0.31811523 0 0 0 0
0.024688721 0.069519043 -0.359375 0 0 0 0
0.026550293 0.069519043 -0.359375 0 0 0 0
0.028411865 0.069519043 -0.359375 0 0 0 0
0.030273438 0.069519043 -0.359375 0 0 0 0
0.03213501 0.069519043 -0.359375 0 0 0 0
0.033996582 0.069519043 -0.359375 0 0 0 0
0.035858154 0.069519043 -0.359375 0 0 0 0
0.037719727 0.069519043 -0.359375 0 0 0 0
0.039581299 0.069519043 -0.359375 0 0 0 0
0.041442871 0.069519043 -0.359375 0 0 0 0
0.043304443 0.069519043 -0.359375 0 0 0 0
0.045166016 0.069519043 -0.359375 0 0 0 0
0.047027588 0.069519043 -0.359375 0 0 0 0
0.04888916 0.069519043 -0.359375 0 0 0 0
0.050750732 0.069519043 -0.359375 0 0 0 0
0.052612305 0.069519043 -0.359375 0 0 0 0
0.054473877 0.069519043 -0.359375 0 0 0 0
0.056335449 0.069519043 -0.359375 0 0 0 0
0.058197021 0.069519043 -0.359375 0 0 0 0
0.060058594 0.069519043 -0.359375 0 0 0 0
0.061920166 0.069519043 -0.359375 0 0 0 0
0.063781738 0.069519043 -0.359375 0 0 0 0
0.065612793 0.069519043 -0.359375 0 0 0 0
0.067504883 0.069519043 -0.359375 0 0 0 0
0.069152832 0.069335938 -0.35839844 0 0 0 0
0.070983887 0.069335938 -0.35839844 0 0 0 0
0.072875977 0.069335938 -0.35839844 0 0 0 0
0.074707031 0.069335938 -0.35839844 0 0 0 0
0.076538086 0.069335938 -0.35839844 0 0 0 0
0.078430176 0.069335938 -0.35839844 0 0 0 0
0.08026123 0.069335938 -0.35839844 0 0 0 0
0.08215332 0.069335938 -0.35839844 0 0 0 0
0.083984375 0.069335938 -0.35839844 0 0 0 0
0.08581543 0.069335938 -0.35839844 0 0 0 0
0.08770752 0.069335938 -0.35839844 0 0 0 0
0.089294434 0.069152832 -0.35717773 0 0 0 0
0.091186523 0.069152832 -0.35717773 0 0 0 0
0.1361084 0.067565918 -0.34912109 0 0 0 0
0.13793945 0.067565918 -0.34912109 0 0 0 0
0.13928223 0.067382812 -0.34814453 0 0 0 0
0.14111328 0.067382812 -0.34814453 0 0 0 0
0.14257812 0.067199707 -0.34716797 0 0 0 0
0.1439209 0.067016602 -0.34619141 0 0 0 0
0.14526367 0.066833496 -0.34521484 0 0 0 0
0.14660645 0.066589355 -0.34423828 0 0 0 0
0.1484375 0.066589355 -0.34423828 0 0 0 0
0.14978027 0.06640625 -0.34326172 0 0 0 0
0.15112305 0.066223145 -0.34228516 0 0 0 0
0.15246582 0.066040039 -0.34130859 0 0 0 0
0.1541748 0.066040039 -0.34130859 0 0 0 0
0.15551758 0.065856934 -0.34008789 0 0 0 0
0.15673828 0.065612793 -0.33911133 0 0 0 0
0.15808105 0.065429688 -0.33813477 0 0 0 0
0.15930176 0.065246582 -0.3371582 0 0 0 0
0.16015625 0.064880371 -0.33520508 0 0 0 0
0.16137695 0.064697266 -0.33422852 0 0 0 0
0.16259766 0.064453125 -0.33325195 0 0 0 0
0.16381836 0.06427002 -0.33227539 0 0 0 0
0.16503906 0.064086914 -0.33105469 0 0 0 0
0.16674805 0.064086914 -0.33105469 0 0 0 0
0.16796875 0.063903809 -0.33007812 0 0 0 0
0.16918945 0.063720703 -0.32910156 0 0 0 0
0.17041016 0.063476562 -0.328125 0 0 0 0
0.17150879 0.063293457 -0.32714844 0 0 0 0
0.17272949 0.063110352 -0.32617188 0 0 0 0
0.17382812 0.062927246 -0.32519531 0 0 0 0
0.17553711 0.062927246 -0.32519531 0 0 0 0
0.17675781 0.062744141 -0.32421875 0 0 0 0
0.17785645 0.062561035 -0.32324219 0 0 0 0
0.17944336 0.062561035 -0.32324219 0 0 0 0
0.18115234 0.062561035 -0.32324219 0 0 0 0
0.18225098 0.062347412 -0.32202148 0 0 0 0
0.18395996 0.062347412 -0.32202148 0 0 0 0
0.18505859 0.062164307 -0.32104492 0 0 0 0
0.18664551 0.062164307 -0.32104492 0 0 0 0
0.18774414 0.061950684 -0.32006836 0 0 0 0
0.18945312 0.061950684 -0.32006836 0 0 0 0
0.19055176 0.061767578 -0.3190918 0 0 0 0
0.020965576 0.067687988 -0.359375 0 0 0 0
0.022827148 0.067687988 -0.359375 0 0 0 0
0.024688721 0.067687988 -0.359375 0 0 0 0
0.026550293 0.067687988 -0.359375 0 0 0 0
0.028411865 0.067687988 -0.359375 0 0 0 0
0.030273438 0.067687988 -0.359375 0 0 0 0
0.03213501 0.067687988 -0.359375 0 0 0 0
0.033996582 0.067687988 -0.359375 0 0 0 0
0.035858154 0.067687988 -0.359375 0 0 0 0
0.037719727 0.067687988 -0.359375 0 0 0 0
0.039581299 0.067687988 -0.359375 0 0 0 0
0.041442871 0.067687988 -0.359375 0 0 0 0
0.043304443 0.067687988 -0.359375 0 0 0 0
0.045166016 0.067687988 -0.359375 0 0 0 0
0.047027588 0.067687988 -0.359375 0 0 0 0
0.04888916 0.067687988 -0.359375 0 0 0 0
0.050750732 0.067687988 -0.359375 0 0 0 0
0.052612305 0.067687988 -0.359375 0 0 0 0
0.054473877 0.067687988 -0.359375 0 0 0 0
0.056335449 0.067687988 -0.359375 0 0 0 0
0.058197021 0.067687988 -0.359375 0 0 0 0
0.060058594 0.067687988 -0.359375 0 0 0 0
0.061920166 0.067687988 -0.359375 0 0 0 0
0.063781738 0.067687988 -0.359375 0 0 0 0
0.065429688 0.067504883 -0.35839844 0 0 0 0
0.067260742 0.067504883 -0.35839844 0 0 0 0
0.069152832 0.067504883 -0.35839844 0 0 0 0
0.070983887 0.067504883 -0.35839844 0 0 0 0
0.072875977 0.067504883 -0.35839844 0 0 0 0
0.074707031 0.067504883 -0.35839844 0 0 0 0
0.076538086 0.067504883 -0.35839844 0 0 0 0
0.078430176 0.067504883 -0.35839844 0 0 0 0
0.08026123 0.067504883 -0.35839844 0 0 0 0
0.08215332 0.067504883 -0.35839844 0 0 0 0
0.083984375 0.067504883 -0.35839844 0 0 0 0
0.08581543 0.067504883 -0.35839844 0 0 0 0
0.087463379 0.067260742 -0.35717773 0 0 0 0
0.089294434 0.067260742 -0.35717773 0 0 0 0
0.091186523 0.067260742 -0.35717773 0 0 0 0
0.093017578 0.067260742 -0.35717773 0 0 0 0
0.13806152 0.071472168 -0.37939453 0 0 0 0
0.14001465 0.071472168 -0.37939453 0 0 0 0
0.14196777 0.071472168 -0.37939453 0 0 0 0
0.1439209 0.071472168 -0.37939453 0 0 0 0
0.13647461 0.065979004 -0.3503418 0 0 0 0
0.13793945 0.065795898 -0.34912109 0 0 0 0
0.13977051 0.065795898 -0.34912109 0 0 0 0
0.14111328 0.065612793 -0.34814453 0 0 0 0
0.14257812 0.065368652 -0.34716797 0 0 0 0
0.14428711 0.065368652 -0.34716797 0 0 0 0
0.14575195 0.065185547 -0.34619141 0 0 0 0
0.14709473 0.065002441 -0.34521484 0 0 0 0
0.1484375 0.064819336 -0.34423828 0 0 0 0
0.15014648 0.064819336 -0.34423828 0 0 0 0
0.15148926 0.06463623 -0.34326172 0 0 0 0
0.15283203 0.064453125 -0.34228516 0 0 0 0
0.15466309 0.064453125 -0.34228516 0 0 0 0
0.15600586 0.06427002 -0.34130859 0 0 0 0
0.15722656 0.064086914 -0.34008789 0 0 0 0
0.15856934 0.063903809 -0.33911133 0 0 0 0
0.15979004 0.063720703 -0.33813477 0 0 0 0
0.16113281 0.063476562 -0.3371582 0 0 0 0
0.16186523 0.063110352 -0.33520508 0 0 0 0
0.16308594 0.062927246 -0.33422852 0 0 0 0
0.16430664 0.062744141 -0.33325195 0 0 0 0
0.16564941 0.062561035 -0.33227539 0 0 0 0
0.1673584 0.062561035 -0.33227539 0 0 0 0
0.1685791 0.06237793 -0.33105469 0 0 0 0
0.16967773 0.062194824 -0.33007812 0 0 0 0
0.17089844 0.062011719 -0.32910156 0 0 0 0
0.17211914 0.061828613 -0.328125 0 0 0 0
0.17321777 0.06161499 -0.32714844 0 0 0 0
0.17443848 0.061431885 -0.32617188 0 0 0 0
0.17553711 0.061248779 -0.32519531 0 0 0 0
0.17724609 0.061248779 -0.32519531 0 0 0 0
0.17834473 0.061065674 -0.32421875 0 0 0 0
0.17944336 0.060882568 -0.32324219 0 0 0 0
0.18115234 0.060882568 -0.32324219 0 0 0 0
0.18286133 0.060882568 -0.32324219 0 0 0 0
0.18395996 0.060668945 -0.32202148 0 0 0 0
0.18566895 0.060668945 -0.32202148 0 0 0 0
0.18664551 0.06048584 -0.32104492 0 0 0 0
0.18835449 0.06048584 -0.32104492 0 0 0 0
0.18945312 0.060302734 -0.32006836 0 0 0 0
0.19104004 0.060302734 -0.32006836 0 0 0 0
0.01725769 0.065795898 -0.359375 0 0 0 0
0.019119263 0.065795898 -0.359375 0 0 0 0
0.020965576 0.065795898 -0.359375 0 0 0 0
0.022827148 0.065795898 -0.359375 0 0 0 0
0.024688721 0.065795898 -0.359375 0 0 0 0
0.026550293 0.065795898 -0.359375 0 0 0 0
0.028411865 0.065795898 -0.359375 0 0 0 0
0.030273438 0.065795898 -0.359375 0 0 0 0
0.03213501 0.065795898 -0.359375 0 0 0 0
0.033996582 0.065795898 -0.359375 0 0 0 0
0.035858154 0.065795898 -0.359375 0 0 0 0
0.037719727 0.065795898 -0.359375 0 0 0 0
0.039581299 0.065795898 -0.359375 0 0 0 0
0.041442871 0.065795898 -0.359375 0 0 0 0
0.043304443 0.065795898 -0.359375 0 0 0 0
0.045166016 0.065795898 -0.359375 0 0 0 0
0.047027588 0.065795898 -0.359375 0 0 0 0
0.04888916 0.065795898 -0.359375 0 0 0 0
0.050750732 0.065795898 -0.359375 0 0 0 0
0.052612305 0.065795898 -0.359375 0 0 0 0
0.054473877 0.065795898 -0.359375 0 0 0 0
0.056335449 0.065795898 -0.359375 0 0 0 0
0.058197021 0.065795898 -0.359375 0 0 0 0
0.060058594 0.065795898 -0.359375 0 0 0 0
0.061920166 0.065795898 -0.359375 0 0 0 0
0.063598633 0.065612793 -0.35839844 0 0 0 0
0.065429688 0.065612793 -0.35839844 0 0 0 0
0.067260742 0.065612793 -0.35839844 0 0 0 0
0.069152832 0.065612793 -0.35839844 0 0 0 0
0.070983887 0.065612793 -0.35839844 0 0 0 0
0.072875977 0.065612793 -0.35839844 0 0 0 0
0.074707031 0.065612793 -0.35839844 0 0 0 0
0.076538086 0.065612793 -0.35839844 0 0 0 0
0.078430176 0.065612793 -0.35839844 0 0 0 0
0.08026123 0.065612793 -0.35839844 0 0 0 0
0.08215332 0.065612793 -0.35839844 0 0 0 0
0.083984375 0.065612793 -0.35839844 0 0 0 0
0.08581543 0.065612793 -0.35839844 0 0 0 0
0.087463379 0.065429688 -0.35717773 0 0 0 0
0.089294434 0.065429688 -0.35717773 0 0 0 0
0.091186523 0.065429688 -0.35717773 0 0 0 0
0.093017578 0.065429688 -0.35717773 0 0 0 0
0.13647461 0.069641113 -0.38037109 0 0 0 0
0.13842773 0.069641113 -0.38037109 0 0 0 0
0.14001465 0.069458008 -0.37939453 0 0 0 0
0.14196777 0.069458008 -0.37939453 0 0 0 0
0.1439209 0.069458008 -0.37939453 0 0 0 0
0.14587402 0.069458008 -0.37939453 0 0 0 0
0.13977051 0.063964844 -0.34912109 0 0 0 0
0.14111328 0.063781738 -0.34814453 0 0 0 0
0.14294434 0.063781738 -0.34814453 0 0 0 0
0.14428711 0.063598633 -0.34716797 0 0 0 0
0.14575195 0.063415527 -0.34619141 0 0 0 0
0.14746094 0.063415527 -0.34619141 0 0 0 0
0.14880371 0.063232422 -0.34521484 0 0 0 0
0.15014648 0.063049316 -0.34423828 0 0 0 0
0.15197754 0.063049316 -0.34423828 0 0 0 0
0.15332031 0.062866211 -0.34326172 0 0 0 0
0.15515137 0.062866211 -0.34326172 0 0 0 0
0.15637207 0.062683105 -0.34228516 0 0 0 0
0.15771484 0.0625 -0.34130859 0 0 0 0
0.15905762 0.062316895 -0.34008789 0 0 0 0
0.16027832 0.062133789 -0.33911133 0 0 0 0
0.16162109 0.061950684 -0.33813477 0 0 0 0
0.1628418 0.061767578 -0.3371582 0 0 0 0
0.1640625 0.061584473 -0.33618164 0 0 0 0
0.16491699 0.061218262 -0.33422852 0 0 0 0
0.1661377 0.061035156 -0.33325195 0 0 0 0
0.16784668 0.061035156 -0.33325195 0 0 0 0
0.16906738 0.060852051 -0.33227539 0 0 0 0
0.17028809 0.060668945 -0.33105469 0 0 0 0
0.17138672 0.06048584 -0.33007812 0 0 0 0
0.17260742 0.060302734 -0.32910156 0 0 0 0
0.17382812 0.060119629 -0.328125 0 0 0 0
0.17492676 0.059936523 -0.32714844 0 0 0 0
0.17614746 0.059753418 -0.32617188 0 0 0 0
0.17724609 0.059570312 -0.32519531 0 0 0 0
0.17895508 0.059570312 -0.32519531 0 0 0 0
0.18005371 0.059387207 -0.32421875 0 0 0 0
0.1817627 0.059387207 -0.32421875 0 0 0 0
0.18286133 0.059204102 -0.32324219 0 0 0 0
0.18457031 0.059204102 -0.32324219 0 0 0 0
0.18566895 0.059020996 -0.32202148 0 0 0 0
0.18725586 0.059020996 -0.32202148 0 0 0 0
0.18835449 0.058837891 -0.32104492 0 0 0 0
0.19006348 0.058837891 -0.32104492 0 0 0 0
0.19104004 0.058654785 -0.32006836 0 0 0 0
0.015396118 0.063964844 -0.359375 0 0 0 0
0.01725769 0.063964844 -0.359375 0 0 0 0
0.019119263 0.063964844 -0.359375 0 0 0 0
0.020965576 0.063964844 -0.359375 0 0 0 0
0.022827148 0.063964844 -0.359375 0 0 0 0
0.024688721 0.063964844 -0.359375 0 0 0 0
0.026550293 0.063964844 -0.359375 0 0 0 0
0.028411865 0.063964844 -0.359375 0 0 0 0
0.030273438 0.063964844 -0.359375 0 0 0 0
0.03213501 0.063964844 -0.359375 0 0 0 0
0.033996582 0.063964844 -0.359375 0 0 0 0
0.035766602 0.063781738 -0.35839844 0 0 0 0
0.037597656 0.063781738 -0.35839844 0 0 0 0
0.039581299 0.063964844 -0.359375 0 0 0 0
0.041442871 0.063964844 -0.359375 0 0 0 0
0.043304443 0.063964844 -0.359375 0 0 0 0
0.045166016 0.063964844 -0.359375 0 0 0 0
0.047027588 0.063964844 -0.359375 0 0 0 0
0.04888916 0.063964844 -0.359375 0 0 0 0
0.050750732 0.063964844 -0.359375 0 0 0 0
0.052612305 0.063964844 -0.359375 0 0 0 0
0.054473877 0.063964844 -0.359375 0 0 0 0
0.056335449 0.063964844 -0.359375 0 0 0 0
0.058197021 0.063964844 -0.359375 0 0 0 0
0.060058594 0.063964844 -0.359375 0 0 0 0
0.061737061 0.063781738 -0.35839844 0 0 0 0
0.063598633 0.063781738 -0.35839844 0 0 0 0
0.065429688 0.063781738 -0.35839844 0 0 0 0
0.067260742 0.063781738 -0.35839844 0 0 0 0
0.069152832 0.063781738 -0.35839844 0 0 0 0
0.070983887 0.063781738 -0.35839844 0 0 0 0
0.072875977 0.063781738 -0.35839844 0 0 0 0
0.074707031 0.063781738 -0.35839844 0 0 0 0
0.076538086 0.063781738 -0.35839844 0 0 0 0
0.078430176 0.063781738 -0.35839844 0 0 0 0
0.08026123 0.063781738 -0.35839844 0 0 0 0
0.08215332 0.063781738 -0.35839844 0 0 0 0
0.083984375 0.063781738 -0.35839844 0 0 0 0
0.085632324 0.063598633 -0.35717773 0 0 0 0
0.087463379 0.063598633 -0.35717773 0 0 0 0
0.089294434 0.063598633 -0.35717773 0 0 0 0
0.091186523 0.063598633 -0.35717773 0 0 0 0
0.093017578 0.063598633 -0.35717773 0 0 0 0
0.094848633 0.063598633 -0.35717773 0 0 0 0
0.13684082 0.067871094 -0.38134766 0 0 0 0
0.13842773 0.067687988 -0.38037109 0 0 0 0
0.14038086 0.067687988 -0.38037109 0 0 0 0
0.14233398 0.067687988 -0.38037109 0 0 0 0
0.1439209 0.067504883 -0.37939453 0 0 0 0
0.14624023 0.067687988 -0.38037109 0 0 0 0
0.14819336 0.067687988 -0.38037109 0 0 0 0
0.15026855 0.067687988 -0.38037109 0 0 0 0
0.14294434 0.061981201 -0.34814453 0 0 0 0
0.14428711 0.061828613 -0.34716797 0 0 0 0
0.14611816 0.061828613 -0.34716797 0 0 0 0
0.14746094 0.061645508 -0.34619141 0 0 0 0
0.14880371 0.061462402 -0.34521484 0 0 0 0
0.15063477 0.061462402 -0.34521484 0 0 0 0
0.15197754 0.061279297 -0.34423828 0 0 0 0
0.15380859 0.061279297 -0.34423828 0 0 0 0
0.15515137 0.061096191 -0.34326172 0 0 0 0
0.15686035 0.061096191 -0.34326172 0 0 0 0
0.15820312 0.060913086 -0.34228516 0 0 0 0
0.1595459 0.06072998 -0.34130859 0 0 0 0
0.1607666 0.060577393 -0.34008789 0 0 0 0
0.16210938 0.060394287 -0.33911133 0 0 0 0
0.16333008 0.060211182 -0.33813477 0 0 0 0
0.16455078 0.060028076 -0.3371582 0 0 0 0
0.16589355 0.059844971 -0.33618164 0 0 0 0
0.16711426 0.059661865 -0.33520508 0 0 0 0
0.16833496 0.05947876 -0.33422852 0 0 0 0
0.16955566 0.059326172 -0.33325195 0 0 0 0
0.17077637 0.059143066 -0.33227539 0 0 0 0
0.17199707 0.058959961 -0.33105469 0 0 0 0
0.1730957 0.058776855 -0.33007812 0 0 0 0
0.17382812 0.058410645 -0.328125 0 0 0 0
0.17553711 0.058410645 -0.328125 0 0 0 0
0.17663574 0.058227539 -0.32714844 0 0 0 0
0.17773438 0.058074951 -0.32617188 0 0 0 0
0.17895508 0.057891846 -0.32519531 0 0 0 0
0.18066406 0.057891846 -0.32519531 0 0 0 0
0.1817627 0.05770874 -0.32421875 0 0 0 0
0.18347168 0.05770874 -0.32421875 0 0 0 0
0.18457031 0.057525635 -0.32324219 0 0 0 0
0.18615723 0.057525635 -0.32324219 0 0 0 0
0.18725586 0.057342529 -0.32202148 0 0 0 0
0.18896484 0.057342529 -0.32202148 0 0 0 0
0.19006348 0.057159424 -0.32104492 0 0 0 0
0.011672974 0.062103271 -0.359375 0 0 0 0
0.013534546 0.062103271 -0.359375 0 0 0 0
0.015396118 0.062103271 -0.359375 0 0 0 0
0.01725769 0.062103271 -0.359375 0 0 0 0
0.019119263 0.062103271 -0.359375 0 0 0 0
0.020965576 0.062103271 -0.359375 0 0 0 0
0.022827148 0.062103271 -0.359375 0 0 0 0
0.024688721 0.062103271 -0.359375 0 0 0 0
0.026550293 0.062103271 -0.359375 0 0 0 0
0.028411865 0.062103271 -0.359375 0 0 0 0
0.030273438 0.062103271 -0.359375 0 0 0 0
0.032043457 0.061920166 -0.35839844 0 0 0 0
0.033905029 0.061920166 -0.35839844 0 0 0 0
0.035766602 0.061920166 -0.35839844 0 0 0 0
0.037597656 0.061920166 -0.35839844 0 0 0 0
0.039459229 0.061920166 -0.35839844 0 0 0 0
0.041320801 0.061920166 -0.35839844 0 0 0 0
0.043182373 0.061920166 -0.35839844 0 0 0 0
0.045043945 0.061920166 -0.35839844 0 0 0 0
0.046875 0.061920166 -0.35839844 0 0 0 0
0.048736572 0.061920166 -0.35839844 0 0 0 0
0.050750732 0.062103271 -0.359375 0 0 0 0
0.052612305 0.062103271 -0.359375 0 0 0 0
0.054473877 0.062103271 -0.359375 0 0 0 0
0.056335449 0.062103271 -0.359375 0 0 0 0
0.058197021 0.062103271 -0.359375 0 0 0 0
0.059875488 0.061920166 -0.35839844 0 0 0 0
0.061737061 0.061920166 -0.35839844 0 0 0 0
0.063598633 0.061920166 -0.35839844 0 0 0 0
0.065429688 0.061920166 -0.35839844 0 0 0 0
0.067260742 0.061920166 -0.35839844 0 0 0 0
0.069152832 0.061920166 -0.35839844 0 0 0 0
0.070983887 0.061920166 -0.35839844 0 0 0 0
0.072875977 0.061920166 -0.35839844 0 0 0 0
0.074707031 0.061920166 -0.35839844 0 0 0 0
0.076538086 0.061920166 -0.35839844 0 0 0 0
0.078430176 0.061920166 -0.35839844 0 0 0 0
0.08026123 0.061920166 -0.35839844 0 0 0 0
0.08215332 0.061920166 -0.35839844 0 0 0 0
0.083984375 0.061920166 -0.35839844 0 0 0 0
0.085632324 0.061737061 -0.35717773 0 0 0 0
0.087463379 0.061737061 -0.35717773 0 0 0 0
0.089294434 0.061737061 -0.35717773 0 0 0 0
0.091186523 0.061737061 -0.35717773 0 0 0 0
0.093017578 0.061737061 -0.35717773 0 0 0 0
0.094848633 0.061737061 -0.35717773 0 0 0 0
0.096679688 0.061737061 -0.35717773 0 0 0 0
0.13513184 0.066101074 -0.38232422 0 0 0 0
0.13684082 0.065917969 -0.38134766 0 0 0 0
0.13879395 0.065917969 -0.38134766 0 0 0 0
0.14074707 0.065917969 -0.38134766 0 0 0 0
0.14233398 0.065734863 -0.38037109 0 0 0 0
0.14428711 0.065734863 -0.38037109 0 0 0 0
0.14624023 0.065734863 -0.38037109 0 0 0 0
0.14819336 0.065734863 -0.38037109 0 0 0 0
0.15063477 0.065917969 -0.38134766 0 0 0 0
0.1529541 0.066101074 -0.38232422 0 0 0 0
0.15490723 0.066101074 -0.38232422 0 0 0 0
0.15698242 0.066101074 -0.38232422 0 0 0 0
0.14611816 0.060028076 -0.34716797 0 0 0 0
0.14746094 0.059844971 -0.34619141 0 0 0 0
0.14929199 0.059844971 -0.34619141 0 0 0 0
0.15063477 0.059661865 -0.34521484 0 0 0 0
0.15246582 0.059661865 -0.34521484 0 0 0 0
0.1541748 0.059661865 -0.34521484 0 0 0 0
0.15551758 0.059509277 -0.34423828 0 0 0 0
0.15734863 0.059509277 -0.34423828 0 0 0 0
0.15869141 0.059326172 -0.34326172 0 0 0 0
0.15991211 0.059143066 -0.34228516 0 0 0 0
0.16174316 0.059143066 -0.34228516 0 0 0 0
0.16308594 0.058959961 -0.34130859 0 0 0 0
0.16381836 0.058624268 -0.33911133 0 0 0 0
0.16503906 0.058441162 -0.33813477 0 0 0 0
0.16638184 0.058288574 -0.3371582 0 0 0 0
0.16760254 0.058105469 -0.33618164 0 0 0 0
0.16882324 0.057922363 -0.33520508 0 0 0 0
0.17004395 0.057769775 -0.33422852 0 0 0 0
0.17126465 0.05758667 -0.33325195 0 0 0 0
0.17248535 0.057403564 -0.33227539 0 0 0 0
0.1730957 0.057067871 -0.33007812 0 0 0 0
0.17431641 0.056884766 -0.32910156 0 0 0 0
0.17553711 0.056732178 -0.328125 0 0 0 0
0.17663574 0.056549072 -0.32714844 0 0 0 0
0.17834473 0.056549072 -0.32714844 0 0 0 0
0.17944336 0.056365967 -0.32617188 0 0 0 0
0.18115234 0.056365967 -0.32617188 0 0 0 0
0.18225098 0.056182861 -0.32519531 0 0 0 0
0.18395996 0.056182861 -0.32519531 0 0 0 0
0.18505859 0.056030273 -0.32421875 0 0 0 0
0.18676758 0.056030273 -0.32421875 0 0 0 0
0.18786621 0.055847168 -0.32324219 0 0 0 0
0.18896484 0.055664062 -0.32202148 0 0 0 0
0.19067383 0.055664062 -0.32202148 0 0 0 0
0.0098114014 0.060241699 -0.359375 0 0 0 0
0.011672974 0.060241699 -0.359375 0 0 0 0
0.013534546 0.060241699 -0.359375 0 0 0 0
0.015396118 0.060241699 -0.359375 0 0 0 0
0.01725769 0.060241699 -0.359375 0 0 0 0
0.019119263 0.060241699 -0.359375 0 0 0 0
0.020965576 0.060241699 -0.359375 0 0 0 0
0.022827148 0.060241699 -0.359375 0 0 0 0
0.024688721 0.060241699 -0.359375 0 0 0 0
0.026550293 0.060241699 -0.359375 0 0 0 0
0.028335571 0.060058594 -0.35839844 0 0 0 0
0.030197144 0.060058594 -0.35839844 0 0 0 0
0.032043457 0.060058594 -0.35839844 0 0 0 0
0.033905029 0.060058594 -0.35839844 0 0 0 0
0.035766602 0.060058594 -0.35839844 0 0 0 0
0.037597656 0.060058594 -0.35839844 0 0 0 0
0.039459229 0.060058594 -0.35839844 0 0 0 0
0.041320801 0.060058594 -0.35839844 0 0 0 0
0.043182373 0.060058594 -0.35839844 0 0 0 0
0.045043945 0.060058594 -0.35839844 0 0 0 0
0.046875 0.060058594 -0.35839844 0 0 0 0
0.048736572 0.060058594 -0.35839844 0 0 0 0
0.050598145 0.060058594 -0.35839844 0 0 0 0
0.052459717 0.060058594 -0.35839844 0 0 0 0
0.054321289 0.060058594 -0.35839844 0 0 0 0
0.056152344 0.060058594 -0.35839844 0 0 0 0
0.058013916 0.060058594 -0.35839844 0 0 0 0
0.059875488 0.060058594 -0.35839844 0 0 0 0
0.061737061 0.060058594 -0.35839844 0 0 0 0
0.063598633 0.060058594 -0.35839844 0 0 0 0
0.065429688 0.060058594 -0.35839844 0 0 0 0
0.067260742 0.060058594 -0.35839844 0 0 0 0
0.069152832 0.060058594 -0.35839844 0 0 0 0
0.070983887 0.060058594 -0.35839844 0 0 0 0
0.072875977 0.060058594 -0.35839844 0 0 0 0
0.074707031 0.060058594 -0.35839844 0 0 0 0
0.076538086 0.060058594 -0.35839844 0 0 0 0
0.078430176 0.060058594 -0.35839844 0 0 0 0
0.08026123 0.060058594 -0.35839844 0 0 0 0
0.08215332 0.060058594 -0.35839844 0 0 0 0
0.083740234 0.059906006 -0.35717773 0 0 0 0
0.085632324 0.059906006 -0.35717773 0 0 0 0
0.087463379 0.059906006 -0.35717773 0 0 0 0
0.089294434 0.059906006 -0.35717773 0 0 0 0
0.091186523 0.059906006 -0.35717773 0 0 0 0
0.093017578 0.059906006 -0.35717773 0 0 0 0
0.094848633 0.059906006 -0.35717773 0 0 0 0
0.096679688 0.059906006 -0.35717773 0 0 0 0
0.098571777 0.059906006 -0.35717773 0 0 0 0
0.13513184 0.064086914 -0.38232422 0 0 0 0
0.13708496 0.064086914 -0.38232422 0 0 0 0
0.13916016 0.064086914 -0.38232422 0 0 0 0
0.14074707 0.063903809 -0.38134766 0 0 0 0
0.1427002 0.063903809 -0.38134766 0 0 0 0
0.14465332 0.063903809 -0.38134766 0 0 0 0
0.14660645 0.063903809 -0.38134766 0 0 0 0
0.14868164 0.063903809 -0.38134766 0 0 0 0
0.15063477 0.063903809 -0.38134766 0 0 0 0
0.1529541 0.064086914 -0.38232422 0 0 0 0
0.15490723 0.064086914 -0.38232422 0 0 0 0
0.15698242 0.064086914 -0.38232422 0 0 0 0
0.15856934 0.063903809 -0.38134766 0 0 0 0
0.16003418 0.063781738 -0.38037109 0 0 0 0
0.16162109 0.063598633 -0.37939453 0 0 0 0
0.15063477 0.057891846 -0.34521484 0 0 0 0
0.15246582 0.057891846 -0.34521484 0 0 0 0
0.1541748 0.057891846 -0.34521484 0 0 0 0
0.15600586 0.057891846 -0.34521484 0 0 0 0
0.15734863 0.05770874 -0.34423828 0 0 0 0
0.15905762 0.05770874 -0.34423828 0 0 0 0
0.16040039 0.057556152 -0.34326172 0 0 0 0
0.16223145 0.057556152 -0.34326172 0 0 0 0
0.16345215 0.057373047 -0.34228516 0 0 0 0
0.16430664 0.057037354 -0.34008789 0 0 0 0
0.16552734 0.056884766 -0.33911133 0 0 0 0
0.16687012 0.05670166 -0.33813477 0 0 0 0
0.16809082 0.056518555 -0.3371582 0 0 0 0
0.16931152 0.056365967 -0.33618164 0 0 0 0
0.17053223 0.056182861 -0.33520508 0 0 0 0
0.17175293 0.056030273 -0.33422852 0 0 0 0
0.17297363 0.055847168 -0.33325195 0 0 0 0
0.17419434 0.05569458 -0.33227539 0 0 0 0
0.17480469 0.055358887 -0.33007812 0 0 0 0
0.17602539 0.055175781 -0.32910156 0 0 0 0
0.17724609 0.055023193 -0.328125 0 0 0 0
0.17883301 0.055023193 -0.328125 0 0 0 0
0.18005371 0.054840088 -0.32714844 0 0 0 0
0.18115234 0.0546875 -0.32617188 0 0 0 0
0.18286133 0.0546875 -0.32617188 0 0 0 0
0.18395996 0.054504395 -0.32519531 0 0 0 0
0.18566895 0.054504395 -0.32519531 0 0 0 0
0.18676758 0.054351807 -0.32421875 0 0 0 0
0.18786621 0.054168701 -0.32324219 0 0 0 0
0.1895752 0.054168701 -0.32324219 0 0 0 0
0.0060920715 0.058380127 -0.359375 0 0 0 0
0.0079498291 0.058380127 -0.359375 0 0 0 0
0.0098114014 0.058380127 -0.359375 0 0 0 0
0.011672974 0.058380127 -0.359375 0 0 0 0
0.013534546 0.058380127 -0.359375 0 0 0 0
0.015396118 0.058380127 -0.359375 0 0 0 0
0.01725769 0.058380127 -0.359375 0 0 0 0
0.019119263 0.058380127 -0.359375 0 0 0 0
0.020965576 0.058380127 -0.359375 0 0 0 0
0.022827148 0.058380127 -0.359375 0 0 0 0
0.024627686 0.058197021 -0.35839844 0 0 0 0
0.026489258 0.058197021 -0.35839844 0 0 0 0
0.028335571 0.058197021 -0.35839844 0 0 0 0
0.030197144 0.058197021 -0.35839844 0 0 0 0
0.032043457 0.058197021 -0.35839844 0 0 0 0
0.033905029 0.058197021 -0.35839844 0 0 0 0
0.035766602 0.058197021 -0.35839844 0 0 0 0
0.037597656 0.058197021 -0.35839844 0 0 0 0
0.039459229 0.058197021 -0.35839844 0 0 0 0
0.041320801 0.058197021 -0.35839844 0 0 0 0
0.043182373 0.058197021 -0.35839844 0 0 0 0
0.045043945 0.058197021 -0.35839844 0 0 0 0
0.046875 0.058197021 -0.35839844 0 0 0 0
0.048736572 0.058197021 -0.35839844 0 0 0 0
0.050598145 0.058197021 -0.35839844 0 0 0 0
0.052459717 0.058197021 -0.35839844 0 0 0 0
0.054321289 0.058197021 -0.35839844 0 0 0 0
0.056152344 0.058197021 -0.35839844 0 0 0 0
0.058013916 0.058197021 -0.35839844 0 0 0 0
0.059875488 0.058197021 -0.35839844 0 0 0 0
0.061737061 0.058197021 -0.35839844 0 0 0 0
0.063598633 0.058197021 -0.35839844 0 0 0 0
0.065429688 0.058197021 -0.35839844 0 0 0 0
0.067260742 0.058197021 -0.35839844 0 0 0 0
0.069152832 0.058197021 -0.35839844 0 0 0 0
0.070983887 0.058197021 -0.35839844 0 0 0 0
0.072875977 0.058197021 -0.35839844 0 0 0 0
0.074707031 0.058197021 -0.35839844 0 0 0 0
0.076538086 0.058197021 -0.35839844 0 0 0 0
0.078430176 0.058197021 -0.35839844 0 0 0 0
0.08026123 0.058197021 -0.35839844 0 0 0 0
0.08215332 0.058197021 -0.35839844 0 0 0 0
0.083740234 0.058044434 -0.35717773 0 0 0 0
0.085632324 0.058044434 -0.35717773 0 0 0 0
0.087463379 0.058044434 -0.35717773 0 0 0 0
0.089294434 0.058044434 -0.35717773 0 0 0 0
0.091186523 0.058044434 -0.35717773 0 0 0 0
0.093017578 0.058044434 -0.35717773 0 0 0 0
0.094848633 0.058044434 -0.35717773 0 0 0 0
0.096679688 0.058044434 -0.35717773 0 0 0 0
0.098571777 0.058044434 -0.35717773 0 0 0 0
0.10040283 0.058044434 -0.35717773 0 0 0 0
0.13549805 0.062286377 -0.38330078 0 0 0 0
0.13745117 0.062286377 -0.38330078 0 0 0 0
0.13952637 0.062286377 -0.38330078 0 0 0 0
0.14111328 0.062133789 -0.38232422 0 0 0 0
0.14306641 0.062133789 -0.38232422 0 0 0 0
0.14501953 0.062133789 -0.38232422 0 0 0 0
0.14709473 0.062133789 -0.38232422 0 0 0 0
0.14904785 0.062133789 -0.38232422 0 0 0 0
0.15100098 0.062133789 -0.38232422 0 0 0 0
0.1529541 0.062133789 -0.38232422 0 0 0 0
0.15490723 0.062133789 -0.38232422 0 0 0 0
0.15649414 0.061950684 -0.38134766 0 0 0 0
0.15808105 0.061798096 -0.38037109 0 0 0 0
0.16003418 0.061798096 -0.38037109 0 0 0 0
0.16162109 0.061645508 -0.37939453 0 0 0 0
0.16271973 0.061309814 -0.37744141 0 0 0 0
0.16467285 0.061309814 -0.37744141 0 0 0 0
0.16662598 0.061309814 -0.37744141 0 0 0 0
0.1541748 0.056091309 -0.34521484 0 0 0 0
0.15600586 0.056091309 -0.34521484 0 0 0 0
0.15783691 0.056091309 -0.34521484 0 0 0 0
0.1595459 0.056091309 -0.34521484 0 0 0 0
0.16088867 0.055938721 -0.34423828 0 0 0 0
0.16223145 0.055755615 -0.34326172 0 0 0 0
0.16345215 0.055603027 -0.34228516 0 0 0 0
0.16479492 0.055450439 -0.34130859 0 0 0 0
0.16601562 0.055267334 -0.34008789 0 0 0 0
0.1673584 0.055114746 -0.33911133 0 0 0 0
0.1685791 0.054962158 -0.33813477 0 0 0 0
0.1697998 0.054779053 -0.3371582 0 0 0 0
0.17102051 0.054626465 -0.33618164 0 0 0 0
0.17236328 0.054473877 -0.33520508 0 0 0 0
0.17346191 0.054290771 -0.33422852 0 0 0 0
0.17468262 0.054138184 -0.33325195 0 0 0 0
0.17590332 0.053985596 -0.33227539 0 0 0 0
0.17651367 0.053649902 -0.33007812 0 0 0 0
0.17773438 0.053466797 -0.32910156 0 0 0 0
0.17944336 0.053466797 -0.32910156 0 0 0 0
0.18054199 0.053314209 -0.328125 0 0 0 0
0.1817627 0.053161621 -0.32714844 0 0 0 0
0.18347168 0.053161621 -0.32714844 0 0 0 0
0.18457031 0.052978516 -0.32617188 0 0 0 0
0.1862793 0.052978516 -0.32617188 0 0 0 0
0.18737793 0.052825928 -0.32519531 0 0 0 0
0.18847656 0.05267334 -0.32421875 0 0 0 0
0.0060920715 0.056518555 -0.359375 0 0 0 0
0.0079498291 0.056518555 -0.359375 0 0 0 0
0.0097808838 0.056365967 -0.35839844 0 0 0 0
0.011642456 0.056365967 -0.35839844 0 0 0 0
0.013496399 0.056365967 -0.35839844 0 0 0 0
0.015350342 0.056365967 -0.35839844 0 0 0 0
0.017196655 0.056365967 -0.35839844 0 0 0 0
0.019058228 0.056365967 -0.35839844 0 0 0 0
0.0209198 0.056365967 -0.35839844 0 0 0 0
0.022766113 0.056365967 -0.35839844 0 0 0 0
0.024627686 0.056365967 -0.35839844 0 0 0 0
0.026489258 0.056365967 -0.35839844 0 0 0 0
0.028335571 0.056365967 -0.35839844 0 0 0 0
0.030197144 0.056365967 -0.35839844 0 0 0 0
0.032043457 0.056365967 -0.35839844 0 0 0 0
0.033905029 0.056365967 -0.35839844 0 0 0 0
0.035766602 0.056365967 -0.35839844 0 0 0 0
0.037597656 0.056365967 -0.35839844 0 0 0 0
0.039459229 0.056365967 -0.35839844 0 0 0 0
0.041320801 0.056365967 -0.35839844 0 0 0 0
0.043182373 0.056365967 -0.35839844 0 0 0 0
0.045043945 0.056365967 -0.35839844 0 0 0 0
0.046875 0.056365967 -0.35839844 0 0 0 0
0.048736572 0.056365967 -0.35839844 0 0 0 0
0.050598145 0.056365967 -0.35839844 0 0 0 0
0.052459717 0.056365967 -0.35839844 0 0 0 0
0.054321289 0.056365967 -0.35839844 0 0 0 0
0.056152344 0.056365967 -0.35839844 0 0 0 0
0.058013916 0.056365967 -0.35839844 0 0 0 0
0.059875488 0.056365967 -0.35839844 0 0 0 0
0.061737061 0.056365967 -0.35839844 0 0 0 0
0.063598633 0.056365967 -0.35839844 0 0 0 0
0.065429688 0.056365967 -0.35839844 0 0 0 0
0.067260742 0.056365967 -0.35839844 0 0 0 0
0.069152832 0.056365967 -0.35839844 0 0 0 0
0.070983887 0.056365967 -0.35839844 0 0 0 0
0.072875977 0.056365967 -0.35839844 0 0 0 0
0.074707031 0.056365967 -0.35839844 0 0 0 0
0.076538086 0.056365967 -0.35839844 0 0 0 0
0.078430176 0.056365967 -0.35839844 0 0 0 0
0.08026123 0.056365967 -0.35839844 0 0 0 0
0.08190918 0.056213379 -0.35717773 0 0 0 0
0.083740234 0.056213379 -0.35717773 0 0 0 0
0.085632324 0.056213379 -0.35717773 0 0 0 0
0.087463379 0.056213379 -0.35717773 0 0 0 0
0.089294434 0.056213379 -0.35717773 0 0 0 0
0.091186523 0.056213379 -0.35717773 0 0 0 0
0.093017578 0.056213379 -0.35717773 0 0 0 0
0.094848633 0.056213379 -0.35717773 0 0 0 0
0.096679688 0.056213379 -0.35717773 0 0 0 0
0.098571777 0.056213379 -0.35717773 0 0 0 0
0.10040283 0.056213379 -0.35717773 0 0 0 0
0.10223389 0.056213379 -0.35717773 0 0 0 0
0.13659668 0.060791016 -0.38647461 0 0 0 0
0.13781738 0.060455322 -0.38427734 0 0 0 0
0.13989258 0.060455322 -0.38427734 0 0 0 0
0.14147949 0.060302734 -0.38330078 0 0 0 0
0.14343262 0.060302734 -0.38330078 0 0 0 0
0.14538574 0.060302734 -0.38330078 0 0 0 0
0.14709473 0.060150146 -0.38232422 0 0 0 0
0.14941406 0.060302734 -0.38330078 0 0 0 0
0.15100098 0.060150146 -0.38232422 0 0 0 0
0.1529541 0.060150146 -0.38232422 0 0 0 0
0.15490723 0.060150146 -0.38232422 0 0 0 0
0.15649414 0.059997559 -0.38134766 0 0 0 0
0.15808105 0.059844971 -0.38037109 0 0 0 0
0.15966797 0.059661865 -0.37939453 0 0 0 0
0.16113281 0.059509277 -0.37841797 0 0 0 0
0.16271973 0.059356689 -0.37744141 0 0 0 0
0.16467285 0.059356689 -0.37744141 0 0 0 0
0.16662598 0.059356689 -0.37744141 0 0 0 0
0.16809082 0.059204102 -0.37646484 0 0 0 0
0.17004395 0.059204102 -0.37646484 0 0 0 0
0.1595459 0.054290771 -0.34521484 0 0 0 0
0.16088867 0.054138184 -0.34423828 0 0 0 0
0.16271973 0.054138184 -0.34423828 0 0 0 0
0.16394043 0.053985596 -0.34326172 0 0 0 0
0.1652832 0.053833008 -0.34228516 0 0 0 0
0.16650391 0.05368042 -0.34130859 0 0 0 0
0.16784668 0.053527832 -0.34008789 0 0 0 0
0.16906738 0.053344727 -0.33911133 0 0 0 0
0.17028809 0.053192139 -0.33813477 0 0 0 0
0.17163086 0.053039551 -0.3371582 0 0 0 0
0.17285156 0.052886963 -0.33618164 0 0 0 0
0.17407227 0.052734375 -0.33520508 0 0 0 0
0.17529297 0.05255127 -0.33422852 0 0 0 0
0.1763916 0.052398682 -0.33325195 0 0 0 0
0.1776123 0.052246094 -0.33227539 0 0 0 0
0.17883301 0.052093506 -0.33105469 0 0 0 0
0.17993164 0.051940918 -0.33007812 0 0 0 0
0.18115234 0.05178833 -0.32910156 0 0 0 0
0.18225098 0.051605225 -0.328125 0 0 0 0
0.18395996 0.051605225 -0.328125 0 0 0 0
0.18518066 0.051452637 -0.32714844 0 0 0 0
0.1862793 0.051300049 -0.32617188 0 0 0 0
0.18737793 0.051147461 -0.32519531 0 0 0 0
0.002368927 0.054656982 -0.359375 0 0 0 0
0.0042304993 0.054656982 -0.359375 0 0 0 0
0.0060920715 0.054656982 -0.359375 0 0 0 0
0.0079269409 0.054504395 -0.35839844 0 0 0 0
0.0097808838 0.054504395 -0.35839844 0 0 0 0
0.011642456 0.054504395 -0.35839844 0 0 0 0
0.013496399 0.054504395 -0.35839844 0 0 0 0
0.015350342 0.054504395 -0.35839844 0 0 0 0
0.017196655 0.054504395 -0.35839844 0 0 0 0
0.019058228 0.054504395 -0.35839844 0 0 0 0
0.0209198 0.054504395 -0.35839844 0 0 0 0
0.022766113 0.054504395 -0.35839844 0 0 0 0
0.024627686 0.054504395 -0.35839844 0 0 0 0
0.026489258 0.054504395 -0.35839844 0 0 0 0
0.028335571 0.054504395 -0.35839844 0 0 0 0
0.030197144 0.054504395 -0.35839844 0 0 0 0
0.032043457 0.054504395 -0.35839844 0 0 0 0
0.033905029 0.054504395 -0.35839844 0 0 0 0
0.035766602 0.054504395 -0.35839844 0 0 0 0
0.037597656 0.054504395 -0.35839844 0 0 0 0
0.039459229 0.054504395 -0.35839844 0 0 0 0
0.041320801 0.054504395 -0.35839844 0 0 0 0
0.043182373 0.054504395 -0.35839844 0 0 0 0
0.045043945 0.054504395 -0.35839844 0 0 0 0
0.046875 0.054504395 -0.35839844 0 0 0 0
0.048736572 0.054504395 -0.35839844 0 0 0 0
0.050598145 0.054504395 -0.35839844 0 0 0 0
0.052459717 0.054504395 -0.35839844 0 0 0 0
0.054321289 0.054504395 -0.35839844 0 0 0 0
0.056152344 0.054504395 -0.35839844 0 0 0 0
0.058013916 0.054504395 -0.35839844 0 0 0 0
0.059875488 0.054504395 -0.35839844 0 0 0 0
0.061737061 0.054504395 -0.35839844 0 0 0 0
0.063598633 0.054504395 -0.35839844 0 0 0 0
0.065429688 0.054504395 -0.35839844 0 0 0 0
0.067260742 0.054504395 -0.35839844 0 0 0 0
0.069152832 0.054504395 -0.35839844 0 0 0 0
0.070983887 0.054504395 -0.35839844 0 0 0 0
0.072875977 0.054504395 -0.35839844 0 0 0 0
0.074707031 0.054504395 -0.35839844 0 0 0 0
0.076538086 0.054504395 -0.35839844 0 0 0 0
0.078430176 0.054504395 -0.35839844 0 0 0 0
0.080078125 0.054351807 -0.35717773 0 0 0 0
0.08190918 0.054351807 -0.35717773 0 0 0 0
0.083740234 0.054351807 -0.35717773 0 0 0 0
0.085632324 0.054351807 -0.35717773 0 0 0 0
0.087463379 0.054351807 -0.35717773 0 0 0 0
0.089294434 0.054351807 -0.35717773 0 0 0 0
0.091186523 0.054351807 -0.35717773 0 0 0 0
0.093017578 0.054351807 -0.35717773 0 0 0 0
0.094848633 0.054351807 -0.35717773 0 0 0 0
0.096679688 0.054351807 -0.35717773 0 0 0 0
0.098571777 0.054351807 -0.35717773 0 0 0 0
0.10040283 0.054351807 -0.35717773 0 0 0 0
0.10253906 0.054504395 -0.35839844 0 0 0 0
0.13696289 0.058929443 -0.38745117 0 0 0 0
0.13818359 0.058624268 -0.38549805 0 0 0 0
0.14025879 0.058624268 -0.38549805 0 0 0 0
0.1418457 0.05847168 -0.38427734 0 0 0 0
0.14379883 0.05847168 -0.38427734 0 0 0 0
0.14538574 0.058319092 -0.38330078 0 0 0 0
0.14746094 0.058319092 -0.38330078 0 0 0 0
0.14941406 0.058319092 -0.38330078 0 0 0 0
0.15100098 0.058166504 -0.38232422 0 0 0 0
0.1529541 0.058166504 -0.38232422 0 0 0 0
0.15454102 0.058013916 -0.38134766 0 0 0 0
0.15649414 0.058013916 -0.38134766 0 0 0 0
0.15808105 0.057861328 -0.38037109 0 0 0 0
0.15966797 0.05770874 -0.37939453 0 0 0 0
0.16113281 0.057556152 -0.37841797 0 0 0 0
0.16271973 0.057403564 -0.37744141 0 0 0 0
0.16467285 0.057403564 -0.37744141 0 0 0 0
0.16662598 0.057403564 -0.37744141 0 0 0 0
0.1685791 0.057403564 -0.37744141 0 0 0 0
0.17053223 0.057403564 -0.37744141 0 0 0 0
0.17248535 0.057403564 -0.37744141 0 0 0 0
0.17492676 0.057556152 -0.37841797 0 0 0 0
0.16394043 0.052215576 -0.34326172 0 0 0 0
0.1652832 0.052062988 -0.34228516 0 0 0 0
0.16650391 0.0519104 -0.34130859 0 0 0 0
0.16784668 0.051757812 -0.34008789 0 0 0 0
0.16906738 0.051605225 -0.33911133 0 0 0 0
0.17028809 0.051452637 -0.33813477 0 0 0 0
0.17163086 0.051300049 -0.3371582 0 0 0 0
0.17285156 0.051147461 -0.33618164 0 0 0 0
0.17407227 0.050994873 -0.33520508 0 0 0 0
0.17578125 0.050994873 -0.33520508 0 0 0 0
0.17700195 0.050842285 -0.33422852 0 0 0 0
0.17822266 0.050689697 -0.33325195 0 0 0 0
0.17932129 0.050537109 -0.33227539 0 0 0 0
0.18054199 0.050384521 -0.33105469 0 0 0 0
0.18164062 0.050231934 -0.33007812 0 0 0 0
0.18286133 0.050079346 -0.32910156 0 0 0 0
0.18457031 0.050079346 -0.32910156 0 0 0 0
0.18566895 0.049926758 -0.328125 0 0 0 0
0.18676758 0.04977417 -0.32714844 0 0 0 0
0.00050926208 0.05279541 -0.359375 0 0 0 0
0.002368927 0.05279541 -0.359375 0 0 0 0
0.0042304993 0.05279541 -0.359375 0 0 0 0
0.0060920715 0.05279541 -0.359375 0 0 0 0
0.0079269409 0.052642822 -0.35839844 0 0 0 0
0.0097808838 0.052642822 -0.35839844 0 0 0 0
0.011642456 0.052642822 -0.35839844 0 0 0 0
0.013496399 0.052642822 -0.35839844 0 0 0 0
0.015350342 0.052642822 -0.35839844 0 0 0 0
0.017196655 0.052642822 -0.35839844 0 0 0 0
0.019058228 0.052642822 -0.35839844 0 0 0 0
0.0209198 0.052642822 -0.35839844 0 0 0 0
0.022766113 0.052642822 -0.35839844 0 0 0 0
0.024627686 0.052642822 -0.35839844 0 0 0 0
0.026489258 0.052642822 -0.35839844 0 0 0 0
0.028335571 0.052642822 -0.35839844 0 0 0 0
0.030197144 0.052642822 -0.35839844 0 0 0 0
0.032043457 0.052642822 -0.35839844 0 0 0 0
0.033905029 0.052642822 -0.35839844 0 0 0 0
0.035766602 0.052642822 -0.35839844 0 0 0 0
0.037597656 0.052642822 -0.35839844 0 0 0 0
0.039459229 0.052642822 -0.35839844 0 0 0 0
0.041320801 0.052642822 -0.35839844 0 0 0 0
0.043182373 0.052642822 -0.35839844 0 0 0 0
0.045043945 0.052642822 -0.35839844 0 0 0 0
0.046875 0.052642822 -0.35839844 0 0 0 0
0.048736572 0.052642822 -0.35839844 0 0 0 0
0.050598145 0.052642822 -0.35839844 0 0 0 0
0.052459717 0.052642822 -0.35839844 0 0 0 0
0.054321289 0.052642822 -0.35839844 0 0 0 0
0.056152344 0.052642822 -0.35839844 0 0 0 0
0.058013916 0.052642822 -0.35839844 0 0 0 0
0.059875488 0.052642822 -0.35839844 0 0 0 0
0.061737061 0.052642822 -0.35839844 0 0 0 0
0.063598633 0.052642822 -0.35839844 0 0 0 0
0.065429688 0.052642822 -0.35839844 0 0 0 0
0.067260742 0.052642822 -0.35839844 0 0 0 0
0.069152832 0.052642822 -0.35839844 0 0 0 0
0.070983887 0.052642822 -0.35839844 0 0 0 0
0.072875977 0.052642822 -0.35839844 0 0 0 0
0.074707031 0.052642822 -0.35839844 0 0 0 0
0.076538086 0.052642822 -0.35839844 0 0 0 0
0.078186035 0.052490234 -0.35717773 0 0 0 0
0.080078125 0.052490234 -0.35717773 0 0 0 0
0.08190918 0.052490234 -0.35717773 0 0 0 0
0.083740234 0.052490234 -0.35717773 0 0 0 0
0.085632324 0.052490234 -0.35717773 0 0 0 0
0.087463379 0.052490234 -0.35717773 0 0 0 0
0.089294434 0.052490234 -0.35717773 0 0 0 0
0.091186523 0.052490234 -0.35717773 0 0 0 0
0.093017578 0.052490234 -0.35717773 0 0 0 0
0.094848633 0.052490234 -0.35717773 0 0 0 0
0.096679688 0.052490234 -0.35717773 0 0 0 0
0.098571777 0.052490234 -0.35717773 0 0 0 0
0.10040283 0.052490234 -0.35717773 0 0 0 0
0.10223389 0.052490234 -0.35717773 0 0 0 0
0.10443115 0.052642822 -0.35839844 0 0 0 0
0.13769531 0.057220459 -0.3894043 0 0 0 0
0.13891602 0.056915283 -0.38745117 0 0 0 0
0.140625 0.056762695 -0.38647461 0 0 0 0
0.14221191 0.056640625 -0.38549805 0 0 0 0
0.14416504 0.056640625 -0.38549805 0 0 0 0
0.14587402 0.056488037 -0.38427734 0 0 0 0
0.14782715 0.056488037 -0.38427734 0 0 0 0
0.14941406 0.056335449 -0.38330078 0 0 0 0
0.15136719 0.056335449 -0.38330078 0 0 0 0
0.1529541 0.056182861 -0.38232422 0 0 0 0
0.15454102 0.056030273 -0.38134766 0 0 0 0
0.15612793 0.055877686 -0.38037109 0 0 0 0
0.15808105 0.055877686 -0.38037109 0 0 0 0
0.15966797 0.055755615 -0.37939453 0 0 0 0
0.16113281 0.055603027 -0.37841797 0 0 0 0
0.16271973 0.055450439 -0.37744141 0 0 0 0
0.16467285 0.055450439 -0.37744141 0 0 0 0
0.16662598 0.055450439 -0.37744141 0 0 0 0
0.1685791 0.055450439 -0.37744141 0 0 0 0
0.17053223 0.055450439 -0.37744141 0 0 0 0
0.17297363 0.055603027 -0.37841797 0 0 0 0
0.17492676 0.055603027 -0.37841797 0 0 0 0
0.17773438 0.055877686 -0.38037109 0 0 0 0
0.18029785 0.056030273 -0.38134766 0 0 0 0
0.18273926 0.056182861 -0.38232422 0 0 0 0
0.16784668 0.049987793 -0.34008789 0 0 0 0
0.16906738 0.049835205 -0.33911133 0 0 0 0
0.17028809 0.049682617 -0.33813477 0 0 0 0
0.17163086 0.049560547 -0.3371582 0 0 0 0
0.17333984 0.049560547 -0.3371582 0 0 0 0
0.17456055 0.049407959 -0.33618164 0 0 0 0
0.17578125 0.049255371 -0.33520508 0 0 0 0
0.17749023 0.049255371 -0.33520508 0 0 0 0
0.17871094 0.049102783 -0.33422852 0 0 0 0
0.17993164 0.048950195 -0.33325195 0 0 0 0
0.18103027 0.048797607 -0.33227539 0 0 0 0
0.18225098 0.048675537 -0.33105469 0 0 0 0
0.18334961 0.048522949 -0.33007812 0 0 0 0
0.18457031 0.048370361 -0.32910156 0 0 0 0
0.18566895 0.048217773 -0.328125 0 0 0 0
-0.0013513565 0.050933838 -0.359375 0 0 0 0
0.00050926208 0.050933838 -0.359375 0 0 0 0
0.002368927 0.050933838 -0.359375 0 0 0 0
0.0042304993 0.050933838 -0.359375 0 0 0 0
0.0060920715 0.050933838 -0.359375 0 0 0 0
0.0079269409 0.05078125 -0.35839844 0 0 0 0
0.0097808838 0.05078125 -0.35839844 0 0 0 0
0.011642456 0.05078125 -0.35839844 0 0 0 0
0.013496399 0.05078125 -0.35839844 0 0 0 0
0.015350342 0.05078125 -0.35839844 0 0 0 0
0.017196655 0.05078125 -0.35839844 0 0 0 0
0.019058228 0.05078125 -0.35839844 0 0 0 0
0.0209198 0.05078125 -0.35839844 0 0 0 0
0.022766113 0.05078125 -0.35839844 0 0 0 0
0.024627686 0.05078125 -0.35839844 0 0 0 0
0.026489258 0.05078125 -0.35839844 0 0 0 0
0.028335571 0.05078125 -0.35839844 0 0 0 0
0.030197144 0.05078125 -0.35839844 0 0 0 0
0.032043457 0.05078125 -0.35839844 0 0 0 0
0.033905029 0.05078125 -0.35839844 0 0 0 0
0.035766602 0.05078125 -0.35839844 0 0 0 0
0.037597656 0.05078125 -0.35839844 0 0 0 0
0.039459229 0.05078125 -0.35839844 0 0 0 0
0.041320801 0.05078125 -0.35839844 0 0 0 0
0.043182373 0.05078125 -0.35839844 0 0 0 0
0.045043945 0.05078125 -0.35839844 0 0 0 0
0.046875 0.05078125 -0.35839844 0 0 0 0
0.048736572 0.05078125 -0.35839844 0 0 0 0
0.050598145 0.05078125 -0.35839844 0 0 0 0
0.052459717 0.05078125 -0.35839844 0 0 0 0
0.054321289 0.05078125 -0.35839844 0 0 0 0
0.056152344 0.05078125 -0.35839844 0 0 0 0
0.058013916 0.05078125 -0.35839844 0 0 0 0
0.059875488 0.05078125 -0.35839844 0 0 0 0
0.061737061 0.05078125 -0.35839844 0 0 0 0
0.063598633 0.05078125 -0.35839844 0 0 0 0
0.065429688 0.05078125 -0.35839844 0 0 0 0
0.067260742 0.05078125 -0.35839844 0 0 0 0
0.069152832 0.05078125 -0.35839844 0 0 0 0
0.070983887 0.05078125 -0.35839844 0 0 0 0
0.072875977 0.05078125 -0.35839844 0 0 0 0
0.074707031 0.05078125 -0.35839844 0 0 0 0
0.07635498 0.05065918 -0.35717773 0 0 0 0
0.078186035 0.05065918 -0.35717773 0 0 0 0
0.080078125 0.05065918 -0.35717773 0 0 0 0
0.08190918 0.05065918 -0.35717773 0 0 0 0
0.083740234 0.05065918 -0.35717773 0 0 0 0
0.085632324 0.05065918 -0.35717773 0 0 0 0
0.087463379 0.05065918 -0.35717773 0 0 0 0
0.089294434 0.05065918 -0.35717773 0 0 0 0
0.091186523 0.05065918 -0.35717773 0 0 0 0
0.093017578 0.05065918 -0.35717773 0 0 0 0
0.094848633 0.05065918 -0.35717773 0 0 0 0
0.096679688 0.05065918 -0.35717773 0 0 0 0
0.098571777 0.05065918 -0.35717773 0 0 0 0
0.10040283 0.05065918 -0.35717773 0 0 0 0
0.10223389 0.05065918 -0.35717773 0 0 0 0
0.10443115 0.05078125 -0.35839844 0 0 0 0
0.10626221 0.05078125 -0.35839844 0 0 0 0
0.1394043 0.055908203 -0.39453125 0 0 0 0
0.13928223 0.055053711 -0.38842773 0 0 0 0
0.14099121 0.054901123 -0.38745117 0 0 0 0
0.14257812 0.054779053 -0.38647461 0 0 0 0
0.14416504 0.054626465 -0.38549805 0 0 0 0
0.14624023 0.054626465 -0.38549805 0 0 0 0
0.14782715 0.054473877 -0.38427734 0 0 0 0
0.14941406 0.054351807 -0.38330078 0 0 0 0
0.15136719 0.054351807 -0.38330078 0 0 0 0
0.1529541 0.054199219 -0.38232422 0 0 0 0
0.15454102 0.054046631 -0.38134766 0 0 0 0
0.15612793 0.053924561 -0.38037109 0 0 0 0
0.15771484 0.053771973 -0.37939453 0 0 0 0
0.15917969 0.053649902 -0.37841797 0 0 0 0
0.16113281 0.053649902 -0.37841797 0 0 0 0
0.16271973 0.053497314 -0.37744141 0 0 0 0
0.16467285 0.053497314 -0.37744141 0 0 0 0
0.16662598 0.053497314 -0.37744141 0 0 0 0
0.1685791 0.053497314 -0.37744141 0 0 0 0
0.17102051 0.053649902 -0.37841797 0 0 0 0
0.17297363 0.053649902 -0.37841797 0 0 0 0
0.17541504 0.053771973 -0.37939453 0 0 0 0
0.17773438 0.053924561 -0.38037109 0 0 0 0
0.18029785 0.054046631 -0.38134766 0 0 0 0
0.18273926 0.054199219 -0.38232422 0 0 0 0
0.18518066 0.054351807 -0.38330078 0 0 0 0
0.18713379 0.054351807 -0.38330078 0 0 0 0
0.18908691 0.054351807 -0.38330078 0 0 0 0
0.17333984 0.047790527 -0.3371582 0 0 0 0
0.17456055 0.047668457 -0.33618164 0 0 0 0
0.17626953 0.047668457 -0.33618164 0 0 0 0
0.17749023 0.047515869 -0.33520508 0 0 0 0
0.17919922 0.047515869 -0.33520508 0 0 0 0
0.18041992 0.047363281 -0.33422852 0 0 0 0
0.18164062 0.047241211 -0.33325195 0 0 0 0
0.18273926 0.047088623 -0.33227539 0 0 0 0
0.18395996 0.046936035 -0.33105469 0 0 0 0
0.18566895 0.046936035 -0.33105469 0 0 0 0
-0.0013513565 0.049072266 -0.359375 0 0 0 0
0.00050926208 0.049072266 -0.359375 0 0 0 0
0.002368927 0.049072266 -0.359375 0 0 0 0
0.0042304993 0.049072266 -0.359375 0 0 0 0
0.006072998 0.048919678 -0.35839844 0 0 0 0
0.0079269409 0.048919678 -0.35839844 0 0 0 0
0.0097808838 0.048919678 -0.35839844 0 0 0 0
0.011642456 0.048919678 -0.35839844 0 0 0 0
0.013496399 0.048919678 -0.35839844 0 0 0 0
0.015350342 0.048919678 -0.35839844 0 0 0 0
0.017196655 0.048919678 -0.35839844 0 0 0 0
0.019058228 0.048919678 -0.35839844 0 0 0 0
0.0209198 0.048919678 -0.35839844 0 0 0 0
0.022766113 0.048919678 -0.35839844 0 0 0 0
0.024627686 0.048919678 -0.35839844 0 0 0 0
0.026489258 0.048919678 -0.35839844 0 0 0 0
0.028335571 0.048919678 -0.35839844 0 0 0 0
0.030197144 0.048919678 -0.35839844 0 0 0 0
0.032043457 0.048919678 -0.35839844 0 0 0 0
0.033905029 0.048919678 -0.35839844 0 0 0 0
0.035766602 0.048919678 -0.35839844 0 0 0 0
0.037597656 0.048919678 -0.35839844 0 0 0 0
0.039459229 0.048919678 -0.35839844 0 0 0 0
0.041320801 0.048919678 -0.35839844 0 0 0 0
0.043182373 0.048919678 -0.35839844 0 0 0 0
0.045043945 0.048919678 -0.35839844 0 0 0 0
0.046875 0.048919678 -0.35839844 0 0 0 0
0.048736572 0.048919678 -0.35839844 0 0 0 0
0.050598145 0.048919678 -0.35839844 0 0 0 0
0.052459717 0.048919678 -0.35839844 0 0 0 0
0.054321289 0.048919678 -0.35839844 0 0 0 0
0.056152344 0.048919678 -0.35839844 0 0 0 0
0.058013916 0.048919678 -0.35839844 0 0 0 0
0.059875488 0.048919678 -0.35839844 0 0 0 0
0.061737061 0.048919678 -0.35839844 0 0 0 0
0.063598633 0.048919678 -0.35839844 0 0 0 0
0.065429688 0.048919678 -0.35839844 0 0 0 0
