ply
format ascii 1.0
comment PCL generated
element vertex 1053
property float x
property float y
property float z
property float nx
property float ny
property float nz
property float curvature
element face 0
element camera 0
property float view_px
property float view_py
property float view_pz
property float x_axisx
property float x_axisy
property float x_axisz
property float y_axisx
property float y_axisy
property float y_axisz
property float z_axisx
property float z_axisy
property float z_axisz
property float focal
property float scalex
property float scaley
property float centerx
property float centery
property int viewportx
property int viewporty
property float k1
property float k2
end_header
0.10998535 -0.011291504 -0.28588867 0 0 0 0
0.11151123 -0.011291504 -0.28588867 0 0 0 0
0.11254883 -0.011253357 -0.28491211 0 0 0 0
0.11364746 -0.01121521 -0.28393555 0 0 0 0
0.1151123 -0.01121521 -0.28393555 0 0 0 0
0.1161499 -0.011169434 -0.28295898 0 0 0 0
0.11767578 -0.011169434 -0.28295898 0 0 0 0
0.11871338 -0.011131287 -0.28198242 0 0 0 0
0.12017822 -0.011131287 -0.28198242 0 0 0 0
0.12158203 -0.011131287 -0.28198242 0 0 0 0
0.12304688 -0.011131287 -0.28198242 0 0 0 0
0.12451172 -0.011131287 -0.28198242 0 0 0 0
0.12646484 -0.011169434 -0.28295898 0 0 0 0
0.12792969 -0.011169434 -0.28295898 0 0 0 0
0.12976074 -0.01121521 -0.28393555 0 0 0 0
0.13122559 -0.01121521 -0.28393555 0 0 0 0
-0.1194458 -0.011741638 -0.26293945 0 0 0 0
-0.11810303 -0.011741638 -0.26293945 0 0 0 0
-0.11669922 -0.011741638 -0.26293945 0 0 0 0
-0.11535645 -0.011741638 -0.26293945 0 0 0 0
-0.11401367 -0.011741638 -0.26293945 0 0 0 0
-0.11218262 -0.011695862 -0.26196289 0 0 0 0
-0.1060791 -0.011474609 -0.25683594 0 0 0 0
-0.10473633 -0.011474609 -0.25683594 0 0 0 0
-0.09552002 -0.011024475 -0.24694824 0 0 0 0
-0.094238281 -0.011024475 -0.24694824 0 0 0 0
-0.092956543 -0.011024475 -0.24694824 0 0 0 0
-0.092041016 -0.011070251 -0.2479248 0 0 0 0
-0.090759277 -0.011070251 -0.2479248 0 0 0 0
-0.089477539 -0.011070251 -0.2479248 0 0 0 0
-0.088562012 -0.011116028 -0.24890137 0 0 0 0
-0.087280273 -0.011116028 -0.24890137 0 0 0 0
-0.086364746 -0.011161804 -0.24987793 0 0 0 0
-0.086730957 -0.011924744 -0.2668457 0 0 0 0
-0.085327148 -0.011924744 -0.2668457 0 0 0 0
-0.08392334 -0.011924744 -0.2668457 0 0 0 0
-0.082275391 -0.011878967 -0.26586914 0 0 0 0
-0.078735352 -0.011566162 -0.25878906 0 0 0 0
-0.077392578 -0.011566162 -0.25878906 0 0 0 0
-0.076049805 -0.011566162 -0.25878906 0 0 0 0
-0.074707031 -0.011566162 -0.25878906 0 0 0 0
-0.073364258 -0.011566162 -0.25878906 0 0 0 0
-0.072021484 -0.011566162 -0.25878906 0 0 0 0
-0.070678711 -0.011566162 -0.25878906 0 0 0 0
-0.069641113 -0.011604309 -0.26000977 0 0 0 0
-0.068237305 -0.011604309 -0.26000977 0 0 0 0
-0.067199707 -0.011650085 -0.26098633 0 0 0 0
-0.030853271 -0.015914917 -0.35620117 0 0 0 0
-0.029006958 -0.015914917 -0.35620117 0 0 0 0
-0.027084351 -0.015869141 -0.35522461 0 0 0 0
-0.025253296 -0.015869141 -0.35522461 0 0 0 0
-0.023406982 -0.015869141 -0.35522461 0 0 0 0
-0.021575928 -0.015869141 -0.35522461 0 0 0 0
-0.019729614 -0.015869141 -0.35522461 0 0 0 0
-0.017883301 -0.015869141 -0.35522461 0 0 0 0
-0.016052246 -0.015869141 -0.35522461 0 0 0 0
-0.014213562 -0.015869141 -0.35522461 0 0 0 0
-0.012374878 -0.015869141 -0.35522461 0 0 0 0
-0.010536194 -0.015869141 -0.35522461 0 0 0 0
-0.0086669922 -0.015823364 -0.35424805 0 0 0 0
-0.0068359375 -0.015823364 -0.35424805 0 0 0 0
-0.0050010681 -0.015823364 -0.35424805 0 0 0 0
-0.0031661987 -0.015823364 -0.35424805 0 0 0 0
-0.001332283 -0.015823364 -0.35424805 0 0 0 0
0.00050210953 -0.015823364 -0.35424805 0 0 0 0
0.0023365021 -0.015823364 -0.35424805 0 0 0 0
0.0041694641 -0.015823364 -0.35424805 0 0 0 0
0.0060043335 -0.015823364 -0.35424805 0 0 0 0
0.0078353882 -0.015823364 -0.35424805 0 0 0 0
0.0096740723 -0.015823364 -0.35424805 0 0 0 0
0.011505127 -0.015823364 -0.35424805 0 0 0 0
0.013343811 -0.015823364 -0.35424805 0 0 0 0
0.015174866 -0.015823364 -0.35424805 0 0 0 0
0.01701355 -0.015823364 -0.35424805 0 0 0 0
0.018844604 -0.015823364 -0.35424805 0 0 0 0
0.020675659 -0.015823364 -0.35424805 0 0 0 0
0.022521973 -0.015823364 -0.35424805 0 0 0 0
0.024353027 -0.015823364 -0.35424805 0 0 0 0
0.026184082 -0.015823364 -0.35424805 0 0 0 0
0.028015137 -0.015823364 -0.35424805 0 0 0 0
0.02986145 -0.015823364 -0.35424805 0 0 0 0
0.031677246 -0.015823364 -0.35424805 0 0 0 0
0.033508301 -0.015823364 -0.35424805 0 0 0 0
0.035339355 -0.015823364 -0.35424805 0 0 0 0
0.037200928 -0.015823364 -0.35424805 0 0 0 0
0.039031982 -0.015823364 -0.35424805 0 0 0 0
0.040863037 -0.015823364 -0.35424805 0 0 0 0
0.042694092 -0.015823364 -0.35424805 0 0 0 0
0.044525146 -0.015823364 -0.35424805 0 0 0 0
0.046356201 -0.015823364 -0.35424805 0 0 0 0
0.048187256 -0.015823364 -0.35424805 0 0 0 0
0.050018311 -0.015823364 -0.35424805 0 0 0 0
0.051879883 -0.015823364 -0.35424805 0 0 0 0
0.05355835 -0.015777588 -0.35327148 0 0 0 0
0.055389404 -0.015777588 -0.35327148 0 0 0 0
0.057220459 -0.015777588 -0.35327148 0 0 0 0
0.059051514 -0.015777588 -0.35327148 0 0 0 0
0.060882568 -0.015777588 -0.35327148 0 0 0 0
0.062683105 -0.015777588 -0.35327148 0 0 0 0
0.06451416 -0.015777588 -0.35327148 0 0 0 0
0.096679688 -0.013175964 -0.29492188 0 0 0 0
0.098205566 -0.013175964 -0.29492188 0 0 0 0
0.099365234 -0.013130188 -0.29394531 0 0 0 0
0.10089111 -0.013130188 -0.29394531 0 0 0 0
0.10211182 -0.013084412 -0.29296875 0 0 0 0
0.10327148 -0.013046265 -0.29199219 0 0 0 0
0.10443115 -0.013000488 -0.29101562 0 0 0 0
0.10552979 -0.012954712 -0.29003906 0 0 0 0
0.10668945 -0.012908936 -0.2890625 0 0 0 0
0.10778809 -0.012863159 -0.28808594 0 0 0 0
0.10888672 -0.012817383 -0.28710938 0 0 0 0
0.10998535 -0.012771606 -0.28588867 0 0 0 0
0.11108398 -0.01272583 -0.28491211 0 0 0 0
0.11218262 -0.012687683 -0.28393555 0 0 0 0
0.11322021 -0.012641907 -0.28295898 0 0 0 0
0.11468506 -0.012641907 -0.28295898 0 0 0 0
0.11578369 -0.01259613 -0.28198242 0 0 0 0
0.11724854 -0.01259613 -0.28198242 0 0 0 0
0.11828613 -0.012550354 -0.28100586 0 0 0 0
0.11975098 -0.012550354 -0.28100586 0 0 0 0
0.12115479 -0.012550354 -0.28100586 0 0 0 0
0.12261963 -0.012550354 -0.28100586 0 0 0 0
0.12451172 -0.01259613 -0.28198242 0 0 0 0
0.12597656 -0.01259613 -0.28198242 0 0 0 0
0.12792969 -0.012641907 -0.28295898 0 0 0 0
0.12939453 -0.012641907 -0.28295898 0 0 0 0
0.13122559 -0.012687683 -0.28393555 0 0 0 0
0.13317871 -0.01272583 -0.28491211 0 0 0 0
0.13513184 -0.012771606 -0.28588867 0 0 0 0
-0.12078857 -0.0131073 -0.26293945 0 0 0 0
-0.1194458 -0.0131073 -0.26293945 0 0 0 0
-0.11810303 -0.0131073 -0.26293945 0 0 0 0
-0.11669922 -0.0131073 -0.26293945 0 0 0 0
-0.1149292 -0.013053894 -0.26196289 0 0 0 0
-0.11358643 -0.013053894 -0.26196289 0 0 0 0
-0.11218262 -0.013053894 -0.26196289 0 0 0 0
-0.10998535 -0.012954712 -0.26000977 0 0 0 0
-0.10821533 -0.012901306 -0.25878906 0 0 0 0
-0.10650635 -0.01285553 -0.2578125 0 0 0 0
-0.10516357 -0.01285553 -0.2578125 0 0 0 0
-0.10339355 -0.012802124 -0.25683594 0 0 0 0
-0.09552002 -0.012306213 -0.24694824 0 0 0 0
-0.094238281 -0.012306213 -0.24694824 0 0 0 0
-0.093322754 -0.01235199 -0.2479248 0 0 0 0
-0.092041016 -0.01235199 -0.2479248 0 0 0 0
-0.090759277 -0.01235199 -0.2479248 0 0 0 0
-0.089477539 -0.01235199 -0.2479248 0 0 0 0
-0.088562012 -0.012405396 -0.24890137 0 0 0 0
-0.087280273 -0.012405396 -0.24890137 0 0 0 0
-0.086730957 -0.013305664 -0.2668457 0 0 0 0
-0.085021973 -0.013252258 -0.26586914 0 0 0 0
-0.083618164 -0.013252258 -0.26586914 0 0 0 0
-0.078735352 -0.012901306 -0.25878906 0 0 0 0
-0.077392578 -0.012901306 -0.25878906 0 0 0 0
-0.076049805 -0.012901306 -0.25878906 0 0 0 0
-0.074707031 -0.012901306 -0.25878906 0 0 0 0
-0.073364258 -0.012901306 -0.25878906 0 0 0 0
-0.072021484 -0.012901306 -0.25878906 0 0 0 0
-0.070678711 -0.012901306 -0.25878906 0 0 0 0
-0.069641113 -0.012954712 -0.26000977 0 0 0 0
-0.068237305 -0.012954712 -0.26000977 0 0 0 0
-0.067199707 -0.013000488 -0.26098633 0 0 0 0
-0.029006958 -0.017745972 -0.35620117 0 0 0 0
-0.027084351 -0.017700195 -0.35522461 0 0 0 0
-0.025253296 -0.017700195 -0.35522461 0 0 0 0
-0.023406982 -0.017700195 -0.35522461 0 0 0 0
-0.021575928 -0.017700195 -0.35522461 0 0 0 0
-0.019729614 -0.017700195 -0.35522461 0 0 0 0
-0.017883301 -0.017700195 -0.35522461 0 0 0 0
-0.016052246 -0.017700195 -0.35522461 0 0 0 0
-0.014213562 -0.017700195 -0.35522461 0 0 0 0
-0.012374878 -0.017700195 -0.35522461 0 0 0 0
-0.010505676 -0.017654419 -0.35424805 0 0 0 0
-0.0086669922 -0.017654419 -0.35424805 0 0 0 0
-0.0068359375 -0.017654419 -0.35424805 0 0 0 0
-0.0050010681 -0.017654419 -0.35424805 0 0 0 0
-0.0031661987 -0.017654419 -0.35424805 0 0 0 0
-0.001332283 -0.017654419 -0.35424805 0 0 0 0
0.00050210953 -0.017654419 -0.35424805 0 0 0 0
0.0023365021 -0.017654419 -0.35424805 0 0 0 0
0.0041694641 -0.017654419 -0.35424805 0 0 0 0
0.0060043335 -0.017654419 -0.35424805 0 0 0 0
0.0078353882 -0.017654419 -0.35424805 0 0 0 0
0.0096740723 -0.017654419 -0.35424805 0 0 0 0
0.011505127 -0.017654419 -0.35424805 0 0 0 0
0.013343811 -0.017654419 -0.35424805 0 0 0 0
0.015174866 -0.017654419 -0.35424805 0 0 0 0
0.016967773 -0.017608643 -0.35327148 0 0 0 0
0.018798828 -0.017608643 -0.35327148 0 0 0 0
0.020614624 -0.017608643 -0.35327148 0 0 0 0
0.022445679 -0.017608643 -0.35327148 0 0 0 0
0.024276733 -0.017608643 -0.35327148 0 0 0 0
0.026107788 -0.017608643 -0.35327148 0 0 0 0
0.027938843 -0.017608643 -0.35327148 0 0 0 0
0.02986145 -0.017654419 -0.35424805 0 0 0 0
0.031677246 -0.017654419 -0.35424805 0 0 0 0
0.033508301 -0.017654419 -0.35424805 0 0 0 0
0.035339355 -0.017654419 -0.35424805 0 0 0 0
0.037200928 -0.017654419 -0.35424805 0 0 0 0
0.039031982 -0.017654419 -0.35424805 0 0 0 0
0.040863037 -0.017654419 -0.35424805 0 0 0 0
0.042694092 -0.017654419 -0.35424805 0 0 0 0
0.044525146 -0.017654419 -0.35424805 0 0 0 0
0.046356201 -0.017654419 -0.35424805 0 0 0 0
0.048187256 -0.017654419 -0.35424805 0 0 0 0
0.04989624 -0.017608643 -0.35327148 0 0 0 0
0.051727295 -0.017608643 -0.35327148 0 0 0 0
0.05355835 -0.017608643 -0.35327148 0 0 0 0
0.055389404 -0.017608643 -0.35327148 0 0 0 0
0.057220459 -0.017608643 -0.35327148 0 0 0 0
0.059051514 -0.017608643 -0.35327148 0 0 0 0
0.060882568 -0.017608643 -0.35327148 0 0 0 0
0.062683105 -0.017608643 -0.35327148 0 0 0 0
0.06451416 -0.017608643 -0.35327148 0 0 0 0
0.096679688 -0.014701843 -0.29492188 0 0 0 0
0.098205566 -0.014701843 -0.29492188 0 0 0 0
0.099365234 -0.014656067 -0.29394531 0 0 0 0
0.10058594 -0.014602661 -0.29296875 0 0 0 0
0.10174561 -0.014556885 -0.29199219 0 0 0 0
0.10327148 -0.014556885 -0.29199219 0 0 0 0
0.10443115 -0.014503479 -0.29101562 0 0 0 0
0.10516357 -0.014404297 -0.2890625 0 0 0 0
0.10632324 -0.014358521 -0.28808594 0 0 0 0
0.10742188 -0.014305115 -0.28710938 0 0 0 0
0.10852051 -0.014251709 -0.28588867 0 0 0 0
0.10961914 -0.014205933 -0.28491211 0 0 0 0
0.11071777 -0.014152527 -0.28393555 0 0 0 0
0.11218262 -0.014152527 -0.28393555 0 0 0 0
0.11322021 -0.01410675 -0.28295898 0 0 0 0
0.11431885 -0.014053345 -0.28198242 0 0 0 0
0.11578369 -0.014053345 -0.28198242 0 0 0 0
0.11682129 -0.014007568 -0.28100586 0 0 0 0
0.11828613 -0.014007568 -0.28100586 0 0 0 0
0.11932373 -0.013954163 -0.2800293 0 0 0 0
0.12072754 -0.013954163 -0.2800293 0 0 0 0
0.12261963 -0.014007568 -0.28100586 0 0 0 0
0.12408447 -0.014007568 -0.28100586 0 0 0 0
0.12548828 -0.014007568 -0.28100586 0 0 0 0
0.12744141 -0.014053345 -0.28198242 0 0 0 0
0.12939453 -0.01410675 -0.28295898 0 0 0 0
0.13122559 -0.014152527 -0.28393555 0 0 0 0
0.13317871 -0.014205933 -0.28491211 0 0 0 0
0.13513184 -0.014251709 -0.28588867 0 0 0 0
0.13708496 -0.014305115 -0.28710938 0 0 0 0
0.13867188 -0.014305115 -0.28710938 0 0 0 0
-0.1194458 -0.014465332 -0.26293945 0 0 0 0
-0.11810303 -0.014465332 -0.26293945 0 0 0 0
-0.11627197 -0.014411926 -0.26196289 0 0 0 0
-0.1149292 -0.014411926 -0.26196289 0 0 0 0
-0.11358643 -0.014411926 -0.26196289 0 0 0 0
-0.11175537 -0.014358521 -0.26098633 0 0 0 0
-0.10998535 -0.014297485 -0.26000977 0 0 0 0
-0.10821533 -0.01424408 -0.25878906 0 0 0 0
-0.10650635 -0.014190674 -0.2578125 0 0 0 0
-0.10516357 -0.014190674 -0.2578125 0 0 0 0
-0.10339355 -0.014137268 -0.25683594 0 0 0 0
-0.097229004 -0.013641357 -0.2479248 0 0 0 0
-0.095947266 -0.013641357 -0.2479248 0 0 0 0
-0.094604492 -0.013641357 -0.2479248 0 0 0 0
-0.093322754 -0.013641357 -0.2479248 0 0 0 0
-0.092041016 -0.013641357 -0.2479248 0 0 0 0
-0.090759277 -0.013641357 -0.2479248 0 0 0 0
-0.089477539 -0.013641357 -0.2479248 0 0 0 0
-0.088562012 -0.013694763 -0.24890137 0 0 0 0
-0.087280273 -0.013694763 -0.24890137 0 0 0 0
-0.080993652 -0.014411926 -0.26196289 0 0 0 0
-0.078735352 -0.01424408 -0.25878906 0 0 0 0
-0.077392578 -0.01424408 -0.25878906 0 0 0 0
-0.076049805 -0.01424408 -0.25878906 0 0 0 0
-0.074707031 -0.01424408 -0.25878906 0 0 0 0
-0.073364258 -0.01424408 -0.25878906 0 0 0 0
-0.072021484 -0.01424408 -0.25878906 0 0 0 0
-0.070983887 -0.014297485 -0.26000977 0 0 0 0
-0.069641113 -0.014297485 -0.26000977 0 0 0 0
-0.068237305 -0.014297485 -0.26000977 0 0 0 0
-0.067199707 -0.014358521 -0.26098633 0 0 0 0
-0.065856934 -0.014358521 -0.26098633 0 0 0 0
-0.023406982 -0.019546509 -0.35522461 0 0 0 0
-0.021575928 -0.019546509 -0.35522461 0 0 0 0
-0.019729614 -0.019546509 -0.35522461 0 0 0 0
-0.017883301 -0.019546509 -0.35522461 0 0 0 0
-0.016052246 -0.019546509 -0.35522461 0 0 0 0
-0.014213562 -0.019546509 -0.35522461 0 0 0 0
-0.012336731 -0.019485474 -0.35424805 0 0 0 0
-0.010505676 -0.019485474 -0.35424805 0 0 0 0
-0.0086669922 -0.019485474 -0.35424805 0 0 0 0
-0.0068359375 -0.019485474 -0.35424805 0 0 0 0
-0.0050010681 -0.019485474 -0.35424805 0 0 0 0
-0.0031661987 -0.019485474 -0.35424805 0 0 0 0
-0.001332283 -0.019485474 -0.35424805 0 0 0 0
0.00050210953 -0.019485474 -0.35424805 0 0 0 0
0.0023365021 -0.019485474 -0.35424805 0 0 0 0
0.0041694641 -0.019485474 -0.35424805 0 0 0 0
0.0060043335 -0.019485474 -0.35424805 0 0 0 0
0.0078353882 -0.019485474 -0.35424805 0 0 0 0
0.0096740723 -0.019485474 -0.35424805 0 0 0 0
0.011505127 -0.019485474 -0.35424805 0 0 0 0
0.013305664 -0.019439697 -0.35327148 0 0 0 0
0.015136719 -0.019439697 -0.35327148 0 0 0 0
0.016967773 -0.019439697 -0.35327148 0 0 0 0
0.018798828 -0.019439697 -0.35327148 0 0 0 0
0.020614624 -0.019439697 -0.35327148 0 0 0 0
0.022445679 -0.019439697 -0.35327148 0 0 0 0
0.024276733 -0.019439697 -0.35327148 0 0 0 0
0.026107788 -0.019439697 -0.35327148 0 0 0 0
0.027938843 -0.019439697 -0.35327148 0 0 0 0
0.029769897 -0.019439697 -0.35327148 0 0 0 0
0.031585693 -0.019439697 -0.35327148 0 0 0 0
0.033416748 -0.019439697 -0.35327148 0 0 0 0
0.035247803 -0.019439697 -0.35327148 0 0 0 0
0.037200928 -0.019485474 -0.35424805 0 0 0 0
0.039031982 -0.019485474 -0.35424805 0 0 0 0
0.040863037 -0.019485474 -0.35424805 0 0 0 0
0.042694092 -0.019485474 -0.35424805 0 0 0 0
0.044403076 -0.019439697 -0.35327148 0 0 0 0
0.046234131 -0.019439697 -0.35327148 0 0 0 0
0.048065186 -0.019439697 -0.35327148 0 0 0 0
0.04989624 -0.019439697 -0.35327148 0 0 0 0
0.051727295 -0.019439697 -0.35327148 0 0 0 0
0.05355835 -0.019439697 -0.35327148 0 0 0 0
0.055389404 -0.019439697 -0.35327148 0 0 0 0
0.057220459 -0.019439697 -0.35327148 0 0 0 0
0.059051514 -0.019439697 -0.35327148 0 0 0 0
0.060882568 -0.019439697 -0.35327148 0 0 0 0
0.062683105 -0.019439697 -0.35327148 0 0 0 0
0.06451416 -0.019439697 -0.35327148 0 0 0 0
0.096679688 -0.016235352 -0.29492188 0 0 0 0
0.097839355 -0.016174316 -0.29394531 0 0 0 0
0.099365234 -0.016174316 -0.29394531 0 0 0 0
0.10058594 -0.016113281 -0.29296875 0 0 0 0
0.10174561 -0.016067505 -0.29199219 0 0 0 0
0.10290527 -0.01600647 -0.29101562 0 0 0 0
0.10406494 -0.015960693 -0.29003906 0 0 0 0
0.10516357 -0.015899658 -0.2890625 0 0 0 0
0.10632324 -0.015838623 -0.28808594 0 0 0 0
0.10742188 -0.015792847 -0.28710938 0 0 0 0
0.10852051 -0.015731812 -0.28588867 0 0 0 0
0.10961914 -0.015670776 -0.28491211 0 0 0 0
0.11071777 -0.015625 -0.28393555 0 0 0 0
0.11175537 -0.015571594 -0.28295898 0 0 0 0
0.112854 -0.015518188 -0.28198242 0 0 0 0
0.11431885 -0.015518188 -0.28198242 0 0 0 0
0.11535645 -0.015457153 -0.28100586 0 0 0 0
0.11639404 -0.015403748 -0.2800293 0 0 0 0
0.11785889 -0.015403748 -0.2800293 0 0 0 0
0.11932373 -0.015403748 -0.2800293 0 0 0 0
0.12072754 -0.015403748 -0.2800293 0 0 0 0
0.12219238 -0.015403748 -0.2800293 0 0 0 0
0.12365723 -0.015403748 -0.2800293 0 0 0 0
0.12548828 -0.015457153 -0.28100586 0 0 0 0
0.12695312 -0.015457153 -0.28100586 0 0 0 0
0.12890625 -0.015518188 -0.28198242 0 0 0 0
0.13122559 -0.015625 -0.28393555 0 0 0 0
0.13317871 -0.015670776 -0.28491211 0 0 0 0
0.13513184 -0.015731812 -0.28588867 0 0 0 0
0.13708496 -0.015792847 -0.28710938 0 0 0 0
0.13867188 -0.015792847 -0.28710938 0 0 0 0
-0.1194458 -0.015823364 -0.26293945 0 0 0 0
-0.11810303 -0.015823364 -0.26293945 0 0 0 0
-0.11627197 -0.015762329 -0.26196289 0 0 0 0
-0.1149292 -0.015762329 -0.26196289 0 0 0 0
-0.11358643 -0.015762329 -0.26196289 0 0 0 0
-0.11175537 -0.015701294 -0.26098633 0 0 0 0
-0.10998535 -0.015640259 -0.26000977 0 0 0 0
-0.10821533 -0.015586853 -0.25878906 0 0 0 0
-0.10650635 -0.015525818 -0.2578125 0 0 0 0
-0.10516357 -0.015525818 -0.2578125 0 0 0 0
-0.10339355 -0.015464783 -0.25683594 0 0 0 0
-0.10168457 -0.015403748 -0.25585938 0 0 0 0
-0.097595215 -0.014984131 -0.24890137 0 0 0 0
-0.095947266 -0.014923096 -0.2479248 0 0 0 0
-0.094604492 -0.014923096 -0.2479248 0 0 0 0
-0.093322754 -0.014923096 -0.2479248 0 0 0 0
-0.092041016 -0.014923096 -0.2479248 0 0 0 0
-0.090759277 -0.014923096 -0.2479248 0 0 0 0
-0.08984375 -0.014984131 -0.24890137 0 0 0 0
-0.088562012 -0.014984131 -0.24890137 0 0 0 0
-0.087280273 -0.014984131 -0.24890137 0 0 0 0
-0.085998535 -0.014984131 -0.24890137 0 0 0 0
-0.084716797 -0.014984131 -0.24890137 0 0 0 0
-0.080688477 -0.015701294 -0.26098633 0 0 0 0
-0.078735352 -0.015586853 -0.25878906 0 0 0 0
-0.077392578 -0.015586853 -0.25878906 0 0 0 0
-0.076049805 -0.015586853 -0.25878906 0 0 0 0
-0.074707031 -0.015586853 -0.25878906 0 0 0 0
-0.073364258 -0.015586853 -0.25878906 0 0 0 0
-0.072021484 -0.015586853 -0.25878906 0 0 0 0
-0.070983887 -0.015640259 -0.26000977 0 0 0 0
-0.069641113 -0.015640259 -0.26000977 0 0 0 0
-0.068237305 -0.015640259 -0.26000977 0 0 0 0
-0.067199707 -0.015701294 -0.26098633 0 0 0 0
-0.065856934 -0.015701294 -0.26098633 0 0 0 0
-0.021575928 -0.021377563 -0.35522461 0 0 0 0
-0.019729614 -0.021377563 -0.35522461 0 0 0 0
-0.017883301 -0.021377563 -0.35522461 0 0 0 0
-0.016052246 -0.021377563 -0.35522461 0 0 0 0
-0.014213562 -0.021377563 -0.35522461 0 0 0 0
-0.012336731 -0.021316528 -0.35424805 0 0 0 0
-0.010505676 -0.021316528 -0.35424805 0 0 0 0
-0.0086669922 -0.021316528 -0.35424805 0 0 0 0
-0.0068359375 -0.021316528 -0.35424805 0 0 0 0
-0.0050010681 -0.021316528 -0.35424805 0 0 0 0
-0.0031661987 -0.021316528 -0.35424805 0 0 0 0
-0.001332283 -0.021316528 -0.35424805 0 0 0 0
0.00050210953 -0.021316528 -0.35424805 0 0 0 0
0.0023365021 -0.021316528 -0.35424805 0 0 0 0
0.00415802 -0.021255493 -0.35327148 0 0 0 0
0.0059890747 -0.021255493 -0.35327148 0 0 0 0
0.0078201294 -0.021255493 -0.35327148 0 0 0 0
0.0096435547 -0.021255493 -0.35327148 0 0 0 0
0.011474609 -0.021255493 -0.35327148 0 0 0 0
0.013305664 -0.021255493 -0.35327148 0 0 0 0
0.015136719 -0.021255493 -0.35327148 0 0 0 0
0.016967773 -0.021255493 -0.35327148 0 0 0 0
0.018798828 -0.021255493 -0.35327148 0 0 0 0
0.020614624 -0.021255493 -0.35327148 0 0 0 0
0.022445679 -0.021255493 -0.35327148 0 0 0 0
0.024276733 -0.021255493 -0.35327148 0 0 0 0
0.026107788 -0.021255493 -0.35327148 0 0 0 0
0.027938843 -0.021255493 -0.35327148 0 0 0 0
0.029769897 -0.021255493 -0.35327148 0 0 0 0
0.031585693 -0.021255493 -0.35327148 0 0 0 0
0.033416748 -0.021255493 -0.35327148 0 0 0 0
0.035247803 -0.021255493 -0.35327148 0 0 0 0
0.037078857 -0.021255493 -0.35327148 0 0 0 0
0.038909912 -0.021255493 -0.35327148 0 0 0 0
0.040740967 -0.021255493 -0.35327148 0 0 0 0
0.042572021 -0.021255493 -0.35327148 0 0 0 0
0.044403076 -0.021255493 -0.35327148 0 0 0 0
0.046234131 -0.021255493 -0.35327148 0 0 0 0
0.048065186 -0.021255493 -0.35327148 0 0 0 0
0.04989624 -0.021255493 -0.35327148 0 0 0 0
0.051727295 -0.021255493 -0.35327148 0 0 0 0
0.05355835 -0.021255493 -0.35327148 0 0 0 0
0.055389404 -0.021255493 -0.35327148 0 0 0 0
0.057220459 -0.021255493 -0.35327148 0 0 0 0
0.059051514 -0.021255493 -0.35327148 0 0 0 0
0.060882568 -0.021255493 -0.35327148 0 0 0 0
0.062683105 -0.021255493 -0.35327148 0 0 0 0
0.06451416 -0.021255493 -0.35327148 0 0 0 0
0.096679688 -0.01776123 -0.29492188 0 0 0 0
0.097839355 -0.017700195 -0.29394531 0 0 0 0
0.099365234 -0.017700195 -0.29394531 0 0 0 0
0.10058594 -0.01763916 -0.29296875 0 0 0 0
0.10174561 -0.017578125 -0.29199219 0 0 0 0
0.10290527 -0.01751709 -0.29101562 0 0 0 0
0.10406494 -0.017456055 -0.29003906 0 0 0 0
0.10516357 -0.01739502 -0.2890625 0 0 0 0
0.10632324 -0.017333984 -0.28808594 0 0 0 0
0.10742188 -0.017272949 -0.28710938 0 0 0 0
0.10852051 -0.017211914 -0.28588867 0 0 0 0
0.10961914 -0.017150879 -0.28491211 0 0 0 0
0.11071777 -0.017089844 -0.28393555 0 0 0 0
0.11175537 -0.017028809 -0.28295898 0 0 0 0
0.112854 -0.016967773 -0.28198242 0 0 0 0
0.1138916 -0.016906738 -0.28100586 0 0 0 0
0.1149292 -0.016845703 -0.2800293 0 0 0 0
0.11639404 -0.016845703 -0.2800293 0 0 0 0
0.11743164 -0.016784668 -0.27905273 0 0 0 0
0.11889648 -0.016784668 -0.27905273 0 0 0 0
0.12030029 -0.016784668 -0.27905273 0 0 0 0
0.12176514 -0.016784668 -0.27905273 0 0 0 0
0.12322998 -0.016784668 -0.27905273 0 0 0 0
0.12512207 -0.016845703 -0.2800293 0 0 0 0
0.12695312 -0.016906738 -0.28100586 0 0 0 0
0.12841797 -0.016906738 -0.28100586 0 0 0 0
0.13122559 -0.017089844 -0.28393555 0 0 0 0
0.13317871 -0.017150879 -0.28491211 0 0 0 0
0.13513184 -0.017211914 -0.28588867 0 0 0 0
0.13708496 -0.017272949 -0.28710938 0 0 0 0
0.13867188 -0.017272949 -0.28710938 0 0 0 0
0.14013672 -0.017272949 -0.28710938 0 0 0 0
-0.1194458 -0.017181396 -0.26293945 0 0 0 0
-0.11810303 -0.017181396 -0.26293945 0 0 0 0
-0.11627197 -0.017120361 -0.26196289 0 0 0 0
-0.1149292 -0.017120361 -0.26196289 0 0 0 0
-0.11358643 -0.017120361 -0.26196289 0 0 0 0
-0.11175537 -0.017059326 -0.26098633 0 0 0 0
-0.10998535 -0.016983032 -0.26000977 0 0 0 0
-0.10821533 -0.016921997 -0.25878906 0 0 0 0
-0.10650635 -0.016860962 -0.2578125 0 0 0 0
-0.10516357 -0.016860962 -0.2578125 0 0 0 0
-0.10339355 -0.016799927 -0.25683594 0 0 0 0
-0.10168457 -0.016723633 -0.25585938 0 0 0 0
-0.099975586 -0.016662598 -0.25488281 0 0 0 0
-0.095947266 -0.016204834 -0.2479248 0 0 0 0
-0.095031738 -0.016265869 -0.24890137 0 0 0 0
-0.093322754 -0.016204834 -0.2479248 0 0 0 0
-0.092041016 -0.016204834 -0.2479248 0 0 0 0
-0.091125488 -0.016265869 -0.24890137 0 0 0 0
-0.08984375 -0.016265869 -0.24890137 0 0 0 0
-0.088562012 -0.016265869 -0.24890137 0 0 0 0
-0.087280273 -0.016265869 -0.24890137 0 0 0 0
-0.085998535 -0.016265869 -0.24890137 0 0 0 0
-0.084716797 -0.016265869 -0.24890137 0 0 0 0
-0.083435059 -0.016265869 -0.24890137 0 0 0 0
-0.080078125 -0.016921997 -0.25878906 0 0 0 0
-0.078735352 -0.016921997 -0.25878906 0 0 0 0
-0.077392578 -0.016921997 -0.25878906 0 0 0 0
-0.076049805 -0.016921997 -0.25878906 0 0 0 0
-0.074707031 -0.016921997 -0.25878906 0 0 0 0
-0.073364258 -0.016921997 -0.25878906 0 0 0 0
-0.072021484 -0.016921997 -0.25878906 0 0 0 0
-0.070983887 -0.016983032 -0.26000977 0 0 0 0
-0.069641113 -0.016983032 -0.26000977 0 0 0 0
-0.068237305 -0.016983032 -0.26000977 0 0 0 0
-0.067199707 -0.017059326 -0.26098633 0 0 0 0
-0.065856934 -0.017059326 -0.26098633 0 0 0 0
-0.017883301 -0.023223877 -0.35522461 0 0 0 0
-0.016052246 -0.023223877 -0.35522461 0 0 0 0
-0.014213562 -0.023223877 -0.35522461 0 0 0 0
-0.012336731 -0.023162842 -0.35424805 0 0 0 0
-0.010505676 -0.023162842 -0.35424805 0 0 0 0
-0.0086669922 -0.023162842 -0.35424805 0 0 0 0
-0.0068359375 -0.023162842 -0.35424805 0 0 0 0
-0.0050010681 -0.023162842 -0.35424805 0 0 0 0
-0.0031661987 -0.023162842 -0.35424805 0 0 0 0
-0.001332283 -0.023162842 -0.35424805 0 0 0 0
0.00050067902 -0.023086548 -0.35327148 0 0 0 0
0.0023288727 -0.023086548 -0.35327148 0 0 0 0
0.00415802 -0.023086548 -0.35327148 0 0 0 0
0.0059890747 -0.023086548 -0.35327148 0 0 0 0
0.0078201294 -0.023086548 -0.35327148 0 0 0 0
0.0096435547 -0.023086548 -0.35327148 0 0 0 0
0.011474609 -0.023086548 -0.35327148 0 0 0 0
0.013305664 -0.023086548 -0.35327148 0 0 0 0
0.015136719 -0.023086548 -0.35327148 0 0 0 0
0.016967773 -0.023086548 -0.35327148 0 0 0 0
0.018798828 -0.023086548 -0.35327148 0 0 0 0
0.020614624 -0.023086548 -0.35327148 0 0 0 0
0.022445679 -0.023086548 -0.35327148 0 0 0 0
0.024276733 -0.023086548 -0.35327148 0 0 0 0
0.026107788 -0.023086548 -0.35327148 0 0 0 0
0.027938843 -0.023086548 -0.35327148 0 0 0 0
0.029769897 -0.023086548 -0.35327148 0 0 0 0
0.031585693 -0.023086548 -0.35327148 0 0 0 0
0.033416748 -0.023086548 -0.35327148 0 0 0 0
0.035247803 -0.023086548 -0.35327148 0 0 0 0
0.037078857 -0.023086548 -0.35327148 0 0 0 0
0.038909912 -0.023086548 -0.35327148 0 0 0 0
0.040740967 -0.023086548 -0.35327148 0 0 0 0
0.042572021 -0.023086548 -0.35327148 0 0 0 0
0.044403076 -0.023086548 -0.35327148 0 0 0 0
0.046234131 -0.023086548 -0.35327148 0 0 0 0
0.048065186 -0.023086548 -0.35327148 0 0 0 0
0.04989624 -0.023086548 -0.35327148 0 0 0 0
0.051727295 -0.023086548 -0.35327148 0 0 0 0
0.05355835 -0.023086548 -0.35327148 0 0 0 0
0.055389404 -0.023086548 -0.35327148 0 0 0 0
0.057220459 -0.023086548 -0.35327148 0 0 0 0
0.059051514 -0.023086548 -0.35327148 0 0 0 0
0.060882568 -0.023086548 -0.35327148 0 0 0 0
0.062683105 -0.023086548 -0.35327148 0 0 0 0
0.096679688 -0.019287109 -0.29492188 0 0 0 0
0.097839355 -0.019226074 -0.29394531 0 0 0 0
0.099365234 -0.019226074 -0.29394531 0 0 0 0
0.10058594 -0.01914978 -0.29296875 0 0 0 0
0.10174561 -0.019088745 -0.29199219 0 0 0 0
0.10290527 -0.01902771 -0.29101562 0 0 0 0
0.10406494 -0.018951416 -0.29003906 0 0 0 0
0.10516357 -0.018890381 -0.2890625 0 0 0 0
0.10632324 -0.018829346 -0.28808594 0 0 0 0
0.10742188 -0.018768311 -0.28710938 0 0 0 0
0.1081543 -0.018630981 -0.28491211 0 0 0 0
0.10925293 -0.018569946 -0.28393555 0 0 0 0
0.11029053 -0.018493652 -0.28295898 0 0 0 0
0.11138916 -0.018432617 -0.28198242 0 0 0 0
0.112854 -0.018432617 -0.28198242 0 0 0 0
0.1138916 -0.018371582 -0.28100586 0 0 0 0
0.1149292 -0.018295288 -0.2800293 0 0 0 0
0.1159668 -0.018234253 -0.27905273 0 0 0 0
0.11743164 -0.018234253 -0.27905273 0 0 0 0
0.11889648 -0.018234253 -0.27905273 0 0 0 0
0.11987305 -0.018173218 -0.27807617 0 0 0 0
0.12133789 -0.018173218 -0.27807617 0 0 0 0
0.12322998 -0.018234253 -0.27905273 0 0 0 0
0.12463379 -0.018234253 -0.27905273 0 0 0 0
0.12646484 -0.018295288 -0.2800293 0 0 0 0
0.12792969 -0.018295288 -0.2800293 0 0 0 0
0.13085938 -0.018493652 -0.28295898 0 0 0 0
0.13317871 -0.018630981 -0.28491211 0 0 0 0
0.13513184 -0.018692017 -0.28588867 0 0 0 0
0.13708496 -0.018768311 -0.28710938 0 0 0 0
0.13867188 -0.018768311 -0.28710938 0 0 0 0
0.14013672 -0.018768311 -0.28710938 0 0 0 0
-0.1194458 -0.018554688 -0.26293945 0 0 0 0
-0.11810303 -0.018554688 -0.26293945 0 0 0 0
-0.11627197 -0.018478394 -0.26196289 0 0 0 0
-0.1149292 -0.018478394 -0.26196289 0 0 0 0
-0.11358643 -0.018478394 -0.26196289 0 0 0 0
-0.11175537 -0.0184021 -0.26098633 0 0 0 0
-0.10998535 -0.018341064 -0.26000977 0 0 0 0
-0.10821533 -0.018264771 -0.25878906 0 0 0 0
-0.10687256 -0.018264771 -0.25878906 0 0 0 0
-0.10516357 -0.018188477 -0.2578125 0 0 0 0
-0.10339355 -0.018127441 -0.25683594 0 0 0 0
-0.10125732 -0.017974854 -0.25488281 0 0 0 0
-0.09954834 -0.017913818 -0.25390625 0 0 0 0
-0.096679688 -0.017623901 -0.24987793 0 0 0 0
-0.095031738 -0.017562866 -0.24890137 0 0 0 0
-0.09375 -0.017562866 -0.24890137 0 0 0 0
-0.092468262 -0.017562866 -0.24890137 0 0 0 0
-0.091125488 -0.017562866 -0.24890137 0 0 0 0
-0.08984375 -0.017562866 -0.24890137 0 0 0 0
-0.088562012 -0.017562866 -0.24890137 0 0 0 0
-0.087280273 -0.017562866 -0.24890137 0 0 0 0
-0.085998535 -0.017562866 -0.24890137 0 0 0 0
-0.084716797 -0.017562866 -0.24890137 0 0 0 0
-0.083435059 -0.017562866 -0.24890137 0 0 0 0
-0.08215332 -0.017562866 -0.24890137 0 0 0 0
-0.081420898 -0.018264771 -0.25878906 0 0 0 0
-0.080078125 -0.018264771 -0.25878906 0 0 0 0
-0.078735352 -0.018264771 -0.25878906 0 0 0 0
-0.077392578 -0.018264771 -0.25878906 0 0 0 0
-0.076049805 -0.018264771 -0.25878906 0 0 0 0
-0.074707031 -0.018264771 -0.25878906 0 0 0 0
-0.073364258 -0.018264771 -0.25878906 0 0 0 0
-0.072021484 -0.018264771 -0.25878906 0 0 0 0
-0.070983887 -0.018341064 -0.26000977 0 0 0 0
-0.069641113 -0.018341064 -0.26000977 0 0 0 0
-0.068237305 -0.018341064 -0.26000977 0 0 0 0
-0.066894531 -0.018341064 -0.26000977 0 0 0 0
-0.065856934 -0.0184021 -0.26098633 0 0 0 0
-0.012336731 -0.024993896 -0.35424805 0 0 0 0
-0.010505676 -0.024993896 -0.35424805 0 0 0 0
-0.0086669922 -0.024993896 -0.35424805 0 0 0 0
-0.0068359375 -0.024993896 -0.35424805 0 0 0 0
-0.0050010681 -0.024993896 -0.35424805 0 0 0 0
-0.0031661987 -0.024993896 -0.35424805 0 0 0 0
-0.0013284683 -0.024917603 -0.35327148 0 0 0 0
0.00050067902 -0.024917603 -0.35327148 0 0 0 0
0.0023288727 -0.024917603 -0.35327148 0 0 0 0
0.00415802 -0.024917603 -0.35327148 0 0 0 0
0.0059890747 -0.024917603 -0.35327148 0 0 0 0
0.0078201294 -0.024917603 -0.35327148 0 0 0 0
0.0096435547 -0.024917603 -0.35327148 0 0 0 0
0.011474609 -0.024917603 -0.35327148 0 0 0 0
0.013305664 -0.024917603 -0.35327148 0 0 0 0
0.015136719 -0.024917603 -0.35327148 0 0 0 0
0.016967773 -0.024917603 -0.35327148 0 0 0 0
0.018798828 -0.024917603 -0.35327148 0 0 0 0
0.020614624 -0.024917603 -0.35327148 0 0 0 0
0.022445679 -0.024917603 -0.35327148 0 0 0 0
0.024276733 -0.024917603 -0.35327148 0 0 0 0
0.026107788 -0.024917603 -0.35327148 0 0 0 0
0.027938843 -0.024917603 -0.35327148 0 0 0 0
0.029769897 -0.024917603 -0.35327148 0 0 0 0
0.031585693 -0.024917603 -0.35327148 0 0 0 0
0.033416748 -0.024917603 -0.35327148 0 0 0 0
0.035247803 -0.024917603 -0.35327148 0 0 0 0
0.037078857 -0.024917603 -0.35327148 0 0 0 0
0.038909912 -0.024917603 -0.35327148 0 0 0 0
0.040740967 -0.024917603 -0.35327148 0 0 0 0
0.042572021 -0.024917603 -0.35327148 0 0 0 0
0.044403076 -0.024917603 -0.35327148 0 0 0 0
0.046234131 -0.024917603 -0.35327148 0 0 0 0
0.048065186 -0.024917603 -0.35327148 0 0 0 0
0.04989624 -0.024917603 -0.35327148 0 0 0 0
0.051727295 -0.024917603 -0.35327148 0 0 0 0
0.05355835 -0.024917603 -0.35327148 0 0 0 0
0.055389404 -0.024917603 -0.35327148 0 0 0 0
0.057220459 -0.024917603 -0.35327148 0 0 0 0
0.059051514 -0.024917603 -0.35327148 0 0 0 0
0.060882568 -0.024917603 -0.35327148 0 0 0 0
0.096679688 -0.020812988 -0.29492188 0 0 0 0
0.097839355 -0.020736694 -0.29394531 0 0 0 0
0.099365234 -0.020736694 -0.29394531 0 0 0 0
0.10058594 -0.020675659 -0.29296875 0 0 0 0
0.10174561 -0.020599365 -0.29199219 0 0 0 0
0.10290527 -0.02053833 -0.29101562 0 0 0 0
0.10406494 -0.020462036 -0.29003906 0 0 0 0
0.10516357 -0.020385742 -0.2890625 0 0 0 0
0.10632324 -0.020324707 -0.28808594 0 0 0 0
0.10705566 -0.020172119 -0.28588867 0 0 0 0
0.1081543 -0.020111084 -0.28491211 0 0 0 0
0.10925293 -0.02003479 -0.28393555 0 0 0 0
0.11029053 -0.019958496 -0.28295898 0 0 0 0
0.11138916 -0.019897461 -0.28198242 0 0 0 0
0.11242676 -0.019821167 -0.28100586 0 0 0 0
0.11346436 -0.019744873 -0.2800293 0 0 0 0
0.1149292 -0.019744873 -0.2800293 0 0 0 0
0.1159668 -0.019683838 -0.27905273 0 0 0 0
0.11743164 -0.019683838 -0.27905273 0 0 0 0
0.11846924 -0.019607544 -0.27807617 0 0 0 0
0.11987305 -0.019607544 -0.27807617 0 0 0 0
0.12133789 -0.019607544 -0.27807617 0 0 0 0
0.1227417 -0.019607544 -0.27807617 0 0 0 0
0.12420654 -0.019607544 -0.27807617 0 0 0 0
0.12609863 -0.019683838 -0.27905273 0 0 0 0
0.12756348 -0.019683838 -0.27905273 0 0 0 0
0.13085938 -0.019958496 -0.28295898 0 0 0 0
0.13366699 -0.020172119 -0.28588867 0 0 0 0
0.13513184 -0.020172119 -0.28588867 0 0 0 0
0.13708496 -0.020248413 -0.28710938 0 0 0 0
0.13867188 -0.020248413 -0.28710938 0 0 0 0
0.14013672 -0.020248413 -0.28710938 0 0 0 0
0.14160156 -0.020248413 -0.28710938 0 0 0 0
-0.11810303 -0.01991272 -0.26293945 0 0 0 0
-0.11627197 -0.019836426 -0.26196289 0 0 0 0
-0.1149292 -0.019836426 -0.26196289 0 0 0 0
-0.11358643 -0.019836426 -0.26196289 0 0 0 0
-0.11175537 -0.019760132 -0.26098633 0 0 0 0
-0.10998535 -0.019683838 -0.26000977 0 0 0 0
-0.10864258 -0.019683838 -0.26000977 0 0 0 0
-0.10687256 -0.019607544 -0.25878906 0 0 0 0
-0.10516357 -0.01953125 -0.2578125 0 0 0 0
-0.10302734 -0.019378662 -0.25585938 0 0 0 0
-0.10125732 -0.019302368 -0.25488281 0 0 0 0
-0.099182129 -0.01914978 -0.25292969 0 0 0 0
-0.097106934 -0.018997192 -0.25097656 0 0 0 0
-0.095397949 -0.018920898 -0.24987793 0 0 0 0
-0.09375 -0.018844604 -0.24890137 0 0 0 0
-0.092468262 -0.018844604 -0.24890137 0 0 0 0
-0.091125488 -0.018844604 -0.24890137 0 0 0 0
-0.08984375 -0.018844604 -0.24890137 0 0 0 0
-0.088562012 -0.018844604 -0.24890137 0 0 0 0
-0.087280273 -0.018844604 -0.24890137 0 0 0 0
-0.085998535 -0.018844604 -0.24890137 0 0 0 0
-0.084716797 -0.018844604 -0.24890137 0 0 0 0
-0.083435059 -0.018844604 -0.24890137 0 0 0 0
-0.08215332 -0.018844604 -0.24890137 0 0 0 0
-0.081115723 -0.01953125 -0.2578125 0 0 0 0
-0.080078125 -0.019607544 -0.25878906 0 0 0 0
-0.078735352 -0.019607544 -0.25878906 0 0 0 0
-0.077392578 -0.019607544 -0.25878906 0 0 0 0
-0.076049805 -0.019607544 -0.25878906 0 0 0 0
-0.074707031 -0.019607544 -0.25878906 0 0 0 0
-0.073364258 -0.019607544 -0.25878906 0 0 0 0
-0.07232666 -0.019683838 -0.26000977 0 0 0 0
-0.070983887 -0.019683838 -0.26000977 0 0 0 0
-0.069641113 -0.019683838 -0.26000977 0 0 0 0
-0.068237305 -0.019683838 -0.26000977 0 0 0 0
-0.066894531 -0.019683838 -0.26000977 0 0 0 0
-0.010505676 -0.026824951 -0.35424805 0 0 0 0
-0.0086669922 -0.026824951 -0.35424805 0 0 0 0
-0.0068359375 -0.026824951 -0.35424805 0 0 0 0
-0.0050010681 -0.026824951 -0.35424805 0 0 0 0
-0.0031661987 -0.026824951 -0.35424805 0 0 0 0
-0.0013284683 -0.026748657 -0.35327148 0 0 0 0
0.00050067902 -0.026748657 -0.35327148 0 0 0 0
0.0023288727 -0.026748657 -0.35327148 0 0 0 0
0.00415802 -0.026748657 -0.35327148 0 0 0 0
0.0059890747 -0.026748657 -0.35327148 0 0 0 0
0.0078201294 -0.026748657 -0.35327148 0 0 0 0
0.0096435547 -0.026748657 -0.35327148 0 0 0 0
0.011474609 -0.026748657 -0.35327148 0 0 0 0
0.013305664 -0.026748657 -0.35327148 0 0 0 0
0.015136719 -0.026748657 -0.35327148 0 0 0 0
0.016967773 -0.026748657 -0.35327148 0 0 0 0
0.018798828 -0.026748657 -0.35327148 0 0 0 0
0.020614624 -0.026748657 -0.35327148 0 0 0 0
0.022445679 -0.026748657 -0.35327148 0 0 0 0
0.024276733 -0.026748657 -0.35327148 0 0 0 0
0.026107788 -0.026748657 -0.35327148 0 0 0 0
0.027862549 -0.026672363 -0.35229492 0 0 0 0
0.029678345 -0.026672363 -0.35229492 0 0 0 0
0.031494141 -0.026672363 -0.35229492 0 0 0 0
0.033325195 -0.026672363 -0.35229492 0 0 0 0
0.035247803 -0.026748657 -0.35327148 0 0 0 0
0.037078857 -0.026748657 -0.35327148 0 0 0 0
0.038909912 -0.026748657 -0.35327148 0 0 0 0
0.040740967 -0.026748657 -0.35327148 0 0 0 0
0.042572021 -0.026748657 -0.35327148 0 0 0 0
0.044281006 -0.026672363 -0.35229492 0 0 0 0
0.046112061 -0.026672363 -0.35229492 0 0 0 0
0.047912598 -0.026672363 -0.35229492 0 0 0 0
0.049743652 -0.026672363 -0.35229492 0 0 0 0
0.051727295 -0.026748657 -0.35327148 0 0 0 0
0.05355835 -0.026748657 -0.35327148 0 0 0 0
0.055389404 -0.026748657 -0.35327148 0 0 0 0
0.057220459 -0.026748657 -0.35327148 0 0 0 0
0.059051514 -0.026748657 -0.35327148 0 0 0 0
0.060882568 -0.026748657 -0.35327148 0 0 0 0
0.096679688 -0.022338867 -0.29492188 0 0 0 0
0.097839355 -0.022262573 -0.29394531 0 0 0 0
0.099365234 -0.022262573 -0.29394531 0 0 0 0
0.10058594 -0.022186279 -0.29296875 0 0 0 0
0.10174561 -0.022109985 -0.29199219 0 0 0 0
0.10290527 -0.022033691 -0.29101562 0 0 0 0
0.10406494 -0.021957397 -0.29003906 0 0 0 0
0.10516357 -0.021881104 -0.2890625 0 0 0 0
0.10632324 -0.02180481 -0.28808594 0 0 0 0
0.10705566 -0.021652222 -0.28588867 0 0 0 0
0.1081543 -0.021575928 -0.28491211 0 0 0 0
0.10925293 -0.021499634 -0.28393555 0 0 0 0
0.11029053 -0.02142334 -0.28295898 0 0 0 0
0.11138916 -0.021362305 -0.28198242 0 0 0 0
0.11242676 -0.021286011 -0.28100586 0 0 0 0
0.11346436 -0.021209717 -0.2800293 0 0 0 0
0.1149292 -0.021209717 -0.2800293 0 0 0 0
0.1159668 -0.021133423 -0.27905273 0 0 0 0
0.11700439 -0.021057129 -0.27807617 0 0 0 0
0.11846924 -0.021057129 -0.27807617 0 0 0 0
0.11987305 -0.021057129 -0.27807617 0 0 0 0
0.12133789 -0.021057129 -0.27807617 0 0 0 0
0.1227417 -0.021057129 -0.27807617 0 0 0 0
0.12420654 -0.021057129 -0.27807617 0 0 0 0
0.12561035 -0.021057129 -0.27807617 0 0 0 0
0.1270752 -0.021057129 -0.27807617 0 0 0 0
0.12805176 -0.020980835 -0.27685547 0 0 0 0
0.13366699 -0.021652222 -0.28588867 0 0 0 0
0.13562012 -0.021728516 -0.28710938 0 0 0 0
0.13708496 -0.021728516 -0.28710938 0 0 0 0
0.13867188 -0.021728516 -0.28710938 0 0 0 0
0.14013672 -0.021728516 -0.28710938 0 0 0 0
0.14160156 -0.021728516 -0.28710938 0 0 0 0
-0.11810303 -0.021270752 -0.26293945 0 0 0 0
-0.11627197 -0.021194458 -0.26196289 0 0 0 0
-0.1149292 -0.021194458 -0.26196289 0 0 0 0
-0.11358643 -0.021194458 -0.26196289 0 0 0 0
-0.11175537 -0.021102905 -0.26098633 0 0 0 0
-0.1104126 -0.021102905 -0.26098633 0 0 0 0
-0.10864258 -0.021026611 -0.26000977 0 0 0 0
-0.10687256 -0.020950317 -0.25878906 0 0 0 0
-0.10516357 -0.020858765 -0.2578125 0 0 0 0
-0.10339355 -0.020782471 -0.25683594 0 0 0 0
-0.10089111 -0.02053833 -0.25390625 0 0 0 0
-0.099182129 -0.020462036 -0.25292969 0 0 0 0
-0.097106934 -0.020294189 -0.25097656 0 0 0 0
-0.095397949 -0.020217896 -0.24987793 0 0 0 0
-0.094116211 -0.020217896 -0.24987793 0 0 0 0
-0.092468262 -0.020141602 -0.24890137 0 0 0 0
-0.091125488 -0.020141602 -0.24890137 0 0 0 0
-0.08984375 -0.020141602 -0.24890137 0 0 0 0
-0.088562012 -0.020141602 -0.24890137 0 0 0 0
-0.087280273 -0.020141602 -0.24890137 0 0 0 0
-0.085998535 -0.020141602 -0.24890137 0 0 0 0
-0.084716797 -0.020141602 -0.24890137 0 0 0 0
-0.083435059 -0.020141602 -0.24890137 0 0 0 0
-0.08215332 -0.020141602 -0.24890137 0 0 0 0
-0.081115723 -0.020858765 -0.2578125 0 0 0 0
-0.080078125 -0.020950317 -0.25878906 0 0 0 0
-0.078735352 -0.020950317 -0.25878906 0 0 0 0
-0.077392578 -0.020950317 -0.25878906 0 0 0 0
-0.076049805 -0.020950317 -0.25878906 0 0 0 0
-0.074707031 -0.020950317 -0.25878906 0 0 0 0
-0.073364258 -0.020950317 -0.25878906 0 0 0 0
-0.07232666 -0.021026611 -0.26000977 0 0 0 0
-0.070983887 -0.021026611 -0.26000977 0 0 0 0
-0.069641113 -0.021026611 -0.26000977 0 0 0 0
-0.068237305 -0.021026611 -0.26000977 0 0 0 0
-0.066894531 -0.021026611 -0.26000977 0 0 0 0
-0.0068359375 -0.028656006 -0.35424805 0 0 0 0
-0.0050010681 -0.028656006 -0.35424805 0 0 0 0
-0.0031661987 -0.028656006 -0.35424805 0 0 0 0
-0.0013284683 -0.028579712 -0.35327148 0 0 0 0
0.00050067902 -0.028579712 -0.35327148 0 0 0 0
0.0023288727 -0.028579712 -0.35327148 0 0 0 0
0.00415802 -0.028579712 -0.35327148 0 0 0 0
0.0059890747 -0.028579712 -0.35327148 0 0 0 0
0.0078201294 -0.028579712 -0.35327148 0 0 0 0
0.0096435547 -0.028579712 -0.35327148 0 0 0 0
0.011474609 -0.028579712 -0.35327148 0 0 0 0
0.013305664 -0.028579712 -0.35327148 0 0 0 0
0.015136719 -0.028579712 -0.35327148 0 0 0 0
0.016967773 -0.028579712 -0.35327148 0 0 0 0
0.018798828 -0.028579712 -0.35327148 0 0 0 0
0.020614624 -0.028579712 -0.35327148 0 0 0 0
0.022445679 -0.028579712 -0.35327148 0 0 0 0
0.024215698 -0.028503418 -0.35229492 0 0 0 0
0.026031494 -0.028503418 -0.35229492 0 0 0 0
0.027862549 -0.028503418 -0.35229492 0 0 0 0
0.029678345 -0.028503418 -0.35229492 0 0 0 0
0.031494141 -0.028503418 -0.35229492 0 0 0 0
0.033325195 -0.028503418 -0.35229492 0 0 0 0
0.03515625 -0.028503418 -0.35229492 0 0 0 0
0.036987305 -0.028503418 -0.35229492 0 0 0 0
0.038787842 -0.028503418 -0.35229492 0 0 0 0
0.040618896 -0.028503418 -0.35229492 0 0 0 0
0.042449951 -0.028503418 -0.35229492 0 0 0 0
0.044281006 -0.028503418 -0.35229492 0 0 0 0
0.046112061 -0.028503418 -0.35229492 0 0 0 0
0.047912598 -0.028503418 -0.35229492 0 0 0 0
0.049743652 -0.028503418 -0.35229492 0 0 0 0
0.051574707 -0.028503418 -0.35229492 0 0 0 0
0.05355835 -0.028579712 -0.35327148 0 0 0 0
0.055389404 -0.028579712 -0.35327148 0 0 0 0
0.057220459 -0.028579712 -0.35327148 0 0 0 0
0.096679688 -0.023864746 -0.29492188 0 0 0 0
0.097839355 -0.023788452 -0.29394531 0 0 0 0
0.099365234 -0.023788452 -0.29394531 0 0 0 0
0.10058594 -0.023712158 -0.29296875 0 0 0 0
0.10174561 -0.023620605 -0.29199219 0 0 0 0
0.10290527 -0.023544312 -0.29101562 0 0 0 0
0.10406494 -0.023468018 -0.29003906 0 0 0 0
0.10516357 -0.023391724 -0.2890625 0 0 0 0
0.10632324 -0.023300171 -0.28808594 0 0 0 0
0.10705566 -0.023147583 -0.28588867 0 0 0 0
0.1081543 -0.02305603 -0.28491211 0 0 0 0
0.10925293 -0.022979736 -0.28393555 0 0 0 0
0.11029053 -0.022903442 -0.28295898 0 0 0 0
0.11138916 -0.02281189 -0.28198242 0 0 0 0
0.11242676 -0.022735596 -0.28100586 0 0 0 0
0.11346436 -0.022659302 -0.2800293 0 0 0 0
0.1149292 -0.022659302 -0.2800293 0 0 0 0
0.1159668 -0.022567749 -0.27905273 0 0 0 0
0.11700439 -0.022491455 -0.27807617 0 0 0 0
0.11846924 -0.022491455 -0.27807617 0 0 0 0
0.11987305 -0.022491455 -0.27807617 0 0 0 0
0.12091064 -0.022415161 -0.27685547 0 0 0 0
0.12231445 -0.022415161 -0.27685547 0 0 0 0
0.12420654 -0.022491455 -0.27807617 0 0 0 0
0.12561035 -0.022491455 -0.27807617 0 0 0 0
0.1270752 -0.022491455 -0.27807617 0 0 0 0
0.12854004 -0.022491455 -0.27807617 0 0 0 0
0.13366699 -0.023147583 -0.28588867 0 0 0 0
0.13562012 -0.023223877 -0.28710938 0 0 0 0
0.13708496 -0.023223877 -0.28710938 0 0 0 0
0.13867188 -0.023223877 -0.28710938 0 0 0 0
0.14013672 -0.023223877 -0.28710938 0 0 0 0
0.14160156 -0.023223877 -0.28710938 0 0 0 0
-0.11627197 -0.02255249 -0.26196289 0 0 0 0
-0.1149292 -0.02255249 -0.26196289 0 0 0 0
-0.11358643 -0.02255249 -0.26196289 0 0 0 0
-0.11218262 -0.02255249 -0.26196289 0 0 0 0
-0.1104126 -0.022460938 -0.26098633 0 0 0 0
-0.10864258 -0.022369385 -0.26000977 0 0 0 0
-0.1072998 -0.022369385 -0.26000977 0 0 0 0
-0.10552979 -0.022293091 -0.25878906 0 0 0 0
-0.10339355 -0.022109985 -0.25683594 0 0 0 0
-0.10089111 -0.021850586 -0.25390625 0 0 0 0
-0.099182129 -0.021774292 -0.25292969 0 0 0 0
-0.097106934 -0.021591187 -0.25097656 0 0 0 0
-0.095397949 -0.021514893 -0.24987793 0 0 0 0
-0.094116211 -0.021514893 -0.24987793 0 0 0 0
-0.092468262 -0.02142334 -0.24890137 0 0 0 0
-0.091125488 -0.02142334 -0.24890137 0 0 0 0
-0.08984375 -0.02142334 -0.24890137 0 0 0 0
-0.088562012 -0.02142334 -0.24890137 0 0 0 0
-0.087280273 -0.02142334 -0.24890137 0 0 0 0
-0.085998535 -0.02142334 -0.24890137 0 0 0 0
-0.084716797 -0.02142334 -0.24890137 0 0 0 0
-0.083435059 -0.02142334 -0.24890137 0 0 0 0
-0.08215332 -0.02142334 -0.24890137 0 0 0 0
-0.082458496 -0.022201538 -0.2578125 0 0 0 0
-0.081115723 -0.022201538 -0.2578125 0 0 0 0
-0.080078125 -0.022293091 -0.25878906 0 0 0 0
-0.078735352 -0.022293091 -0.25878906 0 0 0 0
-0.077392578 -0.022293091 -0.25878906 0 0 0 0
-0.076049805 -0.022293091 -0.25878906 0 0 0 0
-0.074707031 -0.022293091 -0.25878906 0 0 0 0
-0.073669434 -0.022369385 -0.26000977 0 0 0 0
-0.07232666 -0.022369385 -0.26000977 0 0 0 0
-0.070983887 -0.022369385 -0.26000977 0 0 0 0
-0.069641113 -0.022369385 -0.26000977 0 0 0 0
-0.068237305 -0.022369385 -0.26000977 0 0 0 0
-0.066894531 -0.022369385 -0.26000977 0 0 0 0
-0.0068359375 -0.030502319 -0.35424805 0 0 0 0
-0.0050010681 -0.030502319 -0.35424805 0 0 0 0
-0.0031661987 -0.030502319 -0.35424805 0 0 0 0
-0.0013284683 -0.030410767 -0.35327148 0 0 0 0
0.00050067902 -0.030410767 -0.35327148 0 0 0 0
0.0023288727 -0.030410767 -0.35327148 0 0 0 0
0.00415802 -0.030410767 -0.35327148 0 0 0 0
0.0059890747 -0.030410767 -0.35327148 0 0 0 0
0.0078201294 -0.030410767 -0.35327148 0 0 0 0
0.0096435547 -0.030410767 -0.35327148 0 0 0 0
0.011474609 -0.030410767 -0.35327148 0 0 0 0
0.013305664 -0.030410767 -0.35327148 0 0 0 0
0.015136719 -0.030410767 -0.35327148 0 0 0 0
0.016967773 -0.030410767 -0.35327148 0 0 0 0
0.018798828 -0.030410767 -0.35327148 0 0 0 0
0.020614624 -0.030410767 -0.35327148 0 0 0 0
0.022445679 -0.030410767 -0.35327148 0 0 0 0
0.024215698 -0.030319214 -0.35229492 0 0 0 0
0.026031494 -0.030319214 -0.35229492 0 0 0 0
0.027862549 -0.030319214 -0.35229492 0 0 0 0
0.029678345 -0.030319214 -0.35229492 0 0 0 0
0.031494141 -0.030319214 -0.35229492 0 0 0 0
0.033325195 -0.030319214 -0.35229492 0 0 0 0
0.03515625 -0.030319214 -0.35229492 0 0 0 0
0.036987305 -0.030319214 -0.35229492 0 0 0 0
0.038787842 -0.030319214 -0.35229492 0 0 0 0
0.040618896 -0.030319214 -0.35229492 0 0 0 0
0.042449951 -0.030319214 -0.35229492 0 0 0 0
0.044281006 -0.030319214 -0.35229492 0 0 0 0
0.046112061 -0.030319214 -0.35229492 0 0 0 0
0.047912598 -0.030319214 -0.35229492 0 0 0 0
0.049743652 -0.030319214 -0.35229492 0 0 0 0
0.051574707 -0.030319214 -0.35229492 0 0 0 0
0.053405762 -0.030319214 -0.35229492 0 0 0 0
0.055389404 -0.030410767 -0.35327148 0 0 0 0
0.096679688 -0.025405884 -0.29492188 0 0 0 0
0.098205566 -0.025405884 -0.29492188 0 0 0 0
0.099365234 -0.025314331 -0.29394531 0 0 0 0
0.10058594 -0.025222778 -0.29296875 0 0 0 0
0.10174561 -0.025146484 -0.29199219 0 0 0 0
0.10290527 -0.025054932 -0.29101562 0 0 0 0
0.10406494 -0.024963379 -0.29003906 0 0 0 0
0.10516357 -0.024887085 -0.2890625 0 0 0 0
0.10632324 -0.024795532 -0.28808594 0 0 0 0
0.10742188 -0.024703979 -0.28710938 0 0 0 0
0.10852051 -0.024627686 -0.28588867 0 0 0 0
0.10925293 -0.02444458 -0.28393555 0 0 0 0
0.11029053 -0.024368286 -0.28295898 0 0 0 0
0.11138916 -0.024276733 -0.28198242 0 0 0 0
0.11242676 -0.024185181 -0.28100586 0 0 0 0
0.11346436 -0.024108887 -0.2800293 0 0 0 0
0.1149292 -0.024108887 -0.2800293 0 0 0 0
0.1159668 -0.024017334 -0.27905273 0 0 0 0
0.11700439 -0.023925781 -0.27807617 0 0 0 0
0.11846924 -0.023925781 -0.27807617 0 0 0 0
0.11987305 -0.023925781 -0.27807617 0 0 0 0
0.12133789 -0.023925781 -0.27807617 0 0 0 0
0.1227417 -0.023925781 -0.27807617 0 0 0 0
0.12420654 -0.023925781 -0.27807617 0 0 0 0
0.12561035 -0.023925781 -0.27807617 0 0 0 0
0.1270752 -0.023925781 -0.27807617 0 0 0 0
0.12805176 -0.023849487 -0.27685547 0 0 0 0
0.13562012 -0.024703979 -0.28710938 0 0 0 0
0.13708496 -0.024703979 -0.28710938 0 0 0 0
0.13867188 -0.024703979 -0.28710938 0 0 0 0
0.140625 -0.024795532 -0.28808594 0 0 0 0
0.14208984 -0.024795532 -0.28808594 0 0 0 0
0.14355469 -0.024795532 -0.28808594 0 0 0 0
-0.11669922 -0.024002075 -0.26293945 0 0 0 0
-0.1149292 -0.023910522 -0.26196289 0 0 0 0
-0.11358643 -0.023910522 -0.26196289 0 0 0 0
-0.11218262 -0.023910522 -0.26196289 0 0 0 0
-0.1104126 -0.02381897 -0.26098633 0 0 0 0
-0.10906982 -0.02381897 -0.26098633 0 0 0 0
-0.1072998 -0.023727417 -0.26000977 0 0 0 0
-0.10552979 -0.023635864 -0.25878906 0 0 0 0
-0.10339355 -0.023452759 -0.25683594 0 0 0 0
-0.10089111 -0.023178101 -0.25390625 0 0 0 0
-0.098754883 -0.022994995 -0.25195312 0 0 0 0
-0.097106934 -0.022903442 -0.25097656 0 0 0 0
-0.095397949 -0.02281189 -0.24987793 0 0 0 0
-0.094116211 -0.02281189 -0.24987793 0 0 0 0
-0.092468262 -0.022720337 -0.24890137 0 0 0 0
-0.091125488 -0.022720337 -0.24890137 0 0 0 0
-0.08984375 -0.022720337 -0.24890137 0 0 0 0
-0.088562012 -0.022720337 -0.24890137 0 0 0 0
-0.087280273 -0.022720337 -0.24890137 0 0 0 0
-0.085998535 -0.022720337 -0.24890137 0 0 0 0
-0.084716797 -0.022720337 -0.24890137 0 0 0 0
-0.083435059 -0.022720337 -0.24890137 0 0 0 0
-0.08215332 -0.022720337 -0.24890137 0 0 0 0
-0.084106445 -0.023635864 -0.25878906 0 0 0 0
-0.082763672 -0.023635864 -0.25878906 0 0 0 0
-0.081420898 -0.023635864 -0.25878906 0 0 0 0
-0.080078125 -0.023635864 -0.25878906 0 0 0 0
-0.078735352 -0.023635864 -0.25878906 0 0 0 0
-0.077392578 -0.023635864 -0.25878906 0 0 0 0
-0.076049805 -0.023635864 -0.25878906 0 0 0 0
-0.075012207 -0.023727417 -0.26000977 0 0 0 0
-0.073669434 -0.023727417 -0.26000977 0 0 0 0
-0.07232666 -0.023727417 -0.26000977 0 0 0 0
-0.070983887 -0.023727417 -0.26000977 0 0 0 0
-0.069641113 -0.023727417 -0.26000977 0 0 0 0
-0.068237305 -0.023727417 -0.26000977 0 0 0 0
-0.067199707 -0.02381897 -0.26098633 0 0 0 0
-0.0031661987 -0.032318115 -0.35424805 0 0 0 0
