ply
format ascii 1.0
comment PCL generated
element vertex 1077
property float x
property float y
property float z
property float nx
property float ny
property float nz
property float curvature
element face 0
element camera 0
property float view_px
property float view_py
property float view_pz
property float x_axisx
property float x_axisy
property float x_axisz
property float y_axisx
property float y_axisy
property float y_axisz
property float z_axisx
property float z_axisy
property float z_axisz
property float focal
property float scalex
property float scaley
property float centerx
property float centery
property int viewportx
property int viewporty
property float k1
property float k2
end_header
0.099853516 0.085876465 -0.39135742 0 0 0 0
0.10217285 0.086120605 -0.39233398 0 0 0 0
0.10443115 0.086303711 -0.39331055 0 0 0 0
0.10675049 0.086547852 -0.39453125 0 0 0 0
0.10906982 0.086730957 -0.39550781 0 0 0 0
0.11138916 0.086975098 -0.39648438 0 0 0 0
0.11346436 0.086975098 -0.39648438 0 0 0 0
0.11578369 0.087219238 -0.39746094 0 0 0 0
0.11816406 0.087402344 -0.3984375 0 0 0 0
0.12054443 0.087646484 -0.39941406 0 0 0 0
0.1229248 0.087890625 -0.40039062 0 0 0 0
-0.0053253174 0.080871582 -0.37744141 0 0 0 0
-0.003364563 0.080627441 -0.37646484 0 0 0 0
-0.0014152527 0.080627441 -0.37646484 0 0 0 0
0.00053310394 0.080627441 -0.37646484 0 0 0 0
0.0024814606 0.080627441 -0.37646484 0 0 0 0
0.0044288635 0.080627441 -0.37646484 0 0 0 0
0.0063781738 0.080627441 -0.37646484 0 0 0 0
0.0083465576 0.080871582 -0.37744141 0 0 0 0
0.010360718 0.081298828 -0.37939453 0 0 0 0
0.012390137 0.081726074 -0.38134766 0 0 0 0
0.014404297 0.08190918 -0.38232422 0 0 0 0
0.016372681 0.08190918 -0.38232422 0 0 0 0
0.018356323 0.08190918 -0.38232422 0 0 0 0
0.020401001 0.08215332 -0.38330078 0 0 0 0
0.022384644 0.08215332 -0.38330078 0 0 0 0
0.024429321 0.082336426 -0.38427734 0 0 0 0
0.026550293 0.082763672 -0.38647461 0 0 0 0
0.028640747 0.083007812 -0.38745117 0 0 0 0
0.030792236 0.083435059 -0.3894043 0 0 0 0
0.032989502 0.083862305 -0.39135742 0 0 0 0
0.035095215 0.08404541 -0.39233398 0 0 0 0
0.037322998 0.084472656 -0.39453125 0 0 0 0
0.039550781 0.084899902 -0.39648438 0 0 0 0
0.0418396 0.085388184 -0.3984375 0 0 0 0
0.0440979 0.08581543 -0.40039062 0 0 0 0
0.058349609 0.077209473 -0.36035156 0 0 0 0
0.060211182 0.077209473 -0.36035156 0 0 0 0
0.061920166 0.076965332 -0.359375 0 0 0 0
0.063598633 0.076782227 -0.35839844 0 0 0 0
0.065429688 0.076782227 -0.35839844 0 0 0 0
0.067077637 0.076538086 -0.35717773 0 0 0 0
0.068725586 0.07635498 -0.35620117 0 0 0 0
0.070617676 0.07635498 -0.35620117 0 0 0 0
0.072265625 0.07611084 -0.35522461 0 0 0 0
0.07409668 0.07611084 -0.35522461 0 0 0 0
0.075927734 0.07611084 -0.35522461 0 0 0 0
0.08392334 0.08215332 -0.38330078 0 0 0 0
0.085876465 0.08215332 -0.38330078 0 0 0 0
0.088134766 0.082336426 -0.38427734 0 0 0 0
0.090576172 0.082763672 -0.38647461 0 0 0 0
0.092834473 0.083007812 -0.38745117 0 0 0 0
0.095336914 0.083435059 -0.3894043 0 0 0 0
0.097595215 0.083618164 -0.39038086 0 0 0 0
0.10009766 0.08404541 -0.39233398 0 0 0 0
0.10241699 0.084289551 -0.39331055 0 0 0 0
0.10473633 0.084472656 -0.39453125 0 0 0 0
0.10705566 0.084716797 -0.39550781 0 0 0 0
0.109375 0.084899902 -0.39648438 0 0 0 0
0.11138916 0.084899902 -0.39648438 0 0 0 0
0.11376953 0.085144043 -0.39746094 0 0 0 0
0.11608887 0.085388184 -0.3984375 0 0 0 0
0.11846924 0.085571289 -0.39941406 0 0 0 0
0.12084961 0.08581543 -0.40039062 0 0 0 0
0.12322998 0.085998535 -0.40136719 0 0 0 0
-0.0053253174 0.078857422 -0.37744141 0 0 0 0
-0.0033740997 0.078857422 -0.37744141 0 0 0 0
-0.0014190674 0.078857422 -0.37744141 0 0 0 0
0.00053453445 0.078857422 -0.37744141 0 0 0 0
0.00248909 0.078857422 -0.37744141 0 0 0 0
0.0044441223 0.078857422 -0.37744141 0 0 0 0
0.0064125061 0.079101562 -0.37841797 0 0 0 0
0.008392334 0.079284668 -0.37939453 0 0 0 0
0.010383606 0.079528809 -0.38037109 0 0 0 0
0.012390137 0.079711914 -0.38134766 0 0 0 0
0.01436615 0.079711914 -0.38134766 0 0 0 0
0.016342163 0.079711914 -0.38134766 0 0 0 0
0.018310547 0.079711914 -0.38134766 0 0 0 0
0.020339966 0.079956055 -0.38232422 0 0 0 0
0.022323608 0.079956055 -0.38232422 0 0 0 0
0.024429321 0.080383301 -0.38427734 0 0 0 0
0.026489258 0.080566406 -0.38549805 0 0 0 0
0.028640747 0.080993652 -0.38745117 0 0 0 0
0.030715942 0.081176758 -0.38842773 0 0 0 0
0.032897949 0.081604004 -0.39038086 0 0 0 0
0.035095215 0.08203125 -0.39233398 0 0 0 0
0.037322998 0.082458496 -0.39453125 0 0 0 0
0.039550781 0.082885742 -0.39648438 0 0 0 0
0.041931152 0.083496094 -0.39941406 0 0 0 0
0.044219971 0.08392334 -0.40136719 0 0 0 0
0.057098389 0.076171875 -0.36425781 0 0 0 0
0.058685303 0.075744629 -0.36230469 0 0 0 0
0.060394287 0.075500488 -0.36132812 0 0 0 0
0.062072754 0.075317383 -0.36035156 0 0 0 0
0.063781738 0.075134277 -0.359375 0 0 0 0
0.065612793 0.075134277 -0.359375 0 0 0 0
0.067260742 0.074890137 -0.35839844 0 0 0 0
0.068969727 0.074707031 -0.35717773 0 0 0 0
0.070617676 0.074462891 -0.35620117 0 0 0 0
0.07244873 0.074462891 -0.35620117 0 0 0 0
0.07409668 0.074279785 -0.35522461 0 0 0 0
0.075927734 0.074279785 -0.35522461 0 0 0 0
0.083496094 0.079711914 -0.38134766 0 0 0 0
0.085876465 0.08013916 -0.38330078 0 0 0 0
0.088134766 0.080383301 -0.38427734 0 0 0 0
0.090576172 0.080749512 -0.38647461 0 0 0 0
0.092834473 0.080993652 -0.38745117 0 0 0 0
0.095336914 0.081420898 -0.3894043 0 0 0 0
0.097839355 0.081848145 -0.39135742 0 0 0 0
0.10009766 0.08203125 -0.39233398 0 0 0 0
0.10241699 0.082275391 -0.39331055 0 0 0 0
0.10473633 0.082458496 -0.39453125 0 0 0 0
0.1072998 0.082885742 -0.39648438 0 0 0 0
0.10961914 0.083068848 -0.39746094 0 0 0 0
0.11169434 0.083068848 -0.39746094 0 0 0 0
0.11401367 0.083312988 -0.3984375 0 0 0 0
0.11639404 0.083496094 -0.39941406 0 0 0 0
0.11877441 0.083740234 -0.40039062 0 0 0 0
0.12115479 0.08392334 -0.40136719 0 0 0 0
-0.0053405762 0.077148438 -0.37841797 0 0 0 0
-0.0033817291 0.077148438 -0.37841797 0 0 0 0
-0.0014228821 0.077148438 -0.37841797 0 0 0 0
0.00053596497 0.077148438 -0.37841797 0 0 0 0
0.002494812 0.077148438 -0.37841797 0 0 0 0
0.0044555664 0.077148438 -0.37841797 0 0 0 0
0.0064315796 0.077331543 -0.37939453 0 0 0 0
0.008392334 0.077331543 -0.37939453 0 0 0 0
0.010383606 0.077575684 -0.38037109 0 0 0 0
0.012390137 0.077758789 -0.38134766 0 0 0 0
0.01436615 0.077758789 -0.38134766 0 0 0 0
0.016342163 0.077758789 -0.38134766 0 0 0 0
0.018310547 0.077758789 -0.38134766 0 0 0 0
0.020294189 0.077758789 -0.38134766 0 0 0 0
0.022323608 0.077941895 -0.38232422 0 0 0 0
0.024368286 0.078186035 -0.38330078 0 0 0 0
0.026412964 0.078369141 -0.38427734 0 0 0 0
0.028564453 0.078796387 -0.38647461 0 0 0 0
0.030639648 0.078979492 -0.38745117 0 0 0 0
0.032806396 0.079406738 -0.3894043 0 0 0 0
0.035095215 0.08001709 -0.39233398 0 0 0 0
0.037322998 0.080383301 -0.39453125 0 0 0 0
0.039672852 0.081054688 -0.39746094 0 0 0 0
0.042022705 0.081665039 -0.40039062 0 0 0 0
0.044342041 0.08203125 -0.40234375 0 0 0 0
0.057281494 0.074462891 -0.36523438 0 0 0 0
0.058837891 0.07409668 -0.36328125 0 0 0 0
0.060546875 0.073852539 -0.36230469 0 0 0 0
0.062438965 0.073852539 -0.36230469 0 0 0 0
0.064086914 0.073669434 -0.36132812 0 0 0 0
0.065795898 0.073425293 -0.36035156 0 0 0 0
0.067687988 0.073425293 -0.36035156 0 0 0 0
0.069152832 0.073059082 -0.35839844 0 0 0 0
0.070800781 0.072814941 -0.35717773 0 0 0 0
0.07244873 0.072631836 -0.35620117 0 0 0 0
0.074279785 0.072631836 -0.35620117 0 0 0 0
0.083251953 0.077575684 -0.38037109 0 0 0 0
0.085693359 0.077941895 -0.38232422 0 0 0 0
0.087890625 0.078186035 -0.38330078 0 0 0 0
0.090332031 0.078552246 -0.38549805 0 0 0 0
0.092834473 0.078979492 -0.38745117 0 0 0 0
0.095336914 0.079406738 -0.3894043 0 0 0 0
0.097839355 0.079772949 -0.39135742 0 0 0 0
0.10009766 0.08001709 -0.39233398 0 0 0 0
0.10266113 0.080383301 -0.39453125 0 0 0 0
0.10498047 0.080627441 -0.39550781 0 0 0 0
0.10760498 0.081054688 -0.39746094 0 0 0 0
0.10992432 0.081237793 -0.3984375 0 0 0 0
0.11224365 0.081420898 -0.39941406 0 0 0 0
0.11462402 0.081665039 -0.40039062 0 0 0 0
0.11700439 0.081848145 -0.40136719 0 0 0 0
-0.005355835 0.075378418 -0.37939453 0 0 0 0
-0.0033912659 0.075378418 -0.37939453 0 0 0 0
-0.0014266968 0.075378418 -0.37939453 0 0 0 0
0.00053739548 0.075378418 -0.37939453 0 0 0 0
0.0025024414 0.075378418 -0.37939453 0 0 0 0
0.0044670105 0.075378418 -0.37939453 0 0 0 0
0.0064468384 0.075561523 -0.38037109 0 0 0 0
0.0084152222 0.075561523 -0.38037109 0 0 0 0
0.010383606 0.075561523 -0.38037109 0 0 0 0
0.012390137 0.075805664 -0.38134766 0 0 0 0
0.01436615 0.075805664 -0.38134766 0 0 0 0
0.016296387 0.075561523 -0.38037109 0 0 0 0
0.018264771 0.075561523 -0.38037109 0 0 0 0
0.020294189 0.075805664 -0.38134766 0 0 0 0
0.022262573 0.075805664 -0.38134766 0 0 0 0
0.024307251 0.07598877 -0.38232422 0 0 0 0
0.026351929 0.076171875 -0.38330078 0 0 0 0
0.028488159 0.076599121 -0.38549805 0 0 0 0
0.030639648 0.076965332 -0.38745117 0 0 0 0
0.032806396 0.077392578 -0.3894043 0 0 0 0
0.035003662 0.077758789 -0.39135742 0 0 0 0
0.037322998 0.078369141 -0.39453125 0 0 0 0
0.039672852 0.078979492 -0.39746094 0 0 0 0
0.042144775 0.079772949 -0.40136719 0 0 0 0
0.05569458 0.072998047 -0.36743164 0 0 0 0
0.057434082 0.072753906 -0.36621094 0 0 0 0
0.059173584 0.072570801 -0.36523438 0 0 0 0
0.060882568 0.072387695 -0.36425781 0 0 0 0
0.062561035 0.07220459 -0.36328125 0 0 0 0
0.064453125 0.07220459 -0.36328125 0 0 0 0
0.066162109 0.071960449 -0.36230469 0 0 0 0
0.068054199 0.071960449 -0.36230469 0 0 0 0
0.069152832 0.071166992 -0.35839844 0 0 0 0
0.070800781 0.070983887 -0.35717773 0 0 0 0
0.072631836 0.070983887 -0.35717773 0 0 0 0
0.07824707 0.074584961 -0.37524414 0 0 0 0
0.080444336 0.074768066 -0.37646484 0 0 0 0
0.083007812 0.075378418 -0.37939453 0 0 0 0
0.085449219 0.075805664 -0.38134766 0 0 0 0
0.087890625 0.076171875 -0.38330078 0 0 0 0
0.090332031 0.076599121 -0.38549805 0 0 0 0
0.092834473 0.076965332 -0.38745117 0 0 0 0
0.095336914 0.077392578 -0.3894043 0 0 0 0
0.097839355 0.077758789 -0.39135742 0 0 0 0
0.10009766 0.077941895 -0.39233398 0 0 0 0
0.10266113 0.078369141 -0.39453125 0 0 0 0
0.10498047 0.078552246 -0.39550781 0 0 0 0
0.10784912 0.079162598 -0.3984375 0 0 0 0
0.11047363 0.079589844 -0.40039062 0 0 0 0
0.11279297 0.079772949 -0.40136719 0 0 0 0
-0.005355835 0.073425293 -0.37939453 0 0 0 0
-0.0033912659 0.073425293 -0.37939453 0 0 0 0
-0.0014305115 0.073608398 -0.38037109 0 0 0 0
0.00053882599 0.073608398 -0.38037109 0 0 0 0
0.0025081635 0.073608398 -0.38037109 0 0 0 0
0.0044784546 0.073608398 -0.38037109 0 0 0 0
0.0064468384 0.073608398 -0.38037109 0 0 0 0
0.0084152222 0.073608398 -0.38037109 0 0 0 0
0.010383606 0.073608398 -0.38037109 0 0 0 0
0.012359619 0.073608398 -0.38037109 0 0 0 0
0.014328003 0.073608398 -0.38037109 0 0 0 0
0.016296387 0.073608398 -0.38037109 0 0 0 0
0.018264771 0.073608398 -0.38037109 0 0 0 0
0.020233154 0.073608398 -0.38037109 0 0 0 0
0.022262573 0.073791504 -0.38134766 0 0 0 0
0.024307251 0.073974609 -0.38232422 0 0 0 0
0.026351929 0.07421875 -0.38330078 0 0 0 0
0.028411865 0.074401855 -0.38427734 0 0 0 0
0.030563354 0.074768066 -0.38647461 0 0 0 0
0.032714844 0.075134277 -0.38842773 0 0 0 0
0.035003662 0.075744629 -0.39135742 0 0 0 0
0.037414551 0.076538086 -0.39550781 0 0 0 0
0.039764404 0.077087402 -0.3984375 0 0 0 0
0.054077148 0.071472168 -0.36938477 0 0 0 0
0.055847168 0.071289062 -0.3684082 0 0 0 0
0.05758667 0.071105957 -0.36743164 0 0 0 0
0.059326172 0.070861816 -0.36621094 0 0 0 0
0.061218262 0.070861816 -0.36621094 0 0 0 0
0.062927246 0.070678711 -0.36523438 0 0 0 0
0.064819336 0.070678711 -0.36523438 0 0 0 0
0.066711426 0.070678711 -0.36523438 0 0 0 0
0.068603516 0.070678711 -0.36523438 0 0 0 0
0.071289062 0.071472168 -0.36938477 0 0 0 0
0.073608398 0.071838379 -0.37133789 0 0 0 0
0.075683594 0.072021484 -0.37231445 0 0 0 0
0.078063965 0.07244873 -0.37426758 0 0 0 0
0.080444336 0.072814941 -0.37646484 0 0 0 0
0.082824707 0.073242188 -0.37841797 0 0 0 0
0.085205078 0.073608398 -0.38037109 0 0 0 0
0.087646484 0.073974609 -0.38232422 0 0 0 0
0.090087891 0.074401855 -0.38427734 0 0 0 0
0.092590332 0.074768066 -0.38647461 0 0 0 0
0.095092773 0.075134277 -0.38842773 0 0 0 0
0.097595215 0.075561523 -0.39038086 0 0 0 0
0.10009766 0.075927734 -0.39233398 0 0 0 0
0.10266113 0.07635498 -0.39453125 0 0 0 0
0.10522461 0.076721191 -0.39648438 0 0 0 0
0.10839844 0.077514648 -0.40039062 0 0 0 0
-0.0053710938 0.071655273 -0.38037109 0 0 0 0
-0.0034008026 0.071655273 -0.38037109 0 0 0 0
-0.0014305115 0.071655273 -0.38037109 0 0 0 0
0.00053882599 0.071655273 -0.38037109 0 0 0 0
0.0025081635 0.071655273 -0.38037109 0 0 0 0
0.0044784546 0.071655273 -0.38037109 0 0 0 0
0.0064468384 0.071655273 -0.38037109 0 0 0 0
0.0084152222 0.071655273 -0.38037109 0 0 0 0
0.010383606 0.071655273 -0.38037109 0 0 0 0
0.012359619 0.071655273 -0.38037109 0 0 0 0
0.014328003 0.071655273 -0.38037109 0 0 0 0
0.016296387 0.071655273 -0.38037109 0 0 0 0
0.018264771 0.071655273 -0.38037109 0 0 0 0
0.020233154 0.071655273 -0.38037109 0 0 0 0
0.022262573 0.071838379 -0.38134766 0 0 0 0
0.024230957 0.071838379 -0.38134766 0 0 0 0
0.026351929 0.07220459 -0.38330078 0 0 0 0
0.028411865 0.072387695 -0.38427734 0 0 0 0
0.030563354 0.072753906 -0.38647461 0 0 0 0
0.032714844 0.073120117 -0.38842773 0 0 0 0
0.034912109 0.073547363 -0.39038086 0 0 0 0
0.037414551 0.074462891 -0.39550781 0 0 0 0
0.054229736 0.069763184 -0.37036133 0 0 0 0
0.055999756 0.069580078 -0.36938477 0 0 0 0
0.057891846 0.069580078 -0.36938477 0 0 0 0
0.059661865 0.069396973 -0.3684082 0 0 0 0
0.061401367 0.069152832 -0.36743164 0 0 0 0
0.063293457 0.069152832 -0.36743164 0 0 0 0
0.065185547 0.069152832 -0.36743164 0 0 0 0
0.067077637 0.069152832 -0.36743164 0 0 0 0
0.068969727 0.069152832 -0.36743164 0 0 0 0
0.071289062 0.069580078 -0.36938477 0 0 0 0
0.073608398 0.069946289 -0.37133789 0 0 0 0
0.075683594 0.070129395 -0.37231445 0 0 0 0
0.078063965 0.070495605 -0.37426758 0 0 0 0
0.080200195 0.070678711 -0.37524414 0 0 0 0
0.082580566 0.071044922 -0.37744141 0 0 0 0
0.085021973 0.071472168 -0.37939453 0 0 0 0
0.087219238 0.071655273 -0.38037109 0 0 0 0
0.08984375 0.07220459 -0.38330078 0 0 0 0
0.092346191 0.072570801 -0.38549805 0 0 0 0
0.094848633 0.072937012 -0.38745117 0 0 0 0
0.097595215 0.073547363 -0.39038086 0 0 0 0
0.10009766 0.073913574 -0.39233398 0 0 0 0
0.10266113 0.074279785 -0.39453125 0 0 0 0
0.10522461 0.074645996 -0.39648438 0 0 0 0
-0.0053710938 0.069641113 -0.38037109 0 0 0 0
-0.003408432 0.069824219 -0.38134766 0 0 0 0
-0.0014343262 0.069824219 -0.38134766 0 0 0 0
0.0005402565 0.069824219 -0.38134766 0 0 0 0
0.0025157928 0.069824219 -0.38134766 0 0 0 0
0.0044898987 0.069824219 -0.38134766 0 0 0 0
0.0064659119 0.069824219 -0.38134766 0 0 0 0
0.0084152222 0.069641113 -0.38037109 0 0 0 0
0.010383606 0.069641113 -0.38037109 0 0 0 0
0.012359619 0.069641113 -0.38037109 0 0 0 0
0.014328003 0.069641113 -0.38037109 0 0 0 0
0.016296387 0.069641113 -0.38037109 0 0 0 0
0.018264771 0.069641113 -0.38037109 0 0 0 0
0.020233154 0.069641113 -0.38037109 0 0 0 0
0.022262573 0.069824219 -0.38134766 0 0 0 0
0.024230957 0.069824219 -0.38134766 0 0 0 0
0.026351929 0.07019043 -0.38330078 0 0 0 0
0.028411865 0.070373535 -0.38427734 0 0 0 0
0.030487061 0.070556641 -0.38549805 0 0 0 0
0.032653809 0.070922852 -0.38745117 0 0 0 0
0.034820557 0.071350098 -0.3894043 0 0 0 0
0.037994385 0.073547363 -0.40136719 0 0 0 0
0.052734375 0.068359375 -0.37329102 0 0 0 0
0.054504395 0.06817627 -0.37231445 0 0 0 0
0.056274414 0.067993164 -0.37133789 0 0 0 0
0.058044434 0.067810059 -0.37036133 0 0 0 0
0.059814453 0.067626953 -0.36938477 0 0 0 0
0.061737061 0.067626953 -0.36938477 0 0 0 0
0.063598633 0.067626953 -0.36938477 0 0 0 0
0.065368652 0.067443848 -0.3684082 0 0 0 0
0.067443848 0.067626953 -0.36938477 0 0 0 0
0.069335938 0.067626953 -0.36938477 0 0 0 0
0.071472168 0.067810059 -0.37036133 0 0 0 0
0.073791504 0.06817627 -0.37231445 0 0 0 0
0.075927734 0.068359375 -0.37329102 0 0 0 0
0.078063965 0.06854248 -0.37426758 0 0 0 0
0.080200195 0.068725586 -0.37524414 0 0 0 0
0.082397461 0.068908691 -0.37646484 0 0 0 0
0.084777832 0.069274902 -0.37841797 0 0 0 0
0.086975098 0.069458008 -0.37939453 0 0 0 0
0.089416504 0.069824219 -0.38134766 0 0 0 0
0.092102051 0.070373535 -0.38427734 0 0 0 0
0.094604492 0.070739746 -0.38647461 0 0 0 0
0.097351074 0.071350098 -0.3894043 0 0 0 0
0.099853516 0.071716309 -0.39135742 0 0 0 0
0.10241699 0.07208252 -0.39331055 0 0 0 0
0.10498047 0.07244873 -0.39550781 0 0 0 0
-0.003408432 0.067871094 -0.38134766 0 0 0 0
-0.0014343262 0.067871094 -0.38134766 0 0 0 0
0.0005402565 0.067871094 -0.38134766 0 0 0 0
0.0025157928 0.067871094 -0.38134766 0 0 0 0
0.0044898987 0.067871094 -0.38134766 0 0 0 0
0.0064659119 0.067871094 -0.38134766 0 0 0 0
0.0084152222 0.067687988 -0.38037109 0 0 0 0
0.010383606 0.067687988 -0.38037109 0 0 0 0
0.012359619 0.067687988 -0.38037109 0 0 0 0
0.014328003 0.067687988 -0.38037109 0 0 0 0
0.016296387 0.067687988 -0.38037109 0 0 0 0
0.018264771 0.067687988 -0.38037109 0 0 0 0
0.020233154 0.067687988 -0.38037109 0 0 0 0
0.022262573 0.067871094 -0.38134766 0 0 0 0
0.024307251 0.068054199 -0.38232422 0 0 0 0
0.026351929 0.068237305 -0.38330078 0 0 0 0
0.028411865 0.06842041 -0.38427734 0 0 0 0
0.030487061 0.068603516 -0.38549805 0 0 0 0
0.032653809 0.068969727 -0.38745117 0 0 0 0
0.034729004 0.069152832 -0.38842773 0 0 0 0
0.053009033 0.066772461 -0.37524414 0 0 0 0
0.054656982 0.066467285 -0.37329102 0 0 0 0
0.056427002 0.06628418 -0.37231445 0 0 0 0
0.058380127 0.06628418 -0.37231445 0 0 0 0
0.060150146 0.066101074 -0.37133789 0 0 0 0
0.061889648 0.065917969 -0.37036133 0 0 0 0
0.063781738 0.065917969 -0.37036133 0 0 0 0
0.065734863 0.065917969 -0.37036133 0 0 0 0
0.067626953 0.065917969 -0.37036133 0 0 0 0
0.069519043 0.065917969 -0.37036133 0 0 0 0
0.071655273 0.066101074 -0.37133789 0 0 0 0
0.073791504 0.06628418 -0.37231445 0 0 0 0
0.075927734 0.066467285 -0.37329102 0 0 0 0
0.078063965 0.066650391 -0.37426758 0 0 0 0
0.08001709 0.066650391 -0.37426758 0 0 0 0
0.082397461 0.066955566 -0.37646484 0 0 0 0
0.084533691 0.067138672 -0.37744141 0 0 0 0
0.086975098 0.067504883 -0.37939453 0 0 0 0
0.089172363 0.067687988 -0.38037109 0 0 0 0
0.09161377 0.068054199 -0.38232422 0 0 0 0
0.094116211 0.06842041 -0.38427734 0 0 0 0
0.097106934 0.069152832 -0.38842773 0 0 0 0
0.099609375 0.069458008 -0.39038086 0 0 0 0
0.10217285 0.069824219 -0.39233398 0 0 0 0
-0.0053977966 0.066101074 -0.38232422 0 0 0 0
-0.0034179688 0.066101074 -0.38232422 0 0 0 0
-0.0014381409 0.066101074 -0.38232422 0 0 0 0
0.00054168701 0.066101074 -0.38232422 0 0 0 0
0.0025157928 0.065917969 -0.38134766 0 0 0 0
0.0044898987 0.065917969 -0.38134766 0 0 0 0
0.0064659119 0.065917969 -0.38134766 0 0 0 0
0.0084152222 0.065734863 -0.38037109 0 0 0 0
0.010383606 0.065734863 -0.38037109 0 0 0 0
0.012359619 0.065734863 -0.38037109 0 0 0 0
0.014328003 0.065734863 -0.38037109 0 0 0 0
0.016296387 0.065734863 -0.38037109 0 0 0 0
0.018264771 0.065734863 -0.38037109 0 0 0 0
0.020294189 0.065917969 -0.38134766 0 0 0 0
0.022262573 0.065917969 -0.38134766 0 0 0 0
0.024307251 0.066101074 -0.38232422 0 0 0 0
0.026351929 0.066223145 -0.38330078 0 0 0 0
0.028411865 0.06640625 -0.38427734 0 0 0 0
0.030487061 0.066589355 -0.38549805 0 0 0 0
0.032562256 0.066772461 -0.38647461 0 0 0 0
0.053161621 0.065002441 -0.37646484 0 0 0 0
0.054962158 0.064880371 -0.37524414 0 0 0 0
0.056732178 0.064697266 -0.37426758 0 0 0 0
0.058532715 0.06451416 -0.37329102 0 0 0 0
0.060302734 0.064331055 -0.37231445 0 0 0 0
0.062225342 0.064331055 -0.37231445 0 0 0 0
0.063964844 0.064147949 -0.37133789 0 0 0 0
0.065917969 0.064147949 -0.37133789 0 0 0 0
0.067810059 0.064147949 -0.37133789 0 0 0 0
0.069763184 0.064147949 -0.37133789 0 0 0 0
0.071838379 0.064331055 -0.37231445 0 0 0 0
0.073791504 0.064331055 -0.37231445 0 0 0 0
0.075927734 0.06451416 -0.37329102 0 0 0 0
0.077819824 0.06451416 -0.37329102 0 0 0 0
0.08001709 0.064697266 -0.37426758 0 0 0 0
0.08215332 0.064880371 -0.37524414 0 0 0 0
0.084350586 0.065002441 -0.37646484 0 0 0 0
0.086730957 0.065368652 -0.37841797 0 0 0 0
0.088928223 0.065551758 -0.37939453 0 0 0 0
0.091369629 0.065917969 -0.38134766 0 0 0 0
0.09387207 0.066223145 -0.38330078 0 0 0 0
0.096862793 0.066955566 -0.38745117 0 0 0 0
0.099121094 0.067138672 -0.38842773 0 0 0 0
-0.0054130554 0.06427002 -0.38330078 0 0 0 0
-0.0034179688 0.064086914 -0.38232422 0 0 0 0
-0.0014419556 0.06427002 -0.38330078 0 0 0 0
0.00054168701 0.064086914 -0.38232422 0 0 0 0
0.0025215149 0.064086914 -0.38232422 0 0 0 0
0.0044898987 0.063903809 -0.38134766 0 0 0 0
0.0064659119 0.063903809 -0.38134766 0 0 0 0
0.0084381104 0.063903809 -0.38134766 0 0 0 0
0.010383606 0.063781738 -0.38037109 0 0 0 0
0.012359619 0.063781738 -0.38037109 0 0 0 0
0.014328003 0.063781738 -0.38037109 0 0 0 0
0.016296387 0.063781738 -0.38037109 0 0 0 0
0.018310547 0.063903809 -0.38134766 0 0 0 0
0.020294189 0.063903809 -0.38134766 0 0 0 0
0.022323608 0.064086914 -0.38232422 0 0 0 0
0.024368286 0.06427002 -0.38330078 0 0 0 0
0.026412964 0.064453125 -0.38427734 0 0 0 0
0.028488159 0.064575195 -0.38549805 0 0 0 0
0.030487061 0.064575195 -0.38549805 0 0 0 0
0.033569336 0.066772461 -0.3984375 0 0 0 0
0.035888672 0.067260742 -0.40136719 0 0 0 0
0.037994385 0.067260742 -0.40136719 0 0 0 0
0.042144775 0.067260742 -0.40136719 0 0 0 0
0.044219971 0.067260742 -0.40136719 0 0 0 0
0.046295166 0.067260742 -0.40136719 0 0 0 0
0.048248291 0.067138672 -0.40039062 0 0 0 0
0.049560547 0.066101074 -0.39453125 0 0 0 0
0.051605225 0.063598633 -0.37939453 0 0 0 0
0.053283691 0.063232422 -0.37744141 0 0 0 0
0.055114746 0.063110352 -0.37646484 0 0 0 0
0.056884766 0.062927246 -0.37524414 0 0 0 0
0.058685303 0.062744141 -0.37426758 0 0 0 0
0.060638428 0.062744141 -0.37426758 0 0 0 0
0.062408447 0.062561035 -0.37329102 0 0 0 0
0.064331055 0.062561035 -0.37329102 0 0 0 0
0.066040039 0.062438965 -0.37231445 0 0 0 0
0.067993164 0.062438965 -0.37231445 0 0 0 0
0.069946289 0.062438965 -0.37231445 0 0 0 0
0.071838379 0.062438965 -0.37231445 0 0 0 0
0.073974609 0.062561035 -0.37329102 0 0 0 0
0.075927734 0.062561035 -0.37329102 0 0 0 0
0.078063965 0.062744141 -0.37426758 0 0 0 0
0.08001709 0.062744141 -0.37426758 0 0 0 0
0.08215332 0.062927246 -0.37524414 0 0 0 0
0.084350586 0.063110352 -0.37646484 0 0 0 0
0.086486816 0.063232422 -0.37744141 0 0 0 0
0.088928223 0.063598633 -0.37939453 0 0 0 0
0.091125488 0.063781738 -0.38037109 0 0 0 0
0.093322754 0.063903809 -0.38134766 0 0 0 0
-0.0034275055 0.062286377 -0.38330078 0 0 0 0
-0.0014457703 0.062438965 -0.38427734 0 0 0 0
0.00054311752 0.062286377 -0.38330078 0 0 0 0
0.0025291443 0.062286377 -0.38330078 0 0 0 0
0.0045013428 0.062133789 -0.38232422 0 0 0 0
0.0064811707 0.062133789 -0.38232422 0 0 0 0
0.0084381104 0.061950684 -0.38134766 0 0 0 0
0.010414124 0.061950684 -0.38134766 0 0 0 0
0.012390137 0.061950684 -0.38134766 0 0 0 0
0.01436615 0.061950684 -0.38134766 0 0 0 0
0.016342163 0.061950684 -0.38134766 0 0 0 0
0.018356323 0.062133789 -0.38232422 0 0 0 0
0.020339966 0.062133789 -0.38232422 0 0 0 0
0.022384644 0.062286377 -0.38330078 0 0 0 0
0.024429321 0.062438965 -0.38427734 0 0 0 0
0.026489258 0.06262207 -0.38549805 0 0 0 0
0.02885437 0.063415527 -0.39038086 0 0 0 0
0.031433105 0.064575195 -0.39746094 0 0 0 0
0.033569336 0.064697266 -0.3984375 0 0 0 0
0.035827637 0.065063477 -0.40039062 0 0 0 0
0.037872314 0.065063477 -0.40039062 0 0 0 0
0.03994751 0.065063477 -0.40039062 0 0 0 0
0.042022705 0.065063477 -0.40039062 0 0 0 0
0.044006348 0.064880371 -0.39941406 0 0 0 0
0.046081543 0.064880371 -0.39941406 0 0 0 0
0.04800415 0.064697266 -0.3984375 0 0 0 0
0.049560547 0.064086914 -0.39453125 0 0 0 0
0.051208496 0.063598633 -0.39135742 0 0 0 0
0.051605225 0.061645508 -0.37939453 0 0 0 0
0.053436279 0.061462402 -0.37841797 0 0 0 0
0.055236816 0.061309814 -0.37744141 0 0 0 0
0.057037354 0.061157227 -0.37646484 0 0 0 0
0.058837891 0.060974121 -0.37524414 0 0 0 0
0.060791016 0.060974121 -0.37524414 0 0 0 0
0.062561035 0.060821533 -0.37426758 0 0 0 0
0.06451416 0.060821533 -0.37426758 0 0 0 0
0.066223145 0.060668945 -0.37329102 0 0 0 0
0.06817627 0.060668945 -0.37329102 0 0 0 0
0.070129395 0.060668945 -0.37329102 0 0 0 0
0.072021484 0.060668945 -0.37329102 0 0 0 0
0.073974609 0.060668945 -0.37329102 0 0 0 0
0.075927734 0.060668945 -0.37329102 0 0 0 0
0.078063965 0.060821533 -0.37426758 0 0 0 0
0.08001709 0.060821533 -0.37426758 0 0 0 0
0.08215332 0.060974121 -0.37524414 0 0 0 0
0.084350586 0.061157227 -0.37646484 0 0 0 0
0.086486816 0.061309814 -0.37744141 0 0 0 0
0.088684082 0.061462402 -0.37841797 0 0 0 0
0.090881348 0.061645508 -0.37939453 0 0 0 0
0.093078613 0.061798096 -0.38037109 0 0 0 0
-0.0034351349 0.060455322 -0.38427734 0 0 0 0
-0.001449585 0.06060791 -0.38549805 0 0 0 0
0.00054454803 0.060455322 -0.38427734 0 0 0 0
0.0025291443 0.060302734 -0.38330078 0 0 0 0
0.0045127869 0.060302734 -0.38330078 0 0 0 0
0.0064811707 0.060150146 -0.38232422 0 0 0 0
0.0084609985 0.060150146 -0.38232422 0 0 0 0
0.010444641 0.060150146 -0.38232422 0 0 0 0
0.012420654 0.060150146 -0.38232422 0 0 0 0
0.014404297 0.060150146 -0.38232422 0 0 0 0
0.016372681 0.060150146 -0.38232422 0 0 0 0
0.0184021 0.060302734 -0.38330078 0 0 0 0
0.020446777 0.060455322 -0.38427734 0 0 0 0
0.022491455 0.06060791 -0.38549805 0 0 0 0
0.024551392 0.060791016 -0.38647461 0 0 0 0
0.026901245 0.061553955 -0.39135742 0 0 0 0
0.029083252 0.061889648 -0.39331055 0 0 0 0
0.031433105 0.0625 -0.39746094 0 0 0 0
0.033569336 0.062683105 -0.3984375 0 0 0 0
0.035736084 0.062805176 -0.39941406 0 0 0 0
0.037780762 0.062805176 -0.39941406 0 0 0 0
0.039855957 0.062805176 -0.39941406 0 0 0 0
0.041931152 0.062805176 -0.39941406 0 0 0 0
0.043884277 0.062683105 -0.3984375 0 0 0 0
0.045837402 0.0625 -0.39746094 0 0 0 0
0.04776001 0.062347412 -0.39648438 0 0 0 0
0.049560547 0.062042236 -0.39453125 0 0 0 0
0.051361084 0.061737061 -0.39233398 0 0 0 0
0.052032471 0.060150146 -0.38232422 0 0 0 0
0.053710938 0.059844971 -0.38037109 0 0 0 0
0.055389404 0.059509277 -0.37841797 0 0 0 0
0.057189941 0.059356689 -0.37744141 0 0 0 0
0.058990479 0.059204102 -0.37646484 0 0 0 0
0.060943604 0.059204102 -0.37646484 0 0 0 0
0.062744141 0.059051514 -0.37524414 0 0 0 0
0.06451416 0.058868408 -0.37426758 0 0 0 0
0.06640625 0.058868408 -0.37426758 0 0 0 0
0.068359375 0.058868408 -0.37426758 0 0 0 0
0.070129395 0.05871582 -0.37329102 0 0 0 0
0.072021484 0.05871582 -0.37329102 0 0 0 0
0.073974609 0.05871582 -0.37329102 0 0 0 0
0.07611084 0.058868408 -0.37426758 0 0 0 0
0.078063965 0.058868408 -0.37426758 0 0 0 0
0.080200195 0.059051514 -0.37524414 0 0 0 0
0.08215332 0.059051514 -0.37524414 0 0 0 0
0.084350586 0.059204102 -0.37646484 0 0 0 0
0.086486816 0.059356689 -0.37744141 0 0 0 0
0.088684082 0.059509277 -0.37841797 0 0 0 0
0.090881348 0.059661865 -0.37939453 0 0 0 0
0.092834473 0.059661865 -0.37939453 0 0 0 0
-0.0014533997 0.058776855 -0.38647461 0 0 0 0
0.00054597855 0.058624268 -0.38549805 0 0 0 0
0.0025348663 0.05847168 -0.38427734 0 0 0 0
0.0045127869 0.058319092 -0.38330078 0 0 0 0
0.0065002441 0.058319092 -0.38330078 0 0 0 0
0.0084838867 0.058319092 -0.38330078 0 0 0 0
0.010444641 0.058166504 -0.38232422 0 0 0 0
0.012420654 0.058166504 -0.38232422 0 0 0 0
0.014442444 0.058319092 -0.38330078 0 0 0 0
0.016418457 0.058319092 -0.38330078 0 0 0 0
0.018463135 0.05847168 -0.38427734 0 0 0 0
0.020507812 0.058624268 -0.38549805 0 0 0 0
0.02255249 0.058776855 -0.38647461 0 0 0 0
0.024688721 0.059082031 -0.38842773 0 0 0 0
0.026977539 0.059692383 -0.39233398 0 0 0 0
0.029159546 0.059997559 -0.39453125 0 0 0 0
0.031341553 0.060302734 -0.39648438 0 0 0 0
0.033569336 0.06060791 -0.3984375 0 0 0 0
0.035644531 0.06060791 -0.3984375 0 0 0 0
0.037689209 0.06060791 -0.3984375 0 0 0 0
0.039764404 0.06060791 -0.3984375 0 0 0 0
0.0418396 0.06060791 -0.3984375 0 0 0 0
0.043792725 0.060455322 -0.39746094 0 0 0 0
0.045715332 0.060302734 -0.39648438 0 0 0 0
0.047637939 0.060150146 -0.39550781 0 0 0 0
0.049438477 0.059844971 -0.39331055 0 0 0 0
0.051361084 0.059692383 -0.39233398 0 0 0 0
0.053100586 0.059387207 -0.39038086 0 0 0 0
0.053863525 0.058013916 -0.38134766 0 0 0 0
0.055541992 0.05770874 -0.37939453 0 0 0 0
0.057342529 0.057556152 -0.37841797 0 0 0 0
0.059143066 0.057403564 -0.37744141 0 0 0 0
0.060943604 0.057250977 -0.37646484 0 0 0 0
0.062866211 0.057250977 -0.37646484 0 0 0 0
0.06463623 0.057098389 -0.37524414 0 0 0 0
0.066589355 0.057098389 -0.37524414 0 0 0 0
0.068359375 0.056945801 -0.37426758 0 0 0 0
0.0703125 0.056945801 -0.37426758 0 0 0 0
0.072265625 0.056945801 -0.37426758 0 0 0 0
0.074157715 0.056945801 -0.37426758 0 0 0 0
0.07611084 0.056945801 -0.37426758 0 0 0 0
0.078063965 0.056945801 -0.37426758 0 0 0 0
0.080200195 0.057098389 -0.37524414 0 0 0 0
0.082397461 0.057250977 -0.37646484 0 0 0 0
0.084533691 0.057403564 -0.37744141 0 0 0 0
0.086730957 0.057556152 -0.37841797 0 0 0 0
0.088684082 0.057556152 -0.37841797 0 0 0 0
0.090881348 0.05770874 -0.37939453 0 0 0 0
0.092834473 0.05770874 -0.37939453 0 0 0 0
-0.0056686401 0.058990479 -0.40136719 0 0 0 0
-0.0035438538 0.058258057 -0.39648438 0 0 0 0
-0.0014715195 0.057525635 -0.39135742 0 0 0 0
0.00054883957 0.056915283 -0.38745117 0 0 0 0
0.0025482178 0.056762695 -0.38647461 0 0 0 0
0.004524231 0.056488037 -0.38427734 0 0 0 0
0.0065155029 0.056488037 -0.38427734 0 0 0 0
0.0084838867 0.056335449 -0.38330078 0 0 0 0
0.010467529 0.056335449 -0.38330078 0 0 0 0
0.012489319 0.056488037 -0.38427734 0 0 0 0
0.014480591 0.056488037 -0.38427734 0 0 0 0
0.01651001 0.056640625 -0.38549805 0 0 0 0
0.018554688 0.056762695 -0.38647461 0 0 0 0
0.020614624 0.056915283 -0.38745117 0 0 0 0
0.022674561 0.057067871 -0.38842773 0 0 0 0
0.024810791 0.057373047 -0.39038086 0 0 0 0
0.027038574 0.057800293 -0.39331055 0 0 0 0
0.029220581 0.058105469 -0.39550781 0 0 0 0
0.031341553 0.058258057 -0.39648438 0 0 0 0
0.033477783 0.058410645 -0.39746094 0 0 0 0
0.035644531 0.058532715 -0.3984375 0 0 0 0
0.037689209 0.058532715 -0.3984375 0 0 0 0
0.039672852 0.058410645 -0.39746094 0 0 0 0
0.041717529 0.058410645 -0.39746094 0 0 0 0
0.043670654 0.058258057 -0.39648438 0 0 0 0
0.045593262 0.058105469 -0.39550781 0 0 0 0
0.047637939 0.058105469 -0.39550781 0 0 0 0
0.049438477 0.057800293 -0.39331055 0 0 0 0
0.051361084 0.057647705 -0.39233398 0 0 0 0
0.053100586 0.057373047 -0.39038086 0 0 0 0
0.054016113 0.056182861 -0.38232422 0 0 0 0
0.05569458 0.055877686 -0.38037109 0 0 0 0
0.057495117 0.055755615 -0.37939453 0 0 0 0
0.059326172 0.055603027 -0.37841797 0 0 0 0
0.061126709 0.055450439 -0.37744141 0 0 0 0
0.062866211 0.055297852 -0.37646484 0 0 0 0
0.064819336 0.055297852 -0.37646484 0 0 0 0
0.066589355 0.055145264 -0.37524414 0 0 0 0
0.06854248 0.055145264 -0.37524414 0 0 0 0
0.0703125 0.054992676 -0.37426758 0 0 0 0
0.072265625 0.054992676 -0.37426758 0 0 0 0
0.074157715 0.054992676 -0.37426758 0 0 0 0
0.07635498 0.055145264 -0.37524414 0 0 0 0
0.07824707 0.055145264 -0.37524414 0 0 0 0
0.080444336 0.055297852 -0.37646484 0 0 0 0
0.082580566 0.055450439 -0.37744141 0 0 0 0
0.084533691 0.055450439 -0.37744141 0 0 0 0
0.086730957 0.055603027 -0.37841797 0 0 0 0
0.088928223 0.055755615 -0.37939453 0 0 0 0
0.091125488 0.055877686 -0.38037109 0 0 0 0
0.092834473 0.055755615 -0.37939453 0 0 0 0
-0.0056381226 0.056610107 -0.39941406 0 0 0 0
-0.003534317 0.056060791 -0.39550781 0 0 0 0
-0.0014715195 0.055480957 -0.39135742 0 0 0 0
0.00055027008 0.055053711 -0.38842773 0 0 0 0
0.0025482178 0.054779053 -0.38647461 0 0 0 0
0.004535675 0.054626465 -0.38549805 0 0 0 0
0.0065155029 0.054473877 -0.38427734 0 0 0 0
0.0085067749 0.054473877 -0.38427734 0 0 0 0
0.010498047 0.054473877 -0.38427734 0 0 0 0
0.012519836 0.054626465 -0.38549805 0 0 0 0
0.014518738 0.054626465 -0.38549805 0 0 0 0
0.016555786 0.054779053 -0.38647461 0 0 0 0
0.018600464 0.054901123 -0.38745117 0 0 0 0
0.0206604 0.055053711 -0.38842773 0 0 0 0
0.022796631 0.055328369 -0.39038086 0 0 0 0
0.024871826 0.055480957 -0.39135742 0 0 0 0
0.027114868 0.055908203 -0.39453125 0 0 0 0
0.029220581 0.056060791 -0.39550781 0 0 0 0
0.031433105 0.056335449 -0.39746094 0 0 0 0
0.033477783 0.056335449 -0.39746094 0 0 0 0
0.035552979 0.056335449 -0.39746094 0 0 0 0
0.037597656 0.056335449 -0.39746094 0 0 0 0
0.039672852 0.056335449 -0.39746094 0 0 0 0
0.041625977 0.056182861 -0.39648438 0 0 0 0
0.043670654 0.056182861 -0.39648438 0 0 0 0
0.045593262 0.056060791 -0.39550781 0 0 0 0
0.047546387 0.055908203 -0.39453125 0 0 0 0
0.049438477 0.055755615 -0.39331055 0 0 0 0
0.051361084 0.055633545 -0.39233398 0 0 0 0
0.053100586 0.055328369 -0.39038086 0 0 0 0
0.054138184 0.054351807 -0.38330078 0 0 0 0
0.055847168 0.054046631 -0.38134766 0 0 0 0
0.057495117 0.053771973 -0.37939453 0 0 0 0
0.059326172 0.053649902 -0.37841797 0 0 0 0
0.061126709 0.053497314 -0.37744141 0 0 0 0
0.062866211 0.053344727 -0.37646484 0 0 0 0
0.064819336 0.053344727 -0.37646484 0 0 0 0
0.066589355 0.053222656 -0.37524414 0 0 0 0
0.06854248 0.053222656 -0.37524414 0 0 0 0
0.070495605 0.053222656 -0.37524414 0 0 0 0
0.07244873 0.053222656 -0.37524414 0 0 0 0
0.074401855 0.053222656 -0.37524414 0 0 0 0
0.07635498 0.053222656 -0.37524414 0 0 0 0
0.078491211 0.053344727 -0.37646484 0 0 0 0
0.080627441 0.053497314 -0.37744141 0 0 0 0
0.082824707 0.053649902 -0.37841797 0 0 0 0
0.085021973 0.053771973 -0.37939453 0 0 0 0
0.086975098 0.053771973 -0.37939453 0 0 0 0
0.089172363 0.053924561 -0.38037109 0 0 0 0
0.091369629 0.054046631 -0.38134766 0 0 0 0
0.092834473 0.053771973 -0.37939453 0 0 0 0
-0.0055961609 0.054138184 -0.39648438 0 0 0 0
-0.0035171509 0.053741455 -0.39331055 0 0 0 0
-0.0014686584 0.053314209 -0.39038086 0 0 0 0
0.00055027008 0.053039551 -0.38842773 0 0 0 0
0.0025482178 0.052764893 -0.38647461 0 0 0 0
0.004535675 0.052642822 -0.38549805 0 0 0 0
0.0065345764 0.052642822 -0.38549805 0 0 0 0
0.0085296631 0.052642822 -0.38549805 0 0 0 0
0.010520935 0.052642822 -0.38549805 0 0 0 0
0.012550354 0.052764893 -0.38647461 0 0 0 0
0.014595032 0.05291748 -0.38745117 0 0 0 0
0.01663208 0.053039551 -0.38842773 0 0 0 0
0.018692017 0.053192139 -0.3894043 0 0 0 0
0.020767212 0.053314209 -0.39038086 0 0 0 0
0.022903442 0.053588867 -0.39233398 0 0 0 0
0.025009155 0.053741455 -0.39331055 0 0 0 0
0.027175903 0.054016113 -0.39550781 0 0 0 0
0.029296875 0.054138184 -0.39648438 0 0 0 0
0.031433105 0.054290771 -0.39746094 0 0 0 0
0.033477783 0.054290771 -0.39746094 0 0 0 0
0.035552979 0.054290771 -0.39746094 0 0 0 0
0.037597656 0.054290771 -0.39746094 0 0 0 0
0.039550781 0.054138184 -0.39648438 0 0 0 0
0.041625977 0.054138184 -0.39648438 0 0 0 0
0.043548584 0.054016113 -0.39550781 0 0 0 0
0.045593262 0.054016113 -0.39550781 0 0 0 0
0.047546387 0.053863525 -0.39453125 0 0 0 0
0.049560547 0.053863525 -0.39453125 0 0 0 0
0.051361084 0.053588867 -0.39233398 0 0 0 0
0.052978516 0.053192139 -0.3894043 0 0 0 0
0.054016113 0.052215576 -0.38232422 0 0 0 0
0.05569458 0.051940918 -0.38037109 0 0 0 0
0.057342529 0.05166626 -0.37841797 0 0 0 0
0.059143066 0.051544189 -0.37744141 0 0 0 0
0.061126709 0.051544189 -0.37744141 0 0 0 0
0.062866211 0.051391602 -0.37646484 0 0 0 0
0.064819336 0.051391602 -0.37646484 0 0 0 0
0.066772461 0.051391602 -0.37646484 0 0 0 0
0.06854248 0.051269531 -0.37524414 0 0 0 0
0.070495605 0.051269531 -0.37524414 0 0 0 0
0.072631836 0.051391602 -0.37646484 0 0 0 0
0.074584961 0.051391602 -0.37646484 0 0 0 0
0.076538086 0.051391602 -0.37646484 0 0 0 0
0.078674316 0.051544189 -0.37744141 0 0 0 0
0.080871582 0.05166626 -0.37841797 0 0 0 0
0.083007812 0.051818848 -0.37939453 0 0 0 0
0.085205078 0.051940918 -0.38037109 0 0 0 0
0.087402344 0.052093506 -0.38134766 0 0 0 0
0.089660645 0.052215576 -0.38232422 0 0 0 0
0.09185791 0.052368164 -0.38330078 0 0 0 0
-0.0055541992 0.051696777 -0.39331055 0 0 0 0
-0.003490448 0.051300049 -0.39038086 0 0 0 0
-0.0014610291 0.051025391 -0.38842773 0 0 0 0
0.00054883957 0.05090332 -0.38745117 0 0 0 0
0.0025424957 0.050628662 -0.38549805 0 0 0 0
0.004535675 0.050628662 -0.38549805 0 0 0 0
0.0065345764 0.050628662 -0.38549805 0 0 0 0
0.0085296631 0.050628662 -0.38549805 0 0 0 0
0.010551453 0.05078125 -0.38647461 0 0 0 0
0.012588501 0.05090332 -0.38745117 0 0 0 0
0.014625549 0.051025391 -0.38842773 0 0 0 0
0.016723633 0.051300049 -0.39038086 0 0 0 0
0.018798828 0.051422119 -0.39135742 0 0 0 0
0.020874023 0.051574707 -0.39233398 0 0 0 0
0.022964478 0.051696777 -0.39331055 0 0 0 0
0.025131226 0.051971436 -0.39550781 0 0 0 0
0.027252197 0.052093506 -0.39648438 0 0 0 0
0.029373169 0.052215576 -0.39746094 0 0 0 0
0.031433105 0.052215576 -0.39746094 0 0 0 0
0.033569336 0.052368164 -0.3984375 0 0 0 0
0.035552979 0.052215576 -0.39746094 0 0 0 0
0.037597656 0.052215576 -0.39746094 0 0 0 0
0.039550781 0.052093506 -0.39648438 0 0 0 0
0.041625977 0.052093506 -0.39648438 0 0 0 0
0.043640137 0.049713135 -0.37841797 0 0 0 0
0.045471191 0.049591064 -0.37744141 0 0 0 0
0.049560547 0.051818848 -0.39453125 0 0 0 0
0.053588867 0.049835205 -0.37939453 0 0 0 0
0.055236816 0.049591064 -0.37744141 0 0 0 0
0.057189941 0.049591064 -0.37744141 0 0 0 0
0.059143066 0.049591064 -0.37744141 0 0 0 0
0.060943604 0.049438477 -0.37646484 0 0 0 0
0.062866211 0.049438477 -0.37646484 0 0 0 0
0.064819336 0.049438477 -0.37646484 0 0 0 0
0.066589355 0.049316406 -0.37524414 0 0 0 0
0.068725586 0.049438477 -0.37646484 0 0 0 0
0.070678711 0.049438477 -0.37646484 0 0 0 0
0.072631836 0.049438477 -0.37646484 0 0 0 0
0.074584961 0.049438477 -0.37646484 0 0 0 0
0.076721191 0.049591064 -0.37744141 0 0 0 0
0.078918457 0.049713135 -0.37841797 0 0 0 0
0.081054688 0.049835205 -0.37939453 0 0 0 0
0.083251953 0.049987793 -0.38037109 0 0 0 0
0.085693359 0.050231934 -0.38232422 0 0 0 0
0.087890625 0.050384521 -0.38330078 0 0 0 0
0.090087891 0.050506592 -0.38427734 0 0 0 0
0.092346191 0.050628662 -0.38549805 0 0 0 0
0.095581055 0.051300049 -0.39038086 0 0 0 0
0.097839355 0.051422119 -0.39135742 0 0 0 0
0.10040283 0.051696777 -0.39331055 0 0 0 0
0.10217285 0.051574707 -0.39233398 0 0 0 0
0.10418701 0.051574707 -0.39233398 0 0 0 0
0.10595703 0.051422119 -0.39135742 0 0 0 0
-0.013420105 0.04864502 -0.38549805 0 0 0 0
-0.011428833 0.04864502 -0.38549805 0 0 0 0
-0.0094299316 0.04864502 -0.38549805 0 0 0 0
-0.007434845 0.04864502 -0.38549805 0 0 0 0
-0.00548172 0.04901123 -0.38842773 0 0 0 0
-0.0034637451 0.04888916 -0.38745117 0 0 0 0
-0.0014533997 0.04876709 -0.38647461 0 0 0 0
0.00054597855 0.04864502 -0.38549805 0 0 0 0
0.0025348663 0.048522949 -0.38427734 0 0 0 0
0.004524231 0.048522949 -0.38427734 0 0 0 0
0.0065155029 0.048522949 -0.38427734 0 0 0 0
0.0085296631 0.04864502 -0.38549805 0 0 0 0
0.010551453 0.04876709 -0.38647461 0 0 0 0
0.012619019 0.04901123 -0.38842773 0 0 0 0
0.014701843 0.049285889 -0.39038086 0 0 0 0
0.016815186 0.049530029 -0.39233398 0 0 0 0
0.018890381 0.0496521 -0.39331055 0 0 0 0
0.020980835 0.04977417 -0.39453125 0 0 0 0
0.023147583 0.050048828 -0.39648438 0 0 0 0
0.025253296 0.050170898 -0.39746094 0 0 0 0
0.027313232 0.050170898 -0.39746094 0 0 0 0
0.029449463 0.050292969 -0.3984375 0 0 0 0
0.031494141 0.050292969 -0.3984375 0 0 0 0
0.033569336 0.050292969 -0.3984375 0 0 0 0
0.035552979 0.050170898 -0.39746094 0 0 0 0
0.037597656 0.050170898 -0.39746094 0 0 0 0
0.037872314 0.04788208 -0.37939453 0 0 0 0
0.039703369 0.04776001 -0.37841797 0 0 0 0
0.041687012 0.04776001 -0.37841797 0 0 0 0
0.043518066 0.047637939 -0.37744141 0 0 0 0
0.045471191 0.047637939 -0.37744141 0 0 0 0
0.047302246 0.047515869 -0.37646484 0 0 0 0
0.049133301 0.047363281 -0.37524414 0 0 0 0
0.051055908 0.047363281 -0.37524414 0 0 0 0
0.053161621 0.047515869 -0.37646484 0 0 0 0
0.055114746 0.047515869 -0.37646484 0 0 0 0
0.057037354 0.047515869 -0.37646484 0 0 0 0
0.058837891 0.047363281 -0.37524414 0 0 0 0
0.060791016 0.047363281 -0.37524414 0 0 0 0
0.062744141 0.047363281 -0.37524414 0 0 0 0
0.06463623 0.047363281 -0.37524414 0 0 0 0
0.066589355 0.047363281 -0.37524414 0 0 0 0
0.06854248 0.047363281 -0.37524414 0 0 0 0
0.070678711 0.047515869 -0.37646484 0 0 0 0
0.072631836 0.047515869 -0.37646484 0 0 0 0
0.074768066 0.047637939 -0.37744141 0 0 0 0
0.076965332 0.04776001 -0.37841797 0 0 0 0
0.079101562 0.04788208 -0.37939453 0 0 0 0
0.081298828 0.04800415 -0.38037109 0 0 0 0
0.083679199 0.048248291 -0.38232422 0 0 0 0
0.085876465 0.048400879 -0.38330078 0 0 0 0
0.088317871 0.04864502 -0.38549805 0 0 0 0
0.090576172 0.04876709 -0.38647461 0 0 0 0
0.092834473 0.04888916 -0.38745117 0 0 0 0
0.095581055 0.049285889 -0.39038086 0 0 0 0
0.097839355 0.049407959 -0.39135742 0 0 0 0
0.10009766 0.049530029 -0.39233398 0 0 0 0
0.10186768 0.049407959 -0.39135742 0 0 0 0
0.10394287 0.049407959 -0.39135742 0 0 0 0
0.10595703 0.049407959 -0.39135742 0 0 0 0
0.10742188 0.049163818 -0.3894043 0 0 0 0
0.10943604 0.049163818 -0.3894043 0 0 0 0
-0.017410278 0.046661377 -0.38549805 0 0 0 0
-0.015419006 0.046661377 -0.38549805 0 0 0 0
-0.013389587 0.046539307 -0.38427734 0 0 0 0
-0.011398315 0.046539307 -0.38427734 0 0 0 0
-0.0094070435 0.046539307 -0.38427734 0 0 0 0
-0.0074157715 0.046539307 -0.38427734 0 0 0 0
-0.0054397583 0.046661377 -0.38549805 0 0 0 0
-0.0034351349 0.046539307 -0.38427734 0 0 0 0
-0.0014419556 0.046417236 -0.38330078 0 0 0 0
0.00054311752 0.046417236 -0.38330078 0 0 0 0
0.0025215149 0.046295166 -0.38232422 0 0 0 0
0.0045127869 0.046417236 -0.38330078 0 0 0 0
0.0065002441 0.046417236 -0.38330078 0 0 0 0
0.0085296631 0.046661377 -0.38549805 0 0 0 0
0.01058197 0.046875 -0.38745117 0 0 0 0
0.012649536 0.047119141 -0.3894043 0 0 0 0
0.014778137 0.047485352 -0.39233398 0 0 0 0
0.016891479 0.047729492 -0.39453125 0 0 0 0
0.01902771 0.047973633 -0.39648438 0 0 0 0
0.021148682 0.048095703 -0.39746094 0 0 0 0
0.023254395 0.048217773 -0.3984375 0 0 0 0
0.025390625 0.048339844 -0.39941406 0 0 0 0
0.027450562 0.048339844 -0.39941406 0 0 0 0
0.029602051 0.048461914 -0.40039062 0 0 0 0
0.031677246 0.048461914 -0.40039062 0 0 0 0
0.033660889 0.048339844 -0.39941406 0 0 0 0
0.035644531 0.048217773 -0.3984375 0 0 0 0
0.035980225 0.046051025 -0.38037109 0 0 0 0
0.037872314 0.045928955 -0.37939453 0 0 0 0
0.039703369 0.045806885 -0.37841797 0 0 0 0
0.041564941 0.045684814 -0.37744141 0 0 0 0
0.043518066 0.045684814 -0.37744141 0 0 0 0
0.045349121 0.045562744 -0.37646484 0 0 0 0
0.047180176 0.045440674 -0.37524414 0 0 0 0
0.049133301 0.045440674 -0.37524414 0 0 0 0
0.051055908 0.045440674 -0.37524414 0 0 0 0
0.053009033 0.045440674 -0.37524414 0 0 0 0
0.054962158 0.045440674 -0.37524414 0 0 0 0
0.056884766 0.045440674 -0.37524414 0 0 0 0
0.058685303 0.045318604 -0.37426758 0 0 0 0
0.060638428 0.045318604 -0.37426758 0 0 0 0
0.062561035 0.045318604 -0.37426758 0 0 0 0
0.06451416 0.045318604 -0.37426758 0 0 0 0
0.066589355 0.045440674 -0.37524414 0 0 0 0
0.06854248 0.045440674 -0.37524414 0 0 0 0
0.070678711 0.045562744 -0.37646484 0 0 0 0
0.072631836 0.045562744 -0.37646484 0 0 0 0
0.074768066 0.045684814 -0.37744141 0 0 0 0
0.076965332 0.045806885 -0.37841797 0 0 0 0
0.079345703 0.046051025 -0.38037109 0 0 0 0
0.081481934 0.046173096 -0.38134766 0 0 0 0
0.08392334 0.046417236 -0.38330078 0 0 0 0
0.086364746 0.046661377 -0.38549805 0 0 0 0
0.088562012 0.04675293 -0.38647461 0 0 0 0
0.090820312 0.046875 -0.38745117 0 0 0 0
0.093078613 0.04699707 -0.38842773 0 0 0 0
0.095581055 0.047241211 -0.39038086 0 0 0 0
0.097839355 0.047363281 -0.39135742 0 0 0 0
0.099853516 0.047363281 -0.39135742 0 0 0 0
0.10186768 0.047363281 -0.39135742 0 0 0 0
0.1036377 0.047241211 -0.39038086 0 0 0 0
0.10565186 0.047241211 -0.39038086 0 0 0 0
0.10742188 0.047119141 -0.3894043 0 0 0 0
0.10943604 0.047119141 -0.3894043 0 0 0 0
0.11114502 0.04699707 -0.38842773 0 0 0 0
-0.01940918 0.044647217 -0.38549805 0 0 0 0
-0.017410278 0.044647217 -0.38549805 0 0 0 0
-0.015380859 0.044525146 -0.38427734 0 0 0 0
-0.013389587 0.044525146 -0.38427734 0 0 0 0
-0.011367798 0.044403076 -0.38330078 0 0 0 0
-0.0093841553 0.044403076 -0.38330078 0 0 0 0
-0.0073776245 0.044311523 -0.38232422 0 0 0 0
-0.0054130554 0.044403076 -0.38330078 0 0 0 0
-0.0034179688 0.044311523 -0.38232422 0 0 0 0
-0.0014343262 0.044189453 -0.38134766 0 0 0 0
0.0005402565 0.044189453 -0.38134766 0 0 0 0
0.0025157928 0.044189453 -0.38134766 0 0 0 0
0.0044898987 0.044189453 -0.38134766 0 0 0 0
0.0064811707 0.044311523 -0.38232422 0 0 0 0
0.0085067749 0.044525146 -0.38427734 0 0 0 0
0.01058197 0.044891357 -0.38745117 0 0 0 0
0.012680054 0.045227051 -0.39038086 0 0 0 0
0.014892578 0.045806885 -0.39550781 0 0 0 0
0.017028809 0.046051025 -0.39746094 0 0 0 0
0.019134521 0.046173096 -0.3984375 0 0 0 0
0.021255493 0.046264648 -0.39941406 0 0 0 0
0.023376465 0.046386719 -0.40039062 0 0 0 0
0.033752441 0.046386719 -0.40039062 0 0 0 0
0.035888672 0.043945312 -0.37939453 0 0 0 0
0.037750244 0.043823242 -0.37841797 0 0 0 0
0.039703369 0.043823242 -0.37841797 0 0 0 0
0.041564941 0.043731689 -0.37744141 0 0 0 0
0.043395996 0.043609619 -0.37646484 0 0 0 0
0.045349121 0.043609619 -0.37646484 0 0 0 0
0.047180176 0.043487549 -0.37524414 0 0 0 0
0.048980713 0.043365479 -0.37426758 0 0 0 0
0.050933838 0.043365479 -0.37426758 0 0 0 0
0.052856445 0.043365479 -0.37426758 0 0 0 0
0.05480957 0.043365479 -0.37426758 0 0 0 0
0.056732178 0.043365479 -0.37426758 0 0 0 0
0.058685303 0.043365479 -0.37426758 0 0 0 0
0.060455322 0.043243408 -0.37329102 0 0 0 0
0.062561035 0.043365479 -0.37426758 0 0 0 0
0.06451416 0.043365479 -0.37426758 0 0 0 0
0.06640625 0.043365479 -0.37426758 0 0 0 0
0.06854248 0.043487549 -0.37524414 0 0 0 0
0.070495605 0.043487549 -0.37524414 0 0 0 0
0.072631836 0.043609619 -0.37646484 0 0 0 0
0.074768066 0.043731689 -0.37744141 0 0 0 0
0.076965332 0.043823242 -0.37841797 0 0 0 0
0.079345703 0.044067383 -0.38037109 0 0 0 0
0.08190918 0.044403076 -0.38330078 0 0 0 0
0.084350586 0.044647217 -0.38549805 0 0 0 0
0.086547852 0.044769287 -0.38647461 0 0 0 0
0.089050293 0.045013428 -0.38842773 0 0 0 0
0.091308594 0.04510498 -0.3894043 0 0 0 0
0.093322754 0.04510498 -0.3894043 0 0 0 0
0.095581055 0.045227051 -0.39038086 0 0 0 0
0.097839355 0.045349121 -0.39135742 0 0 0 0
0.099853516 0.045349121 -0.39135742 0 0 0 0
0.10162354 0.045227051 -0.39038086 0 0 0 0
0.1036377 0.045227051 -0.39038086 0 0 0 0
0.10540771 0.04510498 -0.3894043 0 0 0 0
0.10742188 0.04510498 -0.3894043 0 0 0 0
0.10943604 0.04510498 -0.3894043 0 0 0 0
0.11114502 0.045013428 -0.38842773 0 0 0 0
-0.021408081 0.042663574 -0.38549805 0 0 0 0
-0.01940918 0.042663574 -0.38549805 0 0 0 0
-0.017364502 0.042541504 -0.38427734 0 0 0 0
-0.015380859 0.042541504 -0.38427734 0 0 0 0
-0.01335144 0.042419434 -0.38330078 0 0 0 0
-0.01133728 0.042327881 -0.38232422 0 0 0 0
-0.0093536377 0.042327881 -0.38232422 0 0 0 0
-0.007358551 0.042205811 -0.38134766 0 0 0 0
-0.0053825378 0.042205811 -0.38134766 0 0 0 0
-0.0034008026 0.04208374 -0.38037109 0 0 0 0
-0.0014305115 0.04208374 -0.38037109 0 0 0 0
0.00053739548 0.041992188 -0.37939453 0 0 0 0
0.0025024414 0.041992188 -0.37939453 0 0 0 0
0.0044670105 0.041992188 -0.37939453 0 0 0 0
0.0064468384 0.04208374 -0.38037109 0 0 0 0
0.0085067749 0.042541504 -0.38427734 0 0 0 0
0.01058197 0.042877197 -0.38745117 0 0 0 0
0.012680054 0.043212891 -0.39038086 0 0 0 0
0.015007019 0.0440979 -0.3984375 0 0 0 0
0.017150879 0.044311523 -0.40039062 0 0 0 0
0.035644531 0.0440979 -0.3984375 0 0 0 0
0.035888672 0.041992188 -0.37939453 0 0 0 0
0.037750244 0.041870117 -0.37841797 0 0 0 0
0.039611816 0.041778564 -0.37744141 0 0 0 0
0.041564941 0.041778564 -0.37744141 0 0 0 0
0.043395996 0.041656494 -0.37646484 0 0 0 0
0.045227051 0.041534424 -0.37524414 0 0 0 0
0.047180176 0.041534424 -0.37524414 0 0 0 0
0.048980713 0.041442871 -0.37426758 0 0 0 0
0.050933838 0.041442871 -0.37426758 0 0 0 0
0.052734375 0.041320801 -0.37329102 0 0 0 0
0.054656982 0.041320801 -0.37329102 0 0 0 0
0.05657959 0.041320801 -0.37329102 0 0 0 0
0.058532715 0.041320801 -0.37329102 0 0 0 0
0.060455322 0.041320801 -0.37329102 0 0 0 0
0.062408447 0.041320801 -0.37329102 0 0 0 0
0.064331055 0.041320801 -0.37329102 0 0 0 0
0.066223145 0.041320801 -0.37329102 0 0 0 0
