ply
format ascii 1.0
comment PCL generated
element vertex 1039
property float x
property float y
property float z
property float nx
property float ny
property float nz
property float curvature
element face 0
element camera 0
property float view_px
property float view_py
property float view_pz
property float x_axisx
property float x_axisy
property float x_axisz
property float y_axisx
property float y_axisy
property float y_axisz
property float z_axisx
property float z_axisy
property float z_axisz
property float focal
property float scalex
property float scaley
property float centerx
property float centery
property int viewportx
property int viewporty
property float k1
property float k2
end_header
0.1361084 0.005947113 -0.34008789 0 0 0 0
0.13781738 0.005947113 -0.34008789 0 0 0 0
0.14001465 0.0059623718 -0.34130859 0 0 0 0
0.1418457 0.0059623718 -0.34130859 0 0 0 0
0.14355469 0.0059623718 -0.34130859 0 0 0 0
-0.072265625 0.0044326782 -0.36035156 0 0 0 0
-0.070373535 0.0044326782 -0.36035156 0 0 0 0
-0.068481445 0.0044326782 -0.36035156 0 0 0 0
-0.066650391 0.0044326782 -0.36035156 0 0 0 0
-0.064575195 0.0044174194 -0.359375 0 0 0 0
-0.062744141 0.0044174194 -0.359375 0 0 0 0
-0.06072998 0.0044059753 -0.35839844 0 0 0 0
-0.058868408 0.0044059753 -0.35839844 0 0 0 0
-0.056854248 0.0043945312 -0.35717773 0 0 0 0
-0.054992676 0.0043945312 -0.35717773 0 0 0 0
-0.053131104 0.0043945312 -0.35717773 0 0 0 0
-0.051300049 0.0043945312 -0.35717773 0 0 0 0
-0.049316406 0.0043830872 -0.35620117 0 0 0 0
-0.047454834 0.0043830872 -0.35620117 0 0 0 0
-0.04574585 0.0043945312 -0.35717773 0 0 0 0
-0.043640137 0.0043678284 -0.35522461 0 0 0 0
-0.041809082 0.0043678284 -0.35522461 0 0 0 0
-0.041534424 0.0045433044 -0.36938477 0 0 0 0
-0.039642334 0.0045433044 -0.36938477 0 0 0 0
-0.037719727 0.0045433044 -0.36938477 0 0 0 0
-0.035797119 0.0045433044 -0.36938477 0 0 0 0
-0.033905029 0.0045433044 -0.36938477 0 0 0 0
-0.031982422 0.0045433044 -0.36938477 0 0 0 0
-0.030075073 0.0045433044 -0.36938477 0 0 0 0
-0.028167725 0.0045433044 -0.36938477 0 0 0 0
-0.026245117 0.0045433044 -0.36938477 0 0 0 0
-0.024337769 0.0045433044 -0.36938477 0 0 0 0
-0.022491455 0.0045547485 -0.37036133 0 0 0 0
0.0005645752 0.004901886 -0.3984375 0 0 0 0
0.0025482178 0.0047531128 -0.38647461 0 0 0 0
0.004524231 0.0047264099 -0.38427734 0 0 0 0
0.0065002441 0.0047149658 -0.38330078 0 0 0 0
0.0084609985 0.0047035217 -0.38232422 0 0 0 0
0.010444641 0.0047035217 -0.38232422 0 0 0 0
0.012390137 0.0046920776 -0.38134766 0 0 0 0
0.01436615 0.0046920776 -0.38134766 0 0 0 0
0.016296387 0.0046768188 -0.38037109 0 0 0 0
0.049804688 0.0041847229 -0.34008789 0 0 0 0
0.051574707 0.0041847229 -0.34008789 0 0 0 0
0.053344727 0.0041847229 -0.34008789 0 0 0 0
0.054931641 0.0041732788 -0.33911133 0 0 0 0
0.05670166 0.0041732788 -0.33911133 0 0 0 0
0.058441162 0.0041732788 -0.33911133 0 0 0 0
0.060211182 0.0041732788 -0.33911133 0 0 0 0
0.061950684 0.0041732788 -0.33911133 0 0 0 0
0.063720703 0.0041732788 -0.33911133 0 0 0 0
0.065490723 0.0041732788 -0.33911133 0 0 0 0
0.067199707 0.0041732788 -0.33911133 0 0 0 0
0.068969727 0.0041732788 -0.33911133 0 0 0 0
0.070739746 0.0041732788 -0.33911133 0 0 0 0
0.072509766 0.0041732788 -0.33911133 0 0 0 0
0.07421875 0.0041732788 -0.33911133 0 0 0 0
0.07598877 0.0041732788 -0.33911133 0 0 0 0
0.077758789 0.0041732788 -0.33911133 0 0 0 0
0.079772949 0.0041847229 -0.34008789 0 0 0 0
0.081542969 0.0041847229 -0.34008789 0 0 0 0
0.083251953 0.0041847229 -0.34008789 0 0 0 0
0.085021973 0.0041847229 -0.34008789 0 0 0 0
0.086791992 0.0041847229 -0.34008789 0 0 0 0
0.088562012 0.0041847229 -0.34008789 0 0 0 0
0.090332031 0.0041847229 -0.34008789 0 0 0 0
0.092102051 0.0041847229 -0.34008789 0 0 0 0
0.09387207 0.0041847229 -0.34008789 0 0 0 0
0.09564209 0.0041847229 -0.34008789 0 0 0 0
0.097351074 0.0041847229 -0.34008789 0 0 0 0
0.099121094 0.0041847229 -0.34008789 0 0 0 0
0.10089111 0.0041847229 -0.34008789 0 0 0 0
0.10266113 0.0041847229 -0.34008789 0 0 0 0
0.10443115 0.0041847229 -0.34008789 0 0 0 0
0.10620117 0.0041847229 -0.34008789 0 0 0 0
0.10797119 0.0041847229 -0.34008789 0 0 0 0
0.10974121 0.0041847229 -0.34008789 0 0 0 0
0.1114502 0.0041847229 -0.34008789 0 0 0 0
0.11322021 0.0041847229 -0.34008789 0 0 0 0
0.11499023 0.0041847229 -0.34008789 0 0 0 0
0.11676025 0.0041847229 -0.34008789 0 0 0 0
0.11853027 0.0041847229 -0.34008789 0 0 0 0
0.12030029 0.0041847229 -0.34008789 0 0 0 0
0.12207031 0.0041847229 -0.34008789 0 0 0 0
0.1237793 0.0041847229 -0.34008789 0 0 0 0
0.12548828 0.0041847229 -0.34008789 0 0 0 0
0.12731934 0.0041847229 -0.34008789 0 0 0 0
0.12902832 0.0041847229 -0.34008789 0 0 0 0
0.13085938 0.0041847229 -0.34008789 0 0 0 0
0.13256836 0.0041847229 -0.34008789 0 0 0 0
0.13439941 0.0041847229 -0.34008789 0 0 0 0
0.1361084 0.0041847229 -0.34008789 0 0 0 0
0.13781738 0.0041847229 -0.34008789 0 0 0 0
0.14001465 0.004196167 -0.34130859 0 0 0 0
0.1418457 0.004196167 -0.34130859 0 0 0 0
0.14355469 0.004196167 -0.34130859 0 0 0 0
-0.070373535 0.0025653839 -0.36035156 0 0 0 0
-0.068481445 0.0025653839 -0.36035156 0 0 0 0
-0.066650391 0.0025653839 -0.36035156 0 0 0 0
-0.064758301 0.0025653839 -0.36035156 0 0 0 0
-0.062744141 0.0025596619 -0.359375 0 0 0 0
-0.06072998 0.0025520325 -0.35839844 0 0 0 0
-0.058868408 0.0025520325 -0.35839844 0 0 0 0
-0.056854248 0.0025444031 -0.35717773 0 0 0 0
-0.054992676 0.0025444031 -0.35717773 0 0 0 0
-0.053131104 0.0025444031 -0.35717773 0 0 0 0
-0.051147461 0.0025367737 -0.35620117 0 0 0 0
-0.049316406 0.0025367737 -0.35620117 0 0 0 0
-0.047454834 0.0025367737 -0.35620117 0 0 0 0
-0.045623779 0.0025367737 -0.35620117 0 0 0 0
-0.043640137 0.0025310516 -0.35522461 0 0 0 0
-0.041687012 0.0025234222 -0.35424805 0 0 0 0
-0.039855957 0.0025234222 -0.35424805 0 0 0 0
-0.039642334 0.0026302338 -0.36938477 0 0 0 0
-0.037719727 0.0026302338 -0.36938477 0 0 0 0
-0.035797119 0.0026302338 -0.36938477 0 0 0 0
-0.033905029 0.0026302338 -0.36938477 0 0 0 0
-0.031982422 0.0026302338 -0.36938477 0 0 0 0
-0.030075073 0.0026302338 -0.36938477 0 0 0 0
-0.028167725 0.0026302338 -0.36938477 0 0 0 0
-0.026184082 0.0026226044 -0.3684082 0 0 0 0
-0.024276733 0.0026226044 -0.3684082 0 0 0 0
-0.022369385 0.0026226044 -0.3684082 0 0 0 0
-0.001502037 0.0028457642 -0.39941406 0 0 0 0
0.00056171417 0.002822876 -0.39648438 0 0 0 0
0.0025615692 0.0027656555 -0.38842773 0 0 0 0
0.0045471191 0.0027523041 -0.38647461 0 0 0 0
0.0065155029 0.0027370453 -0.38427734 0 0 0 0
0.0084838867 0.0027313232 -0.38330078 0 0 0 0
0.010414124 0.0027160645 -0.38134766 0 0 0 0
0.012359619 0.0027084351 -0.38037109 0 0 0 0
0.014328003 0.0027084351 -0.38037109 0 0 0 0
0.01625061 0.002702713 -0.37939453 0 0 0 0
0.018112183 0.0026874542 -0.37744141 0 0 0 0
0.049804688 0.0024223328 -0.34008789 0 0 0 0
0.051574707 0.0024223328 -0.34008789 0 0 0 0
0.053344727 0.0024223328 -0.34008789 0 0 0 0
0.055084229 0.0024223328 -0.34008789 0 0 0 0
0.05670166 0.0024166107 -0.33911133 0 0 0 0
0.058441162 0.0024166107 -0.33911133 0 0 0 0
0.060211182 0.0024166107 -0.33911133 0 0 0 0
0.061950684 0.0024166107 -0.33911133 0 0 0 0
0.063720703 0.0024166107 -0.33911133 0 0 0 0
0.065490723 0.0024166107 -0.33911133 0 0 0 0
0.067199707 0.0024166107 -0.33911133 0 0 0 0
0.068969727 0.0024166107 -0.33911133 0 0 0 0
0.070739746 0.0024166107 -0.33911133 0 0 0 0
0.072509766 0.0024166107 -0.33911133 0 0 0 0
0.074462891 0.0024223328 -0.34008789 0 0 0 0
0.07623291 0.0024223328 -0.34008789 0 0 0 0
0.07800293 0.0024223328 -0.34008789 0 0 0 0
0.079772949 0.0024223328 -0.34008789 0 0 0 0
0.081542969 0.0024223328 -0.34008789 0 0 0 0
0.083251953 0.0024223328 -0.34008789 0 0 0 0
0.085021973 0.0024223328 -0.34008789 0 0 0 0
0.086791992 0.0024223328 -0.34008789 0 0 0 0
0.088562012 0.0024223328 -0.34008789 0 0 0 0
0.090332031 0.0024223328 -0.34008789 0 0 0 0
0.092102051 0.0024223328 -0.34008789 0 0 0 0
0.09387207 0.0024223328 -0.34008789 0 0 0 0
0.09564209 0.0024223328 -0.34008789 0 0 0 0
0.097351074 0.0024223328 -0.34008789 0 0 0 0
0.099121094 0.0024223328 -0.34008789 0 0 0 0
0.10089111 0.0024223328 -0.34008789 0 0 0 0
0.10266113 0.0024223328 -0.34008789 0 0 0 0
0.10443115 0.0024223328 -0.34008789 0 0 0 0
0.10620117 0.0024223328 -0.34008789 0 0 0 0
0.10797119 0.0024223328 -0.34008789 0 0 0 0
0.10974121 0.0024223328 -0.34008789 0 0 0 0
0.1114502 0.0024223328 -0.34008789 0 0 0 0
0.11322021 0.0024223328 -0.34008789 0 0 0 0
0.11499023 0.0024223328 -0.34008789 0 0 0 0
0.11676025 0.0024223328 -0.34008789 0 0 0 0
0.11853027 0.0024223328 -0.34008789 0 0 0 0
0.12030029 0.0024223328 -0.34008789 0 0 0 0
0.12207031 0.0024223328 -0.34008789 0 0 0 0
0.1237793 0.0024223328 -0.34008789 0 0 0 0
0.12548828 0.0024223328 -0.34008789 0 0 0 0
0.12731934 0.0024223328 -0.34008789 0 0 0 0
0.12902832 0.0024223328 -0.34008789 0 0 0 0
0.13085938 0.0024223328 -0.34008789 0 0 0 0
0.13256836 0.0024223328 -0.34008789 0 0 0 0
0.13439941 0.0024223328 -0.34008789 0 0 0 0
0.1361084 0.0024223328 -0.34008789 0 0 0 0
0.13830566 0.0024299622 -0.34130859 0 0 0 0
0.14001465 0.0024299622 -0.34130859 0 0 0 0
0.1418457 0.0024299622 -0.34130859 0 0 0 0
0.14355469 0.0024299622 -0.34130859 0 0 0 0
-0.070556641 0.00070238113 -0.36132812 0 0 0 0
-0.068725586 0.00070238113 -0.36132812 0 0 0 0
-0.066650391 0.00070047379 -0.36035156 0 0 0 0
-0.064758301 0.00070047379 -0.36035156 0 0 0 0
-0.062744141 0.00069856644 -0.359375 0 0 0 0
-0.060882568 0.00069856644 -0.359375 0 0 0 0
-0.058868408 0.00069665909 -0.35839844 0 0 0 0
-0.056854248 0.00069475174 -0.35717773 0 0 0 0
-0.054992676 0.00069475174 -0.35717773 0 0 0 0
-0.053131104 0.00069475174 -0.35717773 0 0 0 0
-0.051147461 0.00069284439 -0.35620117 0 0 0 0
-0.049316406 0.00069284439 -0.35620117 0 0 0 0
-0.047332764 0.00069093704 -0.35522461 0 0 0 0
-0.045501709 0.00069093704 -0.35522461 0 0 0 0
-0.043640137 0.00069093704 -0.35522461 0 0 0 0
-0.041687012 0.00068902969 -0.35424805 0 0 0 0
-0.039855957 0.00068902969 -0.35424805 0 0 0 0
-0.037902832 0.00068712234 -0.35327148 0 0 0 0
-0.037811279 0.00072002411 -0.37036133 0 0 0 0
-0.035797119 0.00071811676 -0.36938477 0 0 0 0
-0.033905029 0.00071811676 -0.36938477 0 0 0 0
-0.031982422 0.00071811676 -0.36938477 0 0 0 0
-0.030075073 0.00071811676 -0.36938477 0 0 0 0
-0.028091431 0.00071620941 -0.3684082 0 0 0 0
-0.026184082 0.00071620941 -0.3684082 0 0 0 0
-0.024276733 0.00071620941 -0.3684082 0 0 0 0
-0.02230835 0.00071430206 -0.36743164 0 0 0 0
-0.020401001 0.00071430206 -0.36743164 0 0 0 0
-0.0014982224 0.00077486038 -0.3984375 0 0 0 0
0.00055885315 0.00076723099 -0.39453125 0 0 0 0
0.0025672913 0.00075721741 -0.3894043 0 0 0 0
0.0045471191 0.00075149536 -0.38647461 0 0 0 0
0.0065155029 0.00074768066 -0.38427734 0 0 0 0
0.0084609985 0.00074338913 -0.38232422 0 0 0 0
0.010414124 0.00074148178 -0.38134766 0 0 0 0
0.012321472 0.00073766708 -0.37939453 0 0 0 0
0.014251709 0.00073575974 -0.37841797 0 0 0 0
0.016159058 0.00073385239 -0.37744141 0 0 0 0
0.018066406 0.00073194504 -0.37646484 0 0 0 0
0.01991272 0.00072813034 -0.37426758 0 0 0 0
0.021789551 0.00072622299 -0.37329102 0 0 0 0
0.051574707 0.00066137314 -0.34008789 0 0 0 0
0.053344727 0.00066137314 -0.34008789 0 0 0 0
0.055084229 0.00066137314 -0.34008789 0 0 0 0
0.056854248 0.00066137314 -0.34008789 0 0 0 0
0.058441162 0.00065946579 -0.33911133 0 0 0 0
0.060211182 0.00065946579 -0.33911133 0 0 0 0
0.061950684 0.00065946579 -0.33911133 0 0 0 0
0.063720703 0.00065946579 -0.33911133 0 0 0 0
0.065490723 0.00065946579 -0.33911133 0 0 0 0
0.067199707 0.00065946579 -0.33911133 0 0 0 0
0.068969727 0.00065946579 -0.33911133 0 0 0 0
0.070922852 0.00066137314 -0.34008789 0 0 0 0
0.072692871 0.00066137314 -0.34008789 0 0 0 0
0.074462891 0.00066137314 -0.34008789 0 0 0 0
0.07623291 0.00066137314 -0.34008789 0 0 0 0
0.07800293 0.00066137314 -0.34008789 0 0 0 0
0.079772949 0.00066137314 -0.34008789 0 0 0 0
0.081542969 0.00066137314 -0.34008789 0 0 0 0
0.083251953 0.00066137314 -0.34008789 0 0 0 0
0.085021973 0.00066137314 -0.34008789 0 0 0 0
0.086791992 0.00066137314 -0.34008789 0 0 0 0
0.088562012 0.00066137314 -0.34008789 0 0 0 0
0.090332031 0.00066137314 -0.34008789 0 0 0 0
0.092102051 0.00066137314 -0.34008789 0 0 0 0
0.09387207 0.00066137314 -0.34008789 0 0 0 0
0.09564209 0.00066137314 -0.34008789 0 0 0 0
0.097351074 0.00066137314 -0.34008789 0 0 0 0
0.099121094 0.00066137314 -0.34008789 0 0 0 0
0.10089111 0.00066137314 -0.34008789 0 0 0 0
0.10266113 0.00066137314 -0.34008789 0 0 0 0
0.10443115 0.00066137314 -0.34008789 0 0 0 0
0.10620117 0.00066137314 -0.34008789 0 0 0 0
0.10797119 0.00066137314 -0.34008789 0 0 0 0
0.10974121 0.00066137314 -0.34008789 0 0 0 0
0.1114502 0.00066137314 -0.34008789 0 0 0 0
0.11322021 0.00066137314 -0.34008789 0 0 0 0
0.11499023 0.00066137314 -0.34008789 0 0 0 0
0.11676025 0.00066137314 -0.34008789 0 0 0 0
0.11853027 0.00066137314 -0.34008789 0 0 0 0
0.12030029 0.00066137314 -0.34008789 0 0 0 0
0.12207031 0.00066137314 -0.34008789 0 0 0 0
0.1237793 0.00066137314 -0.34008789 0 0 0 0
0.12548828 0.00066137314 -0.34008789 0 0 0 0
0.12731934 0.00066137314 -0.34008789 0 0 0 0
0.12902832 0.00066137314 -0.34008789 0 0 0 0
0.13085938 0.00066137314 -0.34008789 0 0 0 0
0.13256836 0.00066137314 -0.34008789 0 0 0 0
0.13439941 0.00066137314 -0.34008789 0 0 0 0
0.1361084 0.00066137314 -0.34008789 0 0 0 0
0.13830566 0.00066375732 -0.34130859 0 0 0 0
0.14001465 0.00066375732 -0.34130859 0 0 0 0
0.1418457 0.00066375732 -0.34130859 0 0 0 0
0.14355469 0.00066375732 -0.34130859 0 0 0 0
-0.068725586 -0.001168251 -0.36132812 0 0 0 0
-0.066833496 -0.001168251 -0.36132812 0 0 0 0
-0.064758301 -0.0011644363 -0.36035156 0 0 0 0
-0.062744141 -0.0011615753 -0.359375 0 0 0 0
-0.060882568 -0.0011615753 -0.359375 0 0 0 0
-0.058868408 -0.0011587143 -0.35839844 0 0 0 0
-0.056854248 -0.0011548996 -0.35717773 0 0 0 0
-0.054992676 -0.0011548996 -0.35717773 0 0 0 0
-0.053131104 -0.0011548996 -0.35717773 0 0 0 0
-0.051147461 -0.0011520386 -0.35620117 0 0 0 0
-0.049316406 -0.0011520386 -0.35620117 0 0 0 0
-0.047332764 -0.0011482239 -0.35522461 0 0 0 0
-0.045501709 -0.0011482239 -0.35522461 0 0 0 0
-0.043518066 -0.0011453629 -0.35424805 0 0 0 0
-0.041687012 -0.0011453629 -0.35424805 0 0 0 0
-0.039855957 -0.0011453629 -0.35424805 0 0 0 0
-0.037902832 -0.0011425018 -0.35327148 0 0 0 0
-0.035797119 -0.0011940002 -0.36938477 0 0 0 0
-0.033905029 -0.0011940002 -0.36938477 0 0 0 0
-0.031982422 -0.0011940002 -0.36938477 0 0 0 0
-0.030075073 -0.0011940002 -0.36938477 0 0 0 0
-0.028091431 -0.0011911392 -0.3684082 0 0 0 0
-0.026184082 -0.0011911392 -0.3684082 0 0 0 0
-0.024200439 -0.0011873245 -0.36743164 0 0 0 0
-0.02230835 -0.0011873245 -0.36743164 0 0 0 0
-0.020401001 -0.0011873245 -0.36743164 0 0 0 0
-0.018493652 -0.0011873245 -0.36743164 0 0 0 0
-0.0014944077 -0.0012845993 -0.39746094 0 0 0 0
0.00055742264 -0.0012722015 -0.39331055 0 0 0 0
0.0025672913 -0.0012588501 -0.3894043 0 0 0 0
0.0045471191 -0.0012493134 -0.38647461 0 0 0 0
0.0065155029 -0.0012426376 -0.38427734 0 0 0 0
0.0084609985 -0.0012359619 -0.38232422 0 0 0 0
0.010383606 -0.0012302399 -0.38037109 0 0 0 0
0.012290955 -0.0012235641 -0.37841797 0 0 0 0
0.014213562 -0.0012197495 -0.37744141 0 0 0 0
0.01612854 -0.0012168884 -0.37646484 0 0 0 0
0.01802063 -0.0012140274 -0.37524414 0 0 0 0
0.019866943 -0.0012073517 -0.37329102 0 0 0 0
0.021728516 -0.001203537 -0.37231445 0 0 0 0
0.023529053 -0.0011968613 -0.37036133 0 0 0 0
0.025390625 -0.0011940002 -0.36938477 0 0 0 0
0.051574707 -0.0010995865 -0.34008789 0 0 0 0
0.053344727 -0.0010995865 -0.34008789 0 0 0 0
0.055084229 -0.0010995865 -0.34008789 0 0 0 0
0.056854248 -0.0010995865 -0.34008789 0 0 0 0
0.058441162 -0.0010967255 -0.33911133 0 0 0 0
0.060211182 -0.0010967255 -0.33911133 0 0 0 0
0.061950684 -0.0010967255 -0.33911133 0 0 0 0
0.063720703 -0.0010967255 -0.33911133 0 0 0 0
0.065490723 -0.0010967255 -0.33911133 0 0 0 0
0.067199707 -0.0010967255 -0.33911133 0 0 0 0
0.069152832 -0.0010995865 -0.34008789 0 0 0 0
0.070922852 -0.0010995865 -0.34008789 0 0 0 0
0.072692871 -0.0010995865 -0.34008789 0 0 0 0
0.074462891 -0.0010995865 -0.34008789 0 0 0 0
0.07623291 -0.0010995865 -0.34008789 0 0 0 0
0.07800293 -0.0010995865 -0.34008789 0 0 0 0
0.079772949 -0.0010995865 -0.34008789 0 0 0 0
0.081542969 -0.0010995865 -0.34008789 0 0 0 0
0.083251953 -0.0010995865 -0.34008789 0 0 0 0
0.085021973 -0.0010995865 -0.34008789 0 0 0 0
0.086791992 -0.0010995865 -0.34008789 0 0 0 0
0.088562012 -0.0010995865 -0.34008789 0 0 0 0
0.090332031 -0.0010995865 -0.34008789 0 0 0 0
0.092102051 -0.0010995865 -0.34008789 0 0 0 0
0.09387207 -0.0010995865 -0.34008789 0 0 0 0
0.09564209 -0.0010995865 -0.34008789 0 0 0 0
0.097351074 -0.0010995865 -0.34008789 0 0 0 0
0.099121094 -0.0010995865 -0.34008789 0 0 0 0
0.10089111 -0.0010995865 -0.34008789 0 0 0 0
0.10266113 -0.0010995865 -0.34008789 0 0 0 0
0.10443115 -0.0010995865 -0.34008789 0 0 0 0
0.10620117 -0.0010995865 -0.34008789 0 0 0 0
0.10797119 -0.0010995865 -0.34008789 0 0 0 0
0.10974121 -0.0010995865 -0.34008789 0 0 0 0
0.1114502 -0.0010995865 -0.34008789 0 0 0 0
0.11322021 -0.0010995865 -0.34008789 0 0 0 0
0.11499023 -0.0010995865 -0.34008789 0 0 0 0
0.11676025 -0.0010995865 -0.34008789 0 0 0 0
0.11853027 -0.0010995865 -0.34008789 0 0 0 0
0.12030029 -0.0010995865 -0.34008789 0 0 0 0
0.12207031 -0.0010995865 -0.34008789 0 0 0 0
0.1237793 -0.0010995865 -0.34008789 0 0 0 0
0.12548828 -0.0010995865 -0.34008789 0 0 0 0
0.12731934 -0.0010995865 -0.34008789 0 0 0 0
0.12902832 -0.0010995865 -0.34008789 0 0 0 0
0.13085938 -0.0010995865 -0.34008789 0 0 0 0
0.13256836 -0.0010995865 -0.34008789 0 0 0 0
0.13439941 -0.0010995865 -0.34008789 0 0 0 0
0.13647461 -0.0011034012 -0.34130859 0 0 0 0
0.13830566 -0.0011034012 -0.34130859 0 0 0 0
0.14001465 -0.0011034012 -0.34130859 0 0 0 0
0.1418457 -0.0011034012 -0.34130859 0 0 0 0
0.14355469 -0.0011034012 -0.34130859 0 0 0 0
-0.066833496 -0.0030384064 -0.36132812 0 0 0 0
-0.064758301 -0.003030777 -0.36035156 0 0 0 0
-0.062744141 -0.0030212402 -0.359375 0 0 0 0
-0.060882568 -0.0030212402 -0.359375 0 0 0 0
-0.058868408 -0.0030136108 -0.35839844 0 0 0 0
-0.056854248 -0.0030059814 -0.35717773 0 0 0 0
-0.054992676 -0.0030059814 -0.35717773 0 0 0 0
-0.053009033 -0.0029964447 -0.35620117 0 0 0 0
-0.051147461 -0.0029964447 -0.35620117 0 0 0 0
-0.049163818 -0.0029888153 -0.35522461 0 0 0 0
-0.047332764 -0.0029888153 -0.35522461 0 0 0 0
-0.045349121 -0.0029792786 -0.35424805 0 0 0 0
-0.043518066 -0.0029792786 -0.35424805 0 0 0 0
-0.041687012 -0.0029792786 -0.35424805 0 0 0 0
-0.039733887 -0.0029716492 -0.35327148 0 0 0 0
-0.037902832 -0.0029716492 -0.35327148 0 0 0 0
-0.036071777 -0.0029716492 -0.35327148 0 0 0 0
-0.035797119 -0.0031070709 -0.36938477 0 0 0 0
-0.033905029 -0.0031070709 -0.36938477 0 0 0 0
-0.031982422 -0.0031070709 -0.36938477 0 0 0 0
-0.029998779 -0.0030975342 -0.3684082 0 0 0 0
-0.028091431 -0.0030975342 -0.3684082 0 0 0 0
-0.026184082 -0.0030975342 -0.3684082 0 0 0 0
-0.024200439 -0.0030899048 -0.36743164 0 0 0 0
-0.02230835 -0.0030899048 -0.36743164 0 0 0 0
-0.020401001 -0.0030899048 -0.36743164 0 0 0 0
-0.018493652 -0.0030899048 -0.36743164 0 0 0 0
-0.016601562 -0.0030899048 -0.36743164 0 0 0 0
-0.0014867783 -0.003326416 -0.39550781 0 0 0 0
0.00055456161 -0.0032920837 -0.39135742 0 0 0 0
0.0025615692 -0.0032672882 -0.38842773 0 0 0 0
0.004535675 -0.0032424927 -0.38549805 0 0 0 0
0.0065002441 -0.0032253265 -0.38330078 0 0 0 0
0.0084152222 -0.0031986237 -0.38037109 0 0 0 0
0.010360718 -0.0031909943 -0.37939453 0 0 0 0
0.012260437 -0.0031738281 -0.37744141 0 0 0 0
0.014175415 -0.0031661987 -0.37646484 0 0 0 0
0.016082764 -0.003156662 -0.37524414 0 0 0 0
0.017929077 -0.0031394958 -0.37329102 0 0 0 0
0.019805908 -0.0031318665 -0.37231445 0 0 0 0
0.021682739 -0.0031242371 -0.37133789 0 0 0 0
0.023529053 -0.0031147003 -0.37036133 0 0 0 0
0.025390625 -0.0031070709 -0.36938477 0 0 0 0
0.02722168 -0.0030975342 -0.3684082 0 0 0 0
0.051574707 -0.0028610229 -0.34008789 0 0 0 0
0.053344727 -0.0028610229 -0.34008789 0 0 0 0
0.055084229 -0.0028610229 -0.34008789 0 0 0 0
0.056854248 -0.0028610229 -0.34008789 0 0 0 0
0.058624268 -0.0028610229 -0.34008789 0 0 0 0
0.060394287 -0.0028610229 -0.34008789 0 0 0 0
0.061950684 -0.0028533936 -0.33911133 0 0 0 0
0.063903809 -0.0028610229 -0.34008789 0 0 0 0
0.065673828 -0.0028610229 -0.34008789 0 0 0 0
0.067443848 -0.0028610229 -0.34008789 0 0 0 0
0.069152832 -0.0028610229 -0.34008789 0 0 0 0
0.070922852 -0.0028610229 -0.34008789 0 0 0 0
0.072692871 -0.0028610229 -0.34008789 0 0 0 0
0.074462891 -0.0028610229 -0.34008789 0 0 0 0
0.07623291 -0.0028610229 -0.34008789 0 0 0 0
0.07800293 -0.0028610229 -0.34008789 0 0 0 0
0.079772949 -0.0028610229 -0.34008789 0 0 0 0
0.081542969 -0.0028610229 -0.34008789 0 0 0 0
0.083251953 -0.0028610229 -0.34008789 0 0 0 0
0.085021973 -0.0028610229 -0.34008789 0 0 0 0
0.086791992 -0.0028610229 -0.34008789 0 0 0 0
0.088806152 -0.0028705597 -0.34130859 0 0 0 0
0.090576172 -0.0028705597 -0.34130859 0 0 0 0
0.092346191 -0.0028705597 -0.34130859 0 0 0 0
0.094116211 -0.0028705597 -0.34130859 0 0 0 0
0.09588623 -0.0028705597 -0.34130859 0 0 0 0
0.09765625 -0.0028705597 -0.34130859 0 0 0 0
0.099121094 -0.0028610229 -0.34008789 0 0 0 0
0.10089111 -0.0028610229 -0.34008789 0 0 0 0
0.10266113 -0.0028610229 -0.34008789 0 0 0 0
0.10443115 -0.0028610229 -0.34008789 0 0 0 0
0.10620117 -0.0028610229 -0.34008789 0 0 0 0
0.10797119 -0.0028610229 -0.34008789 0 0 0 0
0.10974121 -0.0028610229 -0.34008789 0 0 0 0
0.1114502 -0.0028610229 -0.34008789 0 0 0 0
0.11322021 -0.0028610229 -0.34008789 0 0 0 0
0.11499023 -0.0028610229 -0.34008789 0 0 0 0
0.11676025 -0.0028610229 -0.34008789 0 0 0 0
0.11853027 -0.0028610229 -0.34008789 0 0 0 0
0.12030029 -0.0028610229 -0.34008789 0 0 0 0
0.12207031 -0.0028610229 -0.34008789 0 0 0 0
0.1237793 -0.0028610229 -0.34008789 0 0 0 0
0.12585449 -0.0028705597 -0.34130859 0 0 0 0
0.12768555 -0.0028705597 -0.34130859 0 0 0 0
0.12939453 -0.0028705597 -0.34130859 0 0 0 0
0.13122559 -0.0028705597 -0.34130859 0 0 0 0
0.13293457 -0.0028705597 -0.34130859 0 0 0 0
0.13476562 -0.0028705597 -0.34130859 0 0 0 0
0.13647461 -0.0028705597 -0.34130859 0 0 0 0
0.13830566 -0.0028705597 -0.34130859 0 0 0 0
0.14001465 -0.0028705597 -0.34130859 0 0 0 0
0.1418457 -0.0028705597 -0.34130859 0 0 0 0
0.14355469 -0.0028705597 -0.34130859 0 0 0 0
-0.064758301 -0.0048942566 -0.36035156 0 0 0 0
-0.062744141 -0.0048828125 -0.359375 0 0 0 0
-0.06072998 -0.0048675537 -0.35839844 0 0 0 0
-0.058868408 -0.0048675537 -0.35839844 0 0 0 0
-0.056854248 -0.0048561096 -0.35717773 0 0 0 0
-0.054992676 -0.0048561096 -0.35717773 0 0 0 0
-0.053009033 -0.0048408508 -0.35620117 0 0 0 0
-0.051147461 -0.0048408508 -0.35620117 0 0 0 0
-0.049163818 -0.0048294067 -0.35522461 0 0 0 0
-0.047332764 -0.0048294067 -0.35522461 0 0 0 0
-0.045349121 -0.0048141479 -0.35424805 0 0 0 0
-0.043518066 -0.0048141479 -0.35424805 0 0 0 0
-0.041564941 -0.0047988892 -0.35327148 0 0 0 0
-0.039733887 -0.0047988892 -0.35327148 0 0 0 0
-0.037811279 -0.0047874451 -0.35229492 0 0 0 0
-0.035980225 -0.0047874451 -0.35229492 0 0 0 0
-0.035797119 -0.0050201416 -0.36938477 0 0 0 0
-0.033905029 -0.0050201416 -0.36938477 0 0 0 0
-0.031982422 -0.0050201416 -0.36938477 0 0 0 0
-0.029998779 -0.0050048828 -0.3684082 0 0 0 0
-0.028091431 -0.0050048828 -0.3684082 0 0 0 0
-0.026184082 -0.0050048828 -0.3684082 0 0 0 0
-0.024200439 -0.004989624 -0.36743164 0 0 0 0
-0.02230835 -0.004989624 -0.36743164 0 0 0 0
-0.020401001 -0.004989624 -0.36743164 0 0 0 0
-0.018493652 -0.004989624 -0.36743164 0 0 0 0
-0.016601562 -0.004989624 -0.36743164 0 0 0 0
-0.014694214 -0.004989624 -0.36743164 0 0 0 0
-0.0014829636 -0.0053596497 -0.39453125 0 0 0 0
0.00055170059 -0.0052909851 -0.3894043 0 0 0 0
0.0025482178 -0.0052490234 -0.38647461 0 0 0 0
0.004524231 -0.0052223206 -0.38427734 0 0 0 0
0.0064659119 -0.0051841736 -0.38134766 0 0 0 0
0.008392334 -0.005153656 -0.37939453 0 0 0 0
0.0103302 -0.0051422119 -0.37841797 0 0 0 0
0.01222229 -0.005115509 -0.37646484 0 0 0 0
0.014137268 -0.0051002502 -0.37524414 0 0 0 0
0.016036987 -0.0050849915 -0.37426758 0 0 0 0
0.017883301 -0.0050582886 -0.37231445 0 0 0 0
0.019760132 -0.0050468445 -0.37133789 0 0 0 0
0.021621704 -0.0050315857 -0.37036133 0 0 0 0
0.023468018 -0.0050201416 -0.36938477 0 0 0 0
0.025390625 -0.0050201416 -0.36938477 0 0 0 0
0.02722168 -0.0050048828 -0.3684082 0 0 0 0
0.053344727 -0.0046234131 -0.34008789 0 0 0 0
0.055084229 -0.0046234131 -0.34008789 0 0 0 0
0.056854248 -0.0046234131 -0.34008789 0 0 0 0
0.058624268 -0.0046234131 -0.34008789 0 0 0 0
0.060394287 -0.0046234131 -0.34008789 0 0 0 0
0.062133789 -0.0046234131 -0.34008789 0 0 0 0
0.063903809 -0.0046234131 -0.34008789 0 0 0 0
0.065673828 -0.0046234131 -0.34008789 0 0 0 0
0.067443848 -0.0046234131 -0.34008789 0 0 0 0
0.069152832 -0.0046234131 -0.34008789 0 0 0 0
0.070922852 -0.0046234131 -0.34008789 0 0 0 0
0.072692871 -0.0046234131 -0.34008789 0 0 0 0
0.074462891 -0.0046234131 -0.34008789 0 0 0 0
0.07623291 -0.0046234131 -0.34008789 0 0 0 0
0.07800293 -0.0046234131 -0.34008789 0 0 0 0
0.079772949 -0.0046234131 -0.34008789 0 0 0 0
0.081726074 -0.0046348572 -0.34130859 0 0 0 0
0.083496094 -0.0046348572 -0.34130859 0 0 0 0
0.085266113 -0.0046348572 -0.34130859 0 0 0 0
0.087036133 -0.0046348572 -0.34130859 0 0 0 0
0.088806152 -0.0046348572 -0.34130859 0 0 0 0
0.090576172 -0.0046348572 -0.34130859 0 0 0 0
0.092346191 -0.0046348572 -0.34130859 0 0 0 0
0.094116211 -0.0046348572 -0.34130859 0 0 0 0
0.09588623 -0.0046348572 -0.34130859 0 0 0 0
0.09765625 -0.0046348572 -0.34130859 0 0 0 0
0.09942627 -0.0046348572 -0.34130859 0 0 0 0
0.10119629 -0.0046348572 -0.34130859 0 0 0 0
0.10296631 -0.0046348572 -0.34130859 0 0 0 0
0.10473633 -0.0046348572 -0.34130859 0 0 0 0
0.10650635 -0.0046348572 -0.34130859 0 0 0 0
0.10827637 -0.0046348572 -0.34130859 0 0 0 0
0.10974121 -0.0046234131 -0.34008789 0 0 0 0
0.1114502 -0.0046234131 -0.34008789 0 0 0 0
0.11322021 -0.0046234131 -0.34008789 0 0 0 0
0.11499023 -0.0046234131 -0.34008789 0 0 0 0
0.11676025 -0.0046234131 -0.34008789 0 0 0 0
0.11889648 -0.0046348572 -0.34130859 0 0 0 0
0.1206665 -0.0046348572 -0.34130859 0 0 0 0
0.12243652 -0.0046348572 -0.34130859 0 0 0 0
0.12414551 -0.0046348572 -0.34130859 0 0 0 0
0.12585449 -0.0046348572 -0.34130859 0 0 0 0
0.12768555 -0.0046348572 -0.34130859 0 0 0 0
0.12939453 -0.0046348572 -0.34130859 0 0 0 0
0.13122559 -0.0046348572 -0.34130859 0 0 0 0
0.13293457 -0.0046348572 -0.34130859 0 0 0 0
0.13476562 -0.0046348572 -0.34130859 0 0 0 0
0.13647461 -0.0046348572 -0.34130859 0 0 0 0
0.13830566 -0.0046348572 -0.34130859 0 0 0 0
0.14001465 -0.0046348572 -0.34130859 0 0 0 0
0.1418457 -0.0046348572 -0.34130859 0 0 0 0
0.14355469 -0.0046348572 -0.34130859 0 0 0 0
-0.064758301 -0.0067634583 -0.36035156 0 0 0 0
-0.062744141 -0.0067443848 -0.359375 0 0 0 0
-0.06072998 -0.0067253113 -0.35839844 0 0 0 0
-0.058685303 -0.0067062378 -0.35717773 0 0 0 0
-0.056854248 -0.0067062378 -0.35717773 0 0 0 0
-0.054840088 -0.0066871643 -0.35620117 0 0 0 0
-0.053009033 -0.0066871643 -0.35620117 0 0 0 0
-0.050994873 -0.0066680908 -0.35522461 0 0 0 0
-0.049163818 -0.0066680908 -0.35522461 0 0 0 0
-0.047180176 -0.0066490173 -0.35424805 0 0 0 0
-0.045349121 -0.0066490173 -0.35424805 0 0 0 0
-0.043395996 -0.0066299438 -0.35327148 0 0 0 0
-0.041564941 -0.0066299438 -0.35327148 0 0 0 0
-0.039611816 -0.0066108704 -0.35229492 0 0 0 0
-0.037811279 -0.0066108704 -0.35229492 0 0 0 0
-0.035980225 -0.0066108704 -0.35229492 0 0 0 0
-0.033905029 -0.0069313049 -0.36938477 0 0 0 0
-0.031982422 -0.0069313049 -0.36938477 0 0 0 0
-0.029998779 -0.0069122314 -0.3684082 0 0 0 0
-0.028091431 -0.0069122314 -0.3684082 0 0 0 0
-0.026184082 -0.0069122314 -0.3684082 0 0 0 0
-0.024200439 -0.006893158 -0.36743164 0 0 0 0
-0.02230835 -0.006893158 -0.36743164 0 0 0 0
-0.020401001 -0.006893158 -0.36743164 0 0 0 0
-0.018493652 -0.006893158 -0.36743164 0 0 0 0
-0.016601562 -0.006893158 -0.36743164 0 0 0 0
-0.014694214 -0.006893158 -0.36743164 0 0 0 0
-0.0014457703 -0.0072135925 -0.38427734 0 0 0 0
0.00054597855 -0.007232666 -0.38549805 0 0 0 0
0.0025348663 -0.0072135925 -0.38427734 0 0 0 0
0.0045013428 -0.0071754456 -0.38232422 0 0 0 0
0.0064468384 -0.0071372986 -0.38037109 0 0 0 0
0.0083694458 -0.0071029663 -0.37841797 0 0 0 0
0.010307312 -0.0070838928 -0.37744141 0 0 0 0
0.012191772 -0.0070457458 -0.37524414 0 0 0 0
0.014099121 -0.0070266724 -0.37426758 0 0 0 0
0.015991211 -0.0070075989 -0.37329102 0 0 0 0
0.017883301 -0.0069885254 -0.37231445 0 0 0 0
0.019760132 -0.0069694519 -0.37133789 0 0 0 0
0.021621704 -0.0069503784 -0.37036133 0 0 0 0
0.023468018 -0.0069313049 -0.36938477 0 0 0 0
0.025390625 -0.0069313049 -0.36938477 0 0 0 0
0.02722168 -0.0069122314 -0.3684082 0 0 0 0
0.029052734 -0.006893158 -0.36743164 0 0 0 0
0.053344727 -0.0063858032 -0.34008789 0 0 0 0
0.055084229 -0.0063858032 -0.34008789 0 0 0 0
0.056854248 -0.0063858032 -0.34008789 0 0 0 0
0.058624268 -0.0063858032 -0.34008789 0 0 0 0
0.060394287 -0.0063858032 -0.34008789 0 0 0 0
0.062133789 -0.0063858032 -0.34008789 0 0 0 0
0.063903809 -0.0063858032 -0.34008789 0 0 0 0
0.065673828 -0.0063858032 -0.34008789 0 0 0 0
0.067443848 -0.0063858032 -0.34008789 0 0 0 0
0.069152832 -0.0063858032 -0.34008789 0 0 0 0
0.070922852 -0.0063858032 -0.34008789 0 0 0 0
0.072692871 -0.0063858032 -0.34008789 0 0 0 0
0.074462891 -0.0063858032 -0.34008789 0 0 0 0
0.07623291 -0.0063858032 -0.34008789 0 0 0 0
0.07800293 -0.0063858032 -0.34008789 0 0 0 0
0.08001709 -0.0064048767 -0.34130859 0 0 0 0
0.081726074 -0.0064048767 -0.34130859 0 0 0 0
0.083496094 -0.0064048767 -0.34130859 0 0 0 0
0.085266113 -0.0064048767 -0.34130859 0 0 0 0
0.087036133 -0.0064048767 -0.34130859 0 0 0 0
0.088806152 -0.0064048767 -0.34130859 0 0 0 0
0.090576172 -0.0064048767 -0.34130859 0 0 0 0
0.092346191 -0.0064048767 -0.34130859 0 0 0 0
0.094116211 -0.0064048767 -0.34130859 0 0 0 0
0.09588623 -0.0064048767 -0.34130859 0 0 0 0
0.09765625 -0.0064048767 -0.34130859 0 0 0 0
0.09942627 -0.0064048767 -0.34130859 0 0 0 0
0.10119629 -0.0064048767 -0.34130859 0 0 0 0
0.10296631 -0.0064048767 -0.34130859 0 0 0 0
0.10473633 -0.0064048767 -0.34130859 0 0 0 0
0.10650635 -0.0064048767 -0.34130859 0 0 0 0
0.10827637 -0.0064048767 -0.34130859 0 0 0 0
0.11004639 -0.0064048767 -0.34130859 0 0 0 0
0.11181641 -0.0064048767 -0.34130859 0 0 0 0
0.11358643 -0.0064048767 -0.34130859 0 0 0 0
0.11535645 -0.0064048767 -0.34130859 0 0 0 0
0.11712646 -0.0064048767 -0.34130859 0 0 0 0
0.11889648 -0.0064048767 -0.34130859 0 0 0 0
0.1206665 -0.0064048767 -0.34130859 0 0 0 0
0.12243652 -0.0064048767 -0.34130859 0 0 0 0
0.12414551 -0.0064048767 -0.34130859 0 0 0 0
0.12585449 -0.0064048767 -0.34130859 0 0 0 0
0.12768555 -0.0064048767 -0.34130859 0 0 0 0
0.12939453 -0.0064048767 -0.34130859 0 0 0 0
0.13122559 -0.0064048767 -0.34130859 0 0 0 0
0.13293457 -0.0064048767 -0.34130859 0 0 0 0
0.13476562 -0.0064048767 -0.34130859 0 0 0 0
0.13647461 -0.0064048767 -0.34130859 0 0 0 0
0.13830566 -0.0064048767 -0.34130859 0 0 0 0
0.14001465 -0.0064048767 -0.34130859 0 0 0 0
0.1418457 -0.0064048767 -0.34130859 0 0 0 0
0.14355469 -0.0064048767 -0.34130859 0 0 0 0
-0.062744141 -0.008605957 -0.359375 0 0 0 0
-0.060546875 -0.0085525513 -0.35717773 0 0 0 0
-0.058685303 -0.0085525513 -0.35717773 0 0 0 0
-0.05670166 -0.0085296631 -0.35620117 0 0 0 0
-0.054840088 -0.0085296631 -0.35620117 0 0 0 0
-0.052856445 -0.0085067749 -0.35522461 0 0 0 0
-0.050994873 -0.0085067749 -0.35522461 0 0 0 0
-0.049163818 -0.0085067749 -0.35522461 0 0 0 0
-0.047180176 -0.0084838867 -0.35424805 0 0 0 0
-0.045349121 -0.0084838867 -0.35424805 0 0 0 0
-0.043395996 -0.0084609985 -0.35327148 0 0 0 0
-0.041564941 -0.0084609985 -0.35327148 0 0 0 0
-0.039611816 -0.008430481 -0.35229492 0 0 0 0
-0.037811279 -0.008430481 -0.35229492 0 0 0 0
-0.035888672 -0.0084075928 -0.35131836 0 0 0 0
-0.034057617 -0.0084075928 -0.35131836 0 0 0 0
-0.031982422 -0.0088424683 -0.36938477 0 0 0 0
-0.029998779 -0.0088195801 -0.3684082 0 0 0 0
-0.028091431 -0.0088195801 -0.3684082 0 0 0 0
-0.026184082 -0.0088195801 -0.3684082 0 0 0 0
-0.024200439 -0.0087966919 -0.36743164 0 0 0 0
-0.02230835 -0.0087966919 -0.36743164 0 0 0 0
-0.020401001 -0.0087966919 -0.36743164 0 0 0 0
-0.018493652 -0.0087966919 -0.36743164 0 0 0 0
-0.016601562 -0.0087966919 -0.36743164 0 0 0 0
-0.01473999 -0.0088195801 -0.3684082 0 0 0 0
-0.012863159 -0.0088424683 -0.36938477 0 0 0 0
-0.0053710938 -0.0091094971 -0.38037109 0 0 0 0
-0.0034008026 -0.0091094971 -0.38037109 0 0 0 0
-0.0014381409 -0.0091552734 -0.38232422 0 0 0 0
0.00054311752 -0.0091781616 -0.38330078 0 0 0 0
0.0025215149 -0.0091552734 -0.38232422 0 0 0 0
0.0044784546 -0.0091094971 -0.38037109 0 0 0 0
0.0064315796 -0.0090866089 -0.37939453 0 0 0 0
0.0083465576 -0.0090332031 -0.37744141 0 0 0 0
0.010276794 -0.0090103149 -0.37646484 0 0 0 0
0.012191772 -0.0089874268 -0.37524414 0 0 0 0
0.014099121 -0.0089645386 -0.37426758 0 0 0 0
0.015991211 -0.0089416504 -0.37329102 0 0 0 0
0.017883301 -0.0089111328 -0.37231445 0 0 0 0
0.019760132 -0.0088882446 -0.37133789 0 0 0 0
0.021621704 -0.0088653564 -0.37036133 0 0 0 0
0.023468018 -0.0088424683 -0.36938477 0 0 0 0
0.025390625 -0.0088424683 -0.36938477 0 0 0 0
0.02722168 -0.0088195801 -0.3684082 0 0 0 0
0.029052734 -0.0087966919 -0.36743164 0 0 0 0
0.053344727 -0.0081481934 -0.34008789 0 0 0 0
0.055084229 -0.0081481934 -0.34008789 0 0 0 0
0.056854248 -0.0081481934 -0.34008789 0 0 0 0
0.058624268 -0.0081481934 -0.34008789 0 0 0 0
0.060394287 -0.0081481934 -0.34008789 0 0 0 0
0.062133789 -0.0081481934 -0.34008789 0 0 0 0
0.063903809 -0.0081481934 -0.34008789 0 0 0 0
0.065673828 -0.0081481934 -0.34008789 0 0 0 0
0.067443848 -0.0081481934 -0.34008789 0 0 0 0
0.069152832 -0.0081481934 -0.34008789 0 0 0 0
0.070922852 -0.0081481934 -0.34008789 0 0 0 0
0.072692871 -0.0081481934 -0.34008789 0 0 0 0
0.074462891 -0.0081481934 -0.34008789 0 0 0 0
0.07623291 -0.0081481934 -0.34008789 0 0 0 0
0.07824707 -0.0081710815 -0.34130859 0 0 0 0
0.08001709 -0.0081710815 -0.34130859 0 0 0 0
0.081726074 -0.0081710815 -0.34130859 0 0 0 0
0.083496094 -0.0081710815 -0.34130859 0 0 0 0
0.085266113 -0.0081710815 -0.34130859 0 0 0 0
0.087036133 -0.0081710815 -0.34130859 0 0 0 0
0.088806152 -0.0081710815 -0.34130859 0 0 0 0
0.090576172 -0.0081710815 -0.34130859 0 0 0 0
0.092346191 -0.0081710815 -0.34130859 0 0 0 0
0.094116211 -0.0081710815 -0.34130859 0 0 0 0
0.09588623 -0.0081710815 -0.34130859 0 0 0 0
0.09765625 -0.0081710815 -0.34130859 0 0 0 0
0.09942627 -0.0081710815 -0.34130859 0 0 0 0
0.10119629 -0.0081710815 -0.34130859 0 0 0 0
0.10296631 -0.0081710815 -0.34130859 0 0 0 0
0.10473633 -0.0081710815 -0.34130859 0 0 0 0
0.10650635 -0.0081710815 -0.34130859 0 0 0 0
0.10827637 -0.0081710815 -0.34130859 0 0 0 0
0.11004639 -0.0081710815 -0.34130859 0 0 0 0
0.11181641 -0.0081710815 -0.34130859 0 0 0 0
0.11358643 -0.0081710815 -0.34130859 0 0 0 0
0.11535645 -0.0081710815 -0.34130859 0 0 0 0
0.11712646 -0.0081710815 -0.34130859 0 0 0 0
0.11889648 -0.0081710815 -0.34130859 0 0 0 0
0.1206665 -0.0081710815 -0.34130859 0 0 0 0
0.12243652 -0.0081710815 -0.34130859 0 0 0 0
0.12414551 -0.0081710815 -0.34130859 0 0 0 0
0.12585449 -0.0081710815 -0.34130859 0 0 0 0
0.12768555 -0.0081710815 -0.34130859 0 0 0 0
0.12939453 -0.0081710815 -0.34130859 0 0 0 0
0.13122559 -0.0081710815 -0.34130859 0 0 0 0
0.13293457 -0.0081710815 -0.34130859 0 0 0 0
0.13476562 -0.0081710815 -0.34130859 0 0 0 0
0.13647461 -0.0081710815 -0.34130859 0 0 0 0
0.13830566 -0.0081710815 -0.34130859 0 0 0 0
0.14001465 -0.0081710815 -0.34130859 0 0 0 0
0.1418457 -0.0081710815 -0.34130859 0 0 0 0
0.14355469 -0.0081710815 -0.34130859 0 0 0 0
0.14575195 -0.0081939697 -0.34228516 0 0 0 0
-0.060546875 -0.010406494 -0.35717773 0 0 0 0
-0.058532715 -0.010375977 -0.35620117 0 0 0 0
-0.05670166 -0.010375977 -0.35620117 0 0 0 0
-0.054840088 -0.010375977 -0.35620117 0 0 0 0
-0.052856445 -0.010345459 -0.35522461 0 0 0 0
-0.050994873 -0.010345459 -0.35522461 0 0 0 0
-0.049163818 -0.010345459 -0.35522461 0 0 0 0
-0.047180176 -0.010314941 -0.35424805 0 0 0 0
-0.045349121 -0.010314941 -0.35424805 0 0 0 0
-0.043395996 -0.010284424 -0.35327148 0 0 0 0
-0.041442871 -0.010261536 -0.35229492 0 0 0 0
-0.039611816 -0.010261536 -0.35229492 0 0 0 0
-0.037689209 -0.010231018 -0.35131836 0 0 0 0
-0.035888672 -0.010231018 -0.35131836 0 0 0 0
-0.034057617 -0.010231018 -0.35131836 0 0 0 0
-0.031982422 -0.010757446 -0.36938477 0 0 0 0
-0.029998779 -0.010726929 -0.3684082 0 0 0 0
-0.028091431 -0.010726929 -0.3684082 0 0 0 0
-0.026184082 -0.010726929 -0.3684082 0 0 0 0
-0.024200439 -0.010696411 -0.36743164 0 0 0 0
-0.02230835 -0.010696411 -0.36743164 0 0 0 0
-0.020401001 -0.010696411 -0.36743164 0 0 0 0
-0.018493652 -0.010696411 -0.36743164 0 0 0 0
-0.016647339 -0.010726929 -0.3684082 0 0 0 0
-0.014778137 -0.010757446 -0.36938477 0 0 0 0
-0.012931824 -0.010810852 -0.37133789 0 0 0 0
-0.011070251 -0.010871887 -0.37329102 0 0 0 0
-0.009185791 -0.010932922 -0.37524414 0 0 0 0
-0.0072631836 -0.01096344 -0.37646484 0 0 0 0
-0.0053405762 -0.011016846 -0.37841797 0 0 0 0
-0.0033912659 -0.011047363 -0.37939453 0 0 0 0
-0.0014343262 -0.011108398 -0.38134766 0 0 0 0
0.0005402565 -0.011108398 -0.38134766 0 0 0 0
0.0025081635 -0.011077881 -0.38037109 0 0 0 0
0.0044670105 -0.011047363 -0.37939453 0 0 0 0
0.0064125061 -0.011016846 -0.37841797 0 0 0 0
0.0083465576 -0.010986328 -0.37744141 0 0 0 0
0.010246277 -0.010932922 -0.37524414 0 0 0 0
0.012161255 -0.010902405 -0.37426758 0 0 0 0
0.014060974 -0.010871887 -0.37329102 0 0 0 0
0.015991211 -0.010871887 -0.37329102 0 0 0 0
0.017883301 -0.01084137 -0.37231445 0 0 0 0
0.019760132 -0.010810852 -0.37133789 0 0 0 0
0.021682739 -0.010810852 -0.37133789 0 0 0 0
0.023529053 -0.010787964 -0.37036133 0 0 0 0
0.02545166 -0.010787964 -0.37036133 0 0 0 0
0.02722168 -0.010726929 -0.3684082 0 0 0 0
0.053344727 -0.0099105835 -0.34008789 0 0 0 0
0.055267334 -0.0099334717 -0.34130859 0 0 0 0
0.057037354 -0.0099334717 -0.34130859 0 0 0 0
0.058624268 -0.0099105835 -0.34008789 0 0 0 0
0.060394287 -0.0099105835 -0.34008789 0 0 0 0
0.062133789 -0.0099105835 -0.34008789 0 0 0 0
0.063903809 -0.0099105835 -0.34008789 0 0 0 0
0.065673828 -0.0099105835 -0.34008789 0 0 0 0
0.067443848 -0.0099105835 -0.34008789 0 0 0 0
0.069152832 -0.0099105835 -0.34008789 0 0 0 0
0.070922852 -0.0099105835 -0.34008789 0 0 0 0
0.072692871 -0.0099105835 -0.34008789 0 0 0 0
0.074462891 -0.0099105835 -0.34008789 0 0 0 0
0.076477051 -0.0099334717 -0.34130859 0 0 0 0
0.07824707 -0.0099334717 -0.34130859 0 0 0 0
0.08001709 -0.0099334717 -0.34130859 0 0 0 0
0.081726074 -0.0099334717 -0.34130859 0 0 0 0
0.083496094 -0.0099334717 -0.34130859 0 0 0 0
0.085266113 -0.0099334717 -0.34130859 0 0 0 0
0.087036133 -0.0099334717 -0.34130859 0 0 0 0
0.088806152 -0.0099334717 -0.34130859 0 0 0 0
0.090576172 -0.0099334717 -0.34130859 0 0 0 0
0.092346191 -0.0099334717 -0.34130859 0 0 0 0
0.094116211 -0.0099334717 -0.34130859 0 0 0 0
0.09588623 -0.0099334717 -0.34130859 0 0 0 0
0.09765625 -0.0099334717 -0.34130859 0 0 0 0
0.09942627 -0.0099334717 -0.34130859 0 0 0 0
0.10119629 -0.0099334717 -0.34130859 0 0 0 0
0.10296631 -0.0099334717 -0.34130859 0 0 0 0
0.10473633 -0.0099334717 -0.34130859 0 0 0 0
0.10650635 -0.0099334717 -0.34130859 0 0 0 0
0.10827637 -0.0099334717 -0.34130859 0 0 0 0
0.11004639 -0.0099334717 -0.34130859 0 0 0 0
0.11181641 -0.0099334717 -0.34130859 0 0 0 0
0.11358643 -0.0099334717 -0.34130859 0 0 0 0
0.11535645 -0.0099334717 -0.34130859 0 0 0 0
0.11712646 -0.0099334717 -0.34130859 0 0 0 0
0.11889648 -0.0099334717 -0.34130859 0 0 0 0
0.1206665 -0.0099334717 -0.34130859 0 0 0 0
0.12243652 -0.0099334717 -0.34130859 0 0 0 0
0.12414551 -0.0099334717 -0.34130859 0 0 0 0
0.12585449 -0.0099334717 -0.34130859 0 0 0 0
0.12768555 -0.0099334717 -0.34130859 0 0 0 0
0.12939453 -0.0099334717 -0.34130859 0 0 0 0
0.13122559 -0.0099334717 -0.34130859 0 0 0 0
0.13293457 -0.0099334717 -0.34130859 0 0 0 0
0.13476562 -0.0099334717 -0.34130859 0 0 0 0
0.13647461 -0.0099334717 -0.34130859 0 0 0 0
0.13830566 -0.0099334717 -0.34130859 0 0 0 0
0.14001465 -0.0099334717 -0.34130859 0 0 0 0
0.14221191 -0.0099639893 -0.34228516 0 0 0 0
0.14404297 -0.0099639893 -0.34228516 0 0 0 0
0.14575195 -0.0099639893 -0.34228516 0 0 0 0
-0.06036377 -0.01222229 -0.35620117 0 0 0 0
-0.058532715 -0.01222229 -0.35620117 0 0 0 0
-0.05670166 -0.01222229 -0.35620117 0 0 0 0
-0.054840088 -0.01222229 -0.35620117 0 0 0 0
-0.052856445 -0.012184143 -0.35522461 0 0 0 0
-0.050994873 -0.012184143 -0.35522461 0 0 0 0
-0.049163818 -0.012184143 -0.35522461 0 0 0 0
-0.047180176 -0.012153625 -0.35424805 0 0 0 0
-0.045349121 -0.012153625 -0.35424805 0 0 0 0
-0.043395996 -0.012115479 -0.35327148 0 0 0 0
-0.041442871 -0.012084961 -0.35229492 0 0 0 0
-0.039611816 -0.012084961 -0.35229492 0 0 0 0
-0.037689209 -0.012046814 -0.35131836 0 0 0 0
-0.035888672 -0.012046814 -0.35131836 0 0 0 0
-0.033966064 -0.012016296 -0.3503418 0 0 0 0
-0.030075073 -0.012672424 -0.36938477 0 0 0 0
-0.028091431 -0.012634277 -0.3684082 0 0 0 0
-0.026184082 -0.012634277 -0.3684082 0 0 0 0
-0.024276733 -0.012634277 -0.3684082 0 0 0 0
-0.02230835 -0.01259613 -0.36743164 0 0 0 0
-0.020401001 -0.01259613 -0.36743164 0 0 0 0
-0.018554688 -0.012634277 -0.3684082 0 0 0 0
-0.016647339 -0.012634277 -0.3684082 0 0 0 0
-0.014778137 -0.012672424 -0.36938477 0 0 0 0
-0.012931824 -0.012741089 -0.37133789 0 0 0 0
-0.011070251 -0.012809753 -0.37329102 0 0 0 0
-0.0091629028 -0.012840271 -0.37426758 0 0 0 0
-0.0072631836 -0.012908936 -0.37646484 0 0 0 0
-0.0053405762 -0.0129776 -0.37841797 0 0 0 0
-0.0033912659 -0.013015747 -0.37939453 0 0 0 0
-0.0014305115 -0.013046265 -0.38037109 0 0 0 0
0.00053882599 -0.013046265 -0.38037109 0 0 0 0
0.0025024414 -0.013015747 -0.37939453 0 0 0 0
0.0044555664 -0.0129776 -0.37841797 0 0 0 0
0.0063972473 -0.012947083 -0.37744141 0 0 0 0
0.0083236694 -0.012908936 -0.37646484 0 0 0 0
0.010246277 -0.012878418 -0.37524414 0 0 0 0
0.012161255 -0.012840271 -0.37426758 0 0 0 0
0.014060974 -0.012809753 -0.37329102 0 0 0 0
0.015991211 -0.012809753 -0.37329102 0 0 0 0
0.017883301 -0.012771606 -0.37231445 0 0 0 0
0.019805908 -0.012771606 -0.37231445 0 0 0 0
0.021682739 -0.012741089 -0.37133789 0 0 0 0
0.023605347 -0.012741089 -0.37133789 0 0 0 0
0.025527954 -0.012741089 -0.37133789 0 0 0 0
0.053497314 -0.011703491 -0.34130859 0 0 0 0
0.055267334 -0.011703491 -0.34130859 0 0 0 0
0.057037354 -0.011703491 -0.34130859 0 0 0 0
0.058807373 -0.011703491 -0.34130859 0 0 0 0
0.060546875 -0.011703491 -0.34130859 0 0 0 0
0.062316895 -0.011703491 -0.34130859 0 0 0 0
0.063903809 -0.011672974 -0.34008789 0 0 0 0
0.065673828 -0.011672974 -0.34008789 0 0 0 0
0.067443848 -0.011672974 -0.34008789 0 0 0 0
0.069152832 -0.011672974 -0.34008789 0 0 0 0
0.070922852 -0.011672974 -0.34008789 0 0 0 0
0.072692871 -0.011672974 -0.34008789 0 0 0 0
0.074707031 -0.011703491 -0.34130859 0 0 0 0
0.076477051 -0.011703491 -0.34130859 0 0 0 0
0.07824707 -0.011703491 -0.34130859 0 0 0 0
0.08001709 -0.011703491 -0.34130859 0 0 0 0
0.081726074 -0.011703491 -0.34130859 0 0 0 0
0.083496094 -0.011703491 -0.34130859 0 0 0 0
0.085266113 -0.011703491 -0.34130859 0 0 0 0
0.087036133 -0.011703491 -0.34130859 0 0 0 0
0.088806152 -0.011703491 -0.34130859 0 0 0 0
0.090576172 -0.011703491 -0.34130859 0 0 0 0
0.092346191 -0.011703491 -0.34130859 0 0 0 0
0.094116211 -0.011703491 -0.34130859 0 0 0 0
0.09588623 -0.011703491 -0.34130859 0 0 0 0
0.09765625 -0.011703491 -0.34130859 0 0 0 0
0.09942627 -0.011703491 -0.34130859 0 0 0 0
0.10119629 -0.011703491 -0.34130859 0 0 0 0
0.10296631 -0.011703491 -0.34130859 0 0 0 0
0.10473633 -0.011703491 -0.34130859 0 0 0 0
0.10650635 -0.011703491 -0.34130859 0 0 0 0
0.10858154 -0.011741638 -0.34228516 0 0 0 0
0.11004639 -0.011703491 -0.34130859 0 0 0 0
0.11181641 -0.011703491 -0.34130859 0 0 0 0
0.11358643 -0.011703491 -0.34130859 0 0 0 0
0.11535645 -0.011703491 -0.34130859 0 0 0 0
0.11712646 -0.011703491 -0.34130859 0 0 0 0
0.11889648 -0.011703491 -0.34130859 0 0 0 0
0.1206665 -0.011703491 -0.34130859 0 0 0 0
0.12243652 -0.011703491 -0.34130859 0 0 0 0
0.12414551 -0.011703491 -0.34130859 0 0 0 0
0.12585449 -0.011703491 -0.34130859 0 0 0 0
0.12768555 -0.011703491 -0.34130859 0 0 0 0
0.12939453 -0.011703491 -0.34130859 0 0 0 0
0.13122559 -0.011703491 -0.34130859 0 0 0 0
0.13293457 -0.011703491 -0.34130859 0 0 0 0
0.13476562 -0.011703491 -0.34130859 0 0 0 0
0.13647461 -0.011703491 -0.34130859 0 0 0 0
0.13830566 -0.011703491 -0.34130859 0 0 0 0
0.14050293 -0.011741638 -0.34228516 0 0 0 0
0.14221191 -0.011741638 -0.34228516 0 0 0 0
0.14404297 -0.011741638 -0.34228516 0 0 0 0
0.14575195 -0.011741638 -0.34228516 0 0 0 0
0.14794922 -0.011772156 -0.34326172 0 0 0 0
-0.06036377 -0.014068604 -0.35620117 0 0 0 0
-0.058532715 -0.014068604 -0.35620117 0 0 0 0
-0.05670166 -0.014068604 -0.35620117 0 0 0 0
-0.054840088 -0.014068604 -0.35620117 0 0 0 0
-0.052856445 -0.014030457 -0.35522461 0 0 0 0
-0.050994873 -0.014030457 -0.35522461 0 0 0 0
-0.049163818 -0.014030457 -0.35522461 0 0 0 0
-0.047180176 -0.01398468 -0.35424805 0 0 0 0
-0.045349121 -0.01398468 -0.35424805 0 0 0 0
-0.043395996 -0.013946533 -0.35327148 0 0 0 0
-0.041442871 -0.013908386 -0.35229492 0 0 0 0
-0.039611816 -0.013908386 -0.35229492 0 0 0 0
-0.037689209 -0.013870239 -0.35131836 0 0 0 0
-0.035888672 -0.013870239 -0.35131836 0 0 0 0
-0.033966064 -0.013832092 -0.3503418 0 0 0 0
-0.03213501 -0.013832092 -0.3503418 0 0 0 0
-0.030075073 -0.014579773 -0.36938477 0 0 0 0
-0.028091431 -0.014541626 -0.3684082 0 0 0 0
-0.026184082 -0.014541626 -0.3684082 0 0 0 0
-0.024276733 -0.014541626 -0.3684082 0 0 0 0
-0.022369385 -0.014541626 -0.3684082 0 0 0 0
-0.020462036 -0.014541626 -0.3684082 0 0 0 0
-0.018554688 -0.014541626 -0.3684082 0 0 0 0
-0.016693115 -0.014579773 -0.36938477 0 0 0 0
-0.014778137 -0.014579773 -0.36938477 0 0 0 0
-0.012931824 -0.014663696 -0.37133789 0 0 0 0
-0.011039734 -0.014701843 -0.37231445 0 0 0 0
-0.0091629028 -0.014778137 -0.37426758 0 0 0 0
-0.0072631836 -0.014862061 -0.37646484 0 0 0 0
-0.0053253174 -0.014900208 -0.37744141 0 0 0 0
-0.0033817291 -0.014938354 -0.37841797 0 0 0 0
-0.0014266968 -0.014976501 -0.37939453 0 0 0 0
0.00053739548 -0.014976501 -0.37939453 0 0 0 0
0.002494812 -0.014938354 -0.37841797 0 0 0 0
0.0044555664 -0.014938354 -0.37841797 0 0 0 0
0.0063972473 -0.014900208 -0.37744141 0 0 0 0
0.0083236694 -0.014862061 -0.37646484 0 0 0 0
0.010246277 -0.014816284 -0.37524414 0 0 0 0
0.012161255 -0.014778137 -0.37426758 0 0 0 0
0.014099121 -0.014778137 -0.37426758 0 0 0 0
0.015991211 -0.01473999 -0.37329102 0 0 0 0
0.017929077 -0.01473999 -0.37329102 0 0 0 0
0.019805908 -0.014701843 -0.37231445 0 0 0 0
0.021728516 -0.014701843 -0.37231445 0 0 0 0
0.023666382 -0.014701843 -0.37231445 0 0 0 0
0.025588989 -0.014701843 -0.37231445 0 0 0 0
0.053497314 -0.013473511 -0.34130859 0 0 0 0
0.055267334 -0.013473511 -0.34130859 0 0 0 0
0.057037354 -0.013473511 -0.34130859 0 0 0 0
0.058807373 -0.013473511 -0.34130859 0 0 0 0
0.060546875 -0.013473511 -0.34130859 0 0 0 0
0.062316895 -0.013473511 -0.34130859 0 0 0 0
0.064086914 -0.013473511 -0.34130859 0 0 0 0
0.065673828 -0.013435364 -0.34008789 0 0 0 0
0.067443848 -0.013435364 -0.34008789 0 0 0 0
0.069152832 -0.013435364 -0.34008789 0 0 0 0
0.070922852 -0.013435364 -0.34008789 0 0 0 0
0.072937012 -0.013473511 -0.34130859 0 0 0 0
0.074707031 -0.013473511 -0.34130859 0 0 0 0
0.076477051 -0.013473511 -0.34130859 0 0 0 0
0.07824707 -0.013473511 -0.34130859 0 0 0 0
0.08001709 -0.013473511 -0.34130859 0 0 0 0
0.081726074 -0.013473511 -0.34130859 0 0 0 0
0.083496094 -0.013473511 -0.34130859 0 0 0 0
0.085266113 -0.013473511 -0.34130859 0 0 0 0
0.087036133 -0.013473511 -0.34130859 0 0 0 0
0.088806152 -0.013473511 -0.34130859 0 0 0 0
0.090576172 -0.013473511 -0.34130859 0 0 0 0
0.092346191 -0.013473511 -0.34130859 0 0 0 0
0.094116211 -0.013473511 -0.34130859 0 0 0 0
0.09588623 -0.013473511 -0.34130859 0 0 0 0
0.09765625 -0.013473511 -0.34130859 0 0 0 0
0.099731445 -0.013511658 -0.34228516 0 0 0 0
0.10150146 -0.013511658 -0.34228516 0 0 0 0
0.10327148 -0.013511658 -0.34228516 0 0 0 0
