ply
format ascii 1.0
comment PCL generated
element vertex 1086
property float x
property float y
property float z
property float nx
property float ny
property float nz
property float curvature
element face 0
element camera 0
property float view_px
property float view_py
property float view_pz
property float x_axisx
property float x_axisy
property float x_axisz
property float y_axisx
property float y_axisy
property float y_axisz
property float z_axisx
property float z_axisy
property float z_axisz
property float focal
property float scalex
property float scaley
property float centerx
property float centery
property int viewportx
property int viewporty
property float k1
property float k2
end_header
0.12286377 -0.091247559 -0.31103516 0 0 0 0
0.12451172 -0.091247559 -0.31103516 0 0 0 0
0.12646484 -0.091491699 -0.31201172 0 0 0 0
0.12805176 -0.091491699 -0.31201172 0 0 0 0
0.13012695 -0.091796875 -0.31298828 0 0 0 0
0.13171387 -0.091796875 -0.31298828 0 0 0 0
0.13378906 -0.092102051 -0.31420898 0 0 0 0
0.13537598 -0.092102051 -0.31420898 0 0 0 0
0.14709473 -0.097717285 -0.33325195 0 0 0 0
0.14880371 -0.097717285 -0.33325195 0 0 0 0
0.1505127 -0.097717285 -0.33325195 0 0 0 0
0.15234375 -0.097717285 -0.33325195 0 0 0 0
0.15356445 -0.097412109 -0.33227539 0 0 0 0
0.15527344 -0.097412109 -0.33227539 0 0 0 0
0.15649414 -0.097106934 -0.33105469 0 0 0 0
0.15820312 -0.097106934 -0.33105469 0 0 0 0
0.15991211 -0.097106934 -0.33105469 0 0 0 0
0.16113281 -0.096801758 -0.33007812 0 0 0 0
0.1628418 -0.096801758 -0.33007812 0 0 0 0
0.047637939 -0.10449219 -0.3503418 0 0 0 0
0.049468994 -0.10449219 -0.3503418 0 0 0 0
0.051269531 -0.10449219 -0.3503418 0 0 0 0
0.053100586 -0.10449219 -0.3503418 0 0 0 0
0.054901123 -0.10449219 -0.3503418 0 0 0 0
0.056549072 -0.10418701 -0.34912109 0 0 0 0
0.058380127 -0.10418701 -0.34912109 0 0 0 0
0.060180664 -0.10418701 -0.34912109 0 0 0 0
0.061981201 -0.10418701 -0.34912109 0 0 0 0
0.063781738 -0.10418701 -0.34912109 0 0 0 0
0.065429688 -0.10394287 -0.34814453 0 0 0 0
0.067199707 -0.10394287 -0.34814453 0 0 0 0
0.069030762 -0.10394287 -0.34814453 0 0 0 0
0.070800781 -0.10394287 -0.34814453 0 0 0 0
0.072631836 -0.10394287 -0.34814453 0 0 0 0
0.074401855 -0.10394287 -0.34814453 0 0 0 0
0.07623291 -0.10394287 -0.34814453 0 0 0 0
0.07800293 -0.10394287 -0.34814453 0 0 0 0
0.079833984 -0.10394287 -0.34814453 0 0 0 0
0.081665039 -0.10394287 -0.34814453 0 0 0 0
0.083435059 -0.10394287 -0.34814453 0 0 0 0
0.085266113 -0.10394287 -0.34814453 0 0 0 0
0.087036133 -0.10394287 -0.34814453 0 0 0 0
0.088867188 -0.10394287 -0.34814453 0 0 0 0
0.090637207 -0.10394287 -0.34814453 0 0 0 0
0.092468262 -0.10394287 -0.34814453 0 0 0 0
0.094238281 -0.10394287 -0.34814453 0 0 0 0
0.096069336 -0.10394287 -0.34814453 0 0 0 0
0.097900391 -0.10394287 -0.34814453 0 0 0 0
0.09967041 -0.10394287 -0.34814453 0 0 0 0
0.10150146 -0.10394287 -0.34814453 0 0 0 0
0.10327148 -0.10394287 -0.34814453 0 0 0 0
0.10510254 -0.10394287 -0.34814453 0 0 0 0
0.10119629 -0.090759277 -0.30395508 0 0 0 0
0.10211182 -0.090148926 -0.30200195 0 0 0 0
0.10369873 -0.090148926 -0.30200195 0 0 0 0
0.10522461 -0.090148926 -0.30200195 0 0 0 0
0.10681152 -0.090148926 -0.30200195 0 0 0 0
0.10803223 -0.08984375 -0.30102539 0 0 0 0
0.10882568 -0.089233398 -0.29907227 0 0 0 0
0.10998535 -0.088928223 -0.2980957 0 0 0 0
0.11608887 -0.092529297 -0.31005859 0 0 0 0
0.11767578 -0.092529297 -0.31005859 0 0 0 0
0.11968994 -0.092834473 -0.31103516 0 0 0 0
0.12127686 -0.092834473 -0.31103516 0 0 0 0
0.12286377 -0.092834473 -0.31103516 0 0 0 0
0.12451172 -0.092834473 -0.31103516 0 0 0 0
0.12609863 -0.092834473 -0.31103516 0 0 0 0
0.12805176 -0.093139648 -0.31201172 0 0 0 0
0.12976074 -0.093139648 -0.31201172 0 0 0 0
0.13171387 -0.093444824 -0.31298828 0 0 0 0
0.13342285 -0.093444824 -0.31298828 0 0 0 0
0.13537598 -0.09375 -0.31420898 0 0 0 0
0.14709473 -0.09942627 -0.33325195 0 0 0 0
0.14929199 -0.099731445 -0.33422852 0 0 0 0
0.15100098 -0.099731445 -0.33422852 0 0 0 0
0.15234375 -0.09942627 -0.33325195 0 0 0 0
0.15405273 -0.09942627 -0.33325195 0 0 0 0
0.15527344 -0.099121094 -0.33227539 0 0 0 0
0.15698242 -0.099121094 -0.33227539 0 0 0 0
0.15820312 -0.098815918 -0.33105469 0 0 0 0
0.15991211 -0.098815918 -0.33105469 0 0 0 0
0.16113281 -0.098510742 -0.33007812 0 0 0 0
0.047637939 -0.10632324 -0.3503418 0 0 0 0
0.049468994 -0.10632324 -0.3503418 0 0 0 0
0.051269531 -0.10632324 -0.3503418 0 0 0 0
0.053100586 -0.10632324 -0.3503418 0 0 0 0
0.054748535 -0.10601807 -0.34912109 0 0 0 0
0.056549072 -0.10601807 -0.34912109 0 0 0 0
0.058380127 -0.10601807 -0.34912109 0 0 0 0
0.060180664 -0.10601807 -0.34912109 0 0 0 0
0.061981201 -0.10601807 -0.34912109 0 0 0 0
0.063598633 -0.10571289 -0.34814453 0 0 0 0
0.065429688 -0.10571289 -0.34814453 0 0 0 0
0.067199707 -0.10571289 -0.34814453 0 0 0 0
0.069030762 -0.10571289 -0.34814453 0 0 0 0
0.070800781 -0.10571289 -0.34814453 0 0 0 0
0.072631836 -0.10571289 -0.34814453 0 0 0 0
0.074401855 -0.10571289 -0.34814453 0 0 0 0
0.07623291 -0.10571289 -0.34814453 0 0 0 0
0.07800293 -0.10571289 -0.34814453 0 0 0 0
0.079833984 -0.10571289 -0.34814453 0 0 0 0
0.081665039 -0.10571289 -0.34814453 0 0 0 0
0.083435059 -0.10571289 -0.34814453 0 0 0 0
0.085266113 -0.10571289 -0.34814453 0 0 0 0
0.087036133 -0.10571289 -0.34814453 0 0 0 0
0.088867188 -0.10571289 -0.34814453 0 0 0 0
0.090637207 -0.10571289 -0.34814453 0 0 0 0
0.092468262 -0.10571289 -0.34814453 0 0 0 0
0.094238281 -0.10571289 -0.34814453 0 0 0 0
0.096069336 -0.10571289 -0.34814453 0 0 0 0
0.097900391 -0.10571289 -0.34814453 0 0 0 0
0.09967041 -0.10571289 -0.34814453 0 0 0 0
0.10150146 -0.10571289 -0.34814453 0 0 0 0
0.10327148 -0.10571289 -0.34814453 0 0 0 0
0.10510254 -0.10571289 -0.34814453 0 0 0 0
0.10687256 -0.10571289 -0.34814453 0 0 0 0
0.10174561 -0.091369629 -0.30102539 0 0 0 0
0.10333252 -0.091369629 -0.30102539 0 0 0 0
0.10455322 -0.091064453 -0.30004883 0 0 0 0
0.1060791 -0.091064453 -0.30004883 0 0 0 0
0.1072998 -0.090759277 -0.29907227 0 0 0 0
0.10845947 -0.090454102 -0.2980957 0 0 0 0
0.10961914 -0.090148926 -0.29711914 0 0 0 0
0.11077881 -0.08984375 -0.29614258 0 0 0 0
0.11804199 -0.094421387 -0.31103516 0 0 0 0
0.11968994 -0.094421387 -0.31103516 0 0 0 0
0.12127686 -0.094421387 -0.31103516 0 0 0 0
0.12286377 -0.094421387 -0.31103516 0 0 0 0
0.12451172 -0.094421387 -0.31103516 0 0 0 0
0.12609863 -0.094421387 -0.31103516 0 0 0 0
0.12805176 -0.094726562 -0.31201172 0 0 0 0
0.12976074 -0.094726562 -0.31201172 0 0 0 0
0.13171387 -0.095031738 -0.31298828 0 0 0 0
0.13342285 -0.095031738 -0.31298828 0 0 0 0
0.13500977 -0.095031738 -0.31298828 0 0 0 0
0.14929199 -0.10144043 -0.33422852 0 0 0 0
0.15100098 -0.10144043 -0.33422852 0 0 0 0
0.15270996 -0.10144043 -0.33422852 0 0 0 0
0.15405273 -0.10113525 -0.33325195 0 0 0 0
0.15527344 -0.10083008 -0.33227539 0 0 0 0
0.15698242 -0.10083008 -0.33227539 0 0 0 0
0.15820312 -0.1005249 -0.33105469 0 0 0 0
0.15991211 -0.1005249 -0.33105469 0 0 0 0
0.16162109 -0.1005249 -0.33105469 0 0 0 0
0.047637939 -0.1081543 -0.3503418 0 0 0 0
0.049468994 -0.1081543 -0.3503418 0 0 0 0
0.051147461 -0.10784912 -0.34912109 0 0 0 0
0.052947998 -0.10784912 -0.34912109 0 0 0 0
0.054748535 -0.10784912 -0.34912109 0 0 0 0
0.056549072 -0.10784912 -0.34912109 0 0 0 0
0.058380127 -0.10784912 -0.34912109 0 0 0 0
0.060180664 -0.10784912 -0.34912109 0 0 0 0
0.061798096 -0.10754395 -0.34814453 0 0 0 0
0.063598633 -0.10754395 -0.34814453 0 0 0 0
0.065429688 -0.10754395 -0.34814453 0 0 0 0
0.067199707 -0.10754395 -0.34814453 0 0 0 0
0.069030762 -0.10754395 -0.34814453 0 0 0 0
0.070800781 -0.10754395 -0.34814453 0 0 0 0
0.072631836 -0.10754395 -0.34814453 0 0 0 0
0.074401855 -0.10754395 -0.34814453 0 0 0 0
0.07623291 -0.10754395 -0.34814453 0 0 0 0
0.07800293 -0.10754395 -0.34814453 0 0 0 0
0.079833984 -0.10754395 -0.34814453 0 0 0 0
0.081665039 -0.10754395 -0.34814453 0 0 0 0
0.083435059 -0.10754395 -0.34814453 0 0 0 0
0.085266113 -0.10754395 -0.34814453 0 0 0 0
0.087036133 -0.10754395 -0.34814453 0 0 0 0
0.088867188 -0.10754395 -0.34814453 0 0 0 0
0.090637207 -0.10754395 -0.34814453 0 0 0 0
0.092468262 -0.10754395 -0.34814453 0 0 0 0
0.094238281 -0.10754395 -0.34814453 0 0 0 0
0.096069336 -0.10754395 -0.34814453 0 0 0 0
0.097900391 -0.10754395 -0.34814453 0 0 0 0
0.09967041 -0.10754395 -0.34814453 0 0 0 0
0.10150146 -0.10754395 -0.34814453 0 0 0 0
0.10327148 -0.10754395 -0.34814453 0 0 0 0
0.10510254 -0.10754395 -0.34814453 0 0 0 0
0.10656738 -0.10723877 -0.34716797 0 0 0 0
0.099853516 -0.092651367 -0.30004883 0 0 0 0
0.10144043 -0.092651367 -0.30004883 0 0 0 0
0.10266113 -0.092346191 -0.29907227 0 0 0 0
0.10418701 -0.092346191 -0.29907227 0 0 0 0
0.10540771 -0.092041016 -0.2980957 0 0 0 0
0.10693359 -0.092041016 -0.2980957 0 0 0 0
0.10772705 -0.091430664 -0.29614258 0 0 0 0
0.10925293 -0.091430664 -0.29614258 0 0 0 0
0.1104126 -0.091064453 -0.29492188 0 0 0 0
0.11157227 -0.090759277 -0.29394531 0 0 0 0
0.11309814 -0.090759277 -0.29394531 0 0 0 0
0.12127686 -0.096069336 -0.31103516 0 0 0 0
0.12286377 -0.096069336 -0.31103516 0 0 0 0
0.12451172 -0.096069336 -0.31103516 0 0 0 0
0.12609863 -0.096069336 -0.31103516 0 0 0 0
0.12768555 -0.096069336 -0.31103516 0 0 0 0
0.12976074 -0.096374512 -0.31201172 0 0 0 0
0.13134766 -0.096374512 -0.31201172 0 0 0 0
0.13342285 -0.096679688 -0.31298828 0 0 0 0
0.13500977 -0.096679688 -0.31298828 0 0 0 0
0.15100098 -0.10321045 -0.33422852 0 0 0 0
0.15270996 -0.10321045 -0.33422852 0 0 0 0
0.15405273 -0.10284424 -0.33325195 0 0 0 0
0.15576172 -0.10284424 -0.33325195 0 0 0 0
0.15698242 -0.10253906 -0.33227539 0 0 0 0
0.15869141 -0.10253906 -0.33227539 0 0 0 0
0.047515869 -0.10961914 -0.34912109 0 0 0 0
0.049316406 -0.10961914 -0.34912109 0 0 0 0
0.051147461 -0.10961914 -0.34912109 0 0 0 0
0.052947998 -0.10961914 -0.34912109 0 0 0 0
0.054748535 -0.10961914 -0.34912109 0 0 0 0
0.056549072 -0.10961914 -0.34912109 0 0 0 0
0.058197021 -0.10931396 -0.34814453 0 0 0 0
0.059997559 -0.10931396 -0.34814453 0 0 0 0
0.061798096 -0.10931396 -0.34814453 0 0 0 0
0.063598633 -0.10931396 -0.34814453 0 0 0 0
0.065429688 -0.10931396 -0.34814453 0 0 0 0
0.067199707 -0.10931396 -0.34814453 0 0 0 0
0.069030762 -0.10931396 -0.34814453 0 0 0 0
0.070800781 -0.10931396 -0.34814453 0 0 0 0
0.072631836 -0.10931396 -0.34814453 0 0 0 0
0.074401855 -0.10931396 -0.34814453 0 0 0 0
0.07623291 -0.10931396 -0.34814453 0 0 0 0
0.07800293 -0.10931396 -0.34814453 0 0 0 0
0.079833984 -0.10931396 -0.34814453 0 0 0 0
0.081665039 -0.10931396 -0.34814453 0 0 0 0
0.083435059 -0.10931396 -0.34814453 0 0 0 0
0.085266113 -0.10931396 -0.34814453 0 0 0 0
0.087036133 -0.10931396 -0.34814453 0 0 0 0
0.088867188 -0.10931396 -0.34814453 0 0 0 0
0.090637207 -0.10931396 -0.34814453 0 0 0 0
0.092468262 -0.10931396 -0.34814453 0 0 0 0
0.094238281 -0.10931396 -0.34814453 0 0 0 0
0.09576416 -0.10900879 -0.34716797 0 0 0 0
0.097595215 -0.10900879 -0.34716797 0 0 0 0
0.099365234 -0.10900879 -0.34716797 0 0 0 0
0.10119629 -0.10900879 -0.34716797 0 0 0 0
0.10296631 -0.10900879 -0.34716797 0 0 0 0
0.10479736 -0.10900879 -0.34716797 0 0 0 0
0.10656738 -0.10900879 -0.34716797 0 0 0 0
0.10107422 -0.09387207 -0.29907227 0 0 0 0
0.10229492 -0.093566895 -0.2980957 0 0 0 0
0.10345459 -0.093261719 -0.29711914 0 0 0 0
0.1050415 -0.093261719 -0.29711914 0 0 0 0
0.10620117 -0.092956543 -0.29614258 0 0 0 0
0.10736084 -0.092651367 -0.29492188 0 0 0 0
0.10888672 -0.092651367 -0.29492188 0 0 0 0
0.11004639 -0.092285156 -0.29394531 0 0 0 0
0.11157227 -0.092285156 -0.29394531 0 0 0 0
0.11309814 -0.092285156 -0.29394531 0 0 0 0
0.11425781 -0.09197998 -0.29296875 0 0 0 0
0.12249756 -0.097351074 -0.31005859 0 0 0 0
0.12451172 -0.09765625 -0.31103516 0 0 0 0
0.12609863 -0.09765625 -0.31103516 0 0 0 0
0.12768555 -0.09765625 -0.31103516 0 0 0 0
0.12976074 -0.097961426 -0.31201172 0 0 0 0
0.13134766 -0.097961426 -0.31201172 0 0 0 0
0.13342285 -0.098266602 -0.31298828 0 0 0 0
0.045715332 -0.1114502 -0.34912109 0 0 0 0
0.047515869 -0.1114502 -0.34912109 0 0 0 0
0.049316406 -0.1114502 -0.34912109 0 0 0 0
0.051147461 -0.1114502 -0.34912109 0 0 0 0
0.052947998 -0.1114502 -0.34912109 0 0 0 0
0.054595947 -0.11114502 -0.34814453 0 0 0 0
0.056396484 -0.11114502 -0.34814453 0 0 0 0
0.058197021 -0.11114502 -0.34814453 0 0 0 0
0.059997559 -0.11114502 -0.34814453 0 0 0 0
0.061798096 -0.11114502 -0.34814453 0 0 0 0
0.063598633 -0.11114502 -0.34814453 0 0 0 0
0.065429688 -0.11114502 -0.34814453 0 0 0 0
0.067199707 -0.11114502 -0.34814453 0 0 0 0
0.069030762 -0.11114502 -0.34814453 0 0 0 0
0.070800781 -0.11114502 -0.34814453 0 0 0 0
0.072631836 -0.11114502 -0.34814453 0 0 0 0
0.074401855 -0.11114502 -0.34814453 0 0 0 0
0.07623291 -0.11114502 -0.34814453 0 0 0 0
0.07800293 -0.11114502 -0.34814453 0 0 0 0
0.079833984 -0.11114502 -0.34814453 0 0 0 0
0.081420898 -0.11077881 -0.34716797 0 0 0 0
0.083190918 -0.11077881 -0.34716797 0 0 0 0
0.085021973 -0.11077881 -0.34716797 0 0 0 0
0.086791992 -0.11077881 -0.34716797 0 0 0 0
0.088623047 -0.11077881 -0.34716797 0 0 0 0
0.090393066 -0.11077881 -0.34716797 0 0 0 0
0.092163086 -0.11077881 -0.34716797 0 0 0 0
0.093994141 -0.11077881 -0.34716797 0 0 0 0
0.09576416 -0.11077881 -0.34716797 0 0 0 0
0.097595215 -0.11077881 -0.34716797 0 0 0 0
0.099365234 -0.11077881 -0.34716797 0 0 0 0
0.10119629 -0.11077881 -0.34716797 0 0 0 0
0.10296631 -0.11077881 -0.34716797 0 0 0 0
0.10479736 -0.11077881 -0.34716797 0 0 0 0
0.10656738 -0.11077881 -0.34716797 0 0 0 0
0.10076904 -0.095092773 -0.2980957 0 0 0 0
0.10192871 -0.094787598 -0.29711914 0 0 0 0
0.10314941 -0.094482422 -0.29614258 0 0 0 0
0.10467529 -0.094482422 -0.29614258 0 0 0 0
0.10583496 -0.094177246 -0.29492188 0 0 0 0
0.10699463 -0.093811035 -0.29394531 0 0 0 0
0.10852051 -0.093811035 -0.29394531 0 0 0 0
0.10968018 -0.093505859 -0.29296875 0 0 0 0
0.11120605 -0.093505859 -0.29296875 0 0 0 0
0.11273193 -0.093505859 -0.29296875 0 0 0 0
0.11425781 -0.093505859 -0.29296875 0 0 0 0
0.11535645 -0.093200684 -0.29199219 0 0 0 0
0.11724854 -0.093505859 -0.29296875 0 0 0 0
0.12609863 -0.099304199 -0.31103516 0 0 0 0
0.12768555 -0.099304199 -0.31103516 0 0 0 0
0.12976074 -0.099609375 -0.31201172 0 0 0 0
0.13134766 -0.099609375 -0.31201172 0 0 0 0
0.045715332 -0.11328125 -0.34912109 0 0 0 0
0.047515869 -0.11328125 -0.34912109 0 0 0 0
0.049316406 -0.11328125 -0.34912109 0 0 0 0
0.050994873 -0.11291504 -0.34814453 0 0 0 0
0.05279541 -0.11291504 -0.34814453 0 0 0 0
0.054595947 -0.11291504 -0.34814453 0 0 0 0
0.056396484 -0.11291504 -0.34814453 0 0 0 0
0.058197021 -0.11291504 -0.34814453 0 0 0 0
0.059997559 -0.11291504 -0.34814453 0 0 0 0
0.061798096 -0.11291504 -0.34814453 0 0 0 0
0.063598633 -0.11291504 -0.34814453 0 0 0 0
0.065429688 -0.11291504 -0.34814453 0 0 0 0
0.067199707 -0.11291504 -0.34814453 0 0 0 0
0.069030762 -0.11291504 -0.34814453 0 0 0 0
0.070800781 -0.11291504 -0.34814453 0 0 0 0
0.072387695 -0.11260986 -0.34716797 0 0 0 0
0.07421875 -0.11260986 -0.34716797 0 0 0 0
0.07598877 -0.11260986 -0.34716797 0 0 0 0
0.077819824 -0.11260986 -0.34716797 0 0 0 0
0.079589844 -0.11260986 -0.34716797 0 0 0 0
0.081420898 -0.11260986 -0.34716797 0 0 0 0
0.083190918 -0.11260986 -0.34716797 0 0 0 0
0.085021973 -0.11260986 -0.34716797 0 0 0 0
0.086791992 -0.11260986 -0.34716797 0 0 0 0
0.088623047 -0.11260986 -0.34716797 0 0 0 0
0.090393066 -0.11260986 -0.34716797 0 0 0 0
0.092163086 -0.11260986 -0.34716797 0 0 0 0
0.093994141 -0.11260986 -0.34716797 0 0 0 0
0.09576416 -0.11260986 -0.34716797 0 0 0 0
0.097595215 -0.11260986 -0.34716797 0 0 0 0
0.099365234 -0.11260986 -0.34716797 0 0 0 0
0.10119629 -0.11260986 -0.34716797 0 0 0 0
0.10296631 -0.11260986 -0.34716797 0 0 0 0
0.10479736 -0.11260986 -0.34716797 0 0 0 0
0.10656738 -0.11260986 -0.34716797 0 0 0 0
0.10040283 -0.096313477 -0.29711914 0 0 0 0
0.10162354 -0.096008301 -0.29614258 0 0 0 0
0.1027832 -0.095703125 -0.29492188 0 0 0 0
0.10430908 -0.095703125 -0.29492188 0 0 0 0
0.10546875 -0.095336914 -0.29394531 0 0 0 0
0.10662842 -0.095031738 -0.29296875 0 0 0 0
0.1081543 -0.095031738 -0.29296875 0 0 0 0
0.10968018 -0.095031738 -0.29296875 0 0 0 0
0.11083984 -0.094726562 -0.29199219 0 0 0 0
0.11230469 -0.094726562 -0.29199219 0 0 0 0
0.11383057 -0.094726562 -0.29199219 0 0 0 0
0.11535645 -0.094726562 -0.29199219 0 0 0 0
0.11688232 -0.094726562 -0.29199219 0 0 0 0
0.11834717 -0.094726562 -0.29199219 0 0 0 0
0.045562744 -0.11474609 -0.34814453 0 0 0 0
0.047363281 -0.11474609 -0.34814453 0 0 0 0
0.049194336 -0.11474609 -0.34814453 0 0 0 0
0.050994873 -0.11474609 -0.34814453 0 0 0 0
0.05279541 -0.11474609 -0.34814453 0 0 0 0
0.054595947 -0.11474609 -0.34814453 0 0 0 0
0.056396484 -0.11474609 -0.34814453 0 0 0 0
0.058197021 -0.11474609 -0.34814453 0 0 0 0
0.059997559 -0.11474609 -0.34814453 0 0 0 0
0.061798096 -0.11474609 -0.34814453 0 0 0 0
0.063598633 -0.11474609 -0.34814453 0 0 0 0
0.065429688 -0.11474609 -0.34814453 0 0 0 0
0.067016602 -0.11437988 -0.34716797 0 0 0 0
0.068786621 -0.11437988 -0.34716797 0 0 0 0
0.070617676 -0.11437988 -0.34716797 0 0 0 0
0.072387695 -0.11437988 -0.34716797 0 0 0 0
0.07421875 -0.11437988 -0.34716797 0 0 0 0
0.07598877 -0.11437988 -0.34716797 0 0 0 0
0.077819824 -0.11437988 -0.34716797 0 0 0 0
0.079589844 -0.11437988 -0.34716797 0 0 0 0
0.081420898 -0.11437988 -0.34716797 0 0 0 0
0.083190918 -0.11437988 -0.34716797 0 0 0 0
0.085021973 -0.11437988 -0.34716797 0 0 0 0
0.086791992 -0.11437988 -0.34716797 0 0 0 0
0.088623047 -0.11437988 -0.34716797 0 0 0 0
0.090393066 -0.11437988 -0.34716797 0 0 0 0
0.092163086 -0.11437988 -0.34716797 0 0 0 0
0.093994141 -0.11437988 -0.34716797 0 0 0 0
0.09576416 -0.11437988 -0.34716797 0 0 0 0
0.097595215 -0.11437988 -0.34716797 0 0 0 0
0.099365234 -0.11437988 -0.34716797 0 0 0 0
0.10119629 -0.11437988 -0.34716797 0 0 0 0
0.10296631 -0.11437988 -0.34716797 0 0 0 0
0.10479736 -0.11437988 -0.34716797 0 0 0 0
0.10656738 -0.11437988 -0.34716797 0 0 0 0
0.10125732 -0.097229004 -0.29492188 0 0 0 0
0.10241699 -0.096862793 -0.29394531 0 0 0 0
0.10394287 -0.096862793 -0.29394531 0 0 0 0
0.10510254 -0.096557617 -0.29296875 0 0 0 0
0.10662842 -0.096557617 -0.29296875 0 0 0 0
0.10778809 -0.096191406 -0.29199219 0 0 0 0
0.10931396 -0.096191406 -0.29199219 0 0 0 0
0.11083984 -0.096191406 -0.29199219 0 0 0 0
0.11230469 -0.096191406 -0.29199219 0 0 0 0
0.11383057 -0.096191406 -0.29199219 0 0 0 0
0.11535645 -0.096191406 -0.29199219 0 0 0 0
0.11688232 -0.096191406 -0.29199219 0 0 0 0
0.11834717 -0.096191406 -0.29199219 0 0 0 0
0.11987305 -0.096191406 -0.29199219 0 0 0 0
0.045562744 -0.11651611 -0.34814453 0 0 0 0
0.047363281 -0.11651611 -0.34814453 0 0 0 0
0.049194336 -0.11651611 -0.34814453 0 0 0 0
0.050994873 -0.11651611 -0.34814453 0 0 0 0
0.05279541 -0.11651611 -0.34814453 0 0 0 0
0.054595947 -0.11651611 -0.34814453 0 0 0 0
0.056396484 -0.11651611 -0.34814453 0 0 0 0
0.058197021 -0.11651611 -0.34814453 0 0 0 0
0.059844971 -0.11621094 -0.34716797 0 0 0 0
0.061645508 -0.11621094 -0.34716797 0 0 0 0
0.063415527 -0.11621094 -0.34716797 0 0 0 0
0.065185547 -0.11621094 -0.34716797 0 0 0 0
0.067016602 -0.11621094 -0.34716797 0 0 0 0
0.068786621 -0.11621094 -0.34716797 0 0 0 0
0.070617676 -0.11621094 -0.34716797 0 0 0 0
0.072387695 -0.11621094 -0.34716797 0 0 0 0
0.07421875 -0.11621094 -0.34716797 0 0 0 0
0.07598877 -0.11621094 -0.34716797 0 0 0 0
0.077819824 -0.11621094 -0.34716797 0 0 0 0
0.079589844 -0.11621094 -0.34716797 0 0 0 0
0.081420898 -0.11621094 -0.34716797 0 0 0 0
0.083190918 -0.11621094 -0.34716797 0 0 0 0
0.085021973 -0.11621094 -0.34716797 0 0 0 0
0.086791992 -0.11621094 -0.34716797 0 0 0 0
0.088623047 -0.11621094 -0.34716797 0 0 0 0
0.090393066 -0.11621094 -0.34716797 0 0 0 0
0.092163086 -0.11621094 -0.34716797 0 0 0 0
0.093994141 -0.11621094 -0.34716797 0 0 0 0
0.09576416 -0.11621094 -0.34716797 0 0 0 0
0.097595215 -0.11621094 -0.34716797 0 0 0 0
0.099365234 -0.11621094 -0.34716797 0 0 0 0
0.10119629 -0.11621094 -0.34716797 0 0 0 0
0.10296631 -0.11621094 -0.34716797 0 0 0 0
0.10479736 -0.11621094 -0.34716797 0 0 0 0
0.10656738 -0.11621094 -0.34716797 0 0 0 0
0.099365234 -0.098388672 -0.29394531 0 0 0 0
0.10089111 -0.098388672 -0.29394531 0 0 0 0
0.10211182 -0.098083496 -0.29296875 0 0 0 0
0.10357666 -0.098083496 -0.29296875 0 0 0 0
0.10473633 -0.097717285 -0.29199219 0 0 0 0
0.10626221 -0.097717285 -0.29199219 0 0 0 0
0.10742188 -0.097412109 -0.29101562 0 0 0 0
0.10894775 -0.097412109 -0.29101562 0 0 0 0
0.1104126 -0.097412109 -0.29101562 0 0 0 0
0.11193848 -0.097412109 -0.29101562 0 0 0 0
0.11346436 -0.097412109 -0.29101562 0 0 0 0
0.1149292 -0.097412109 -0.29101562 0 0 0 0
0.11688232 -0.097717285 -0.29199219 0 0 0 0
0.11834717 -0.097717285 -0.29199219 0 0 0 0
0.11987305 -0.097717285 -0.29199219 0 0 0 0
0.045562744 -0.11834717 -0.34814453 0 0 0 0
0.047363281 -0.11834717 -0.34814453 0 0 0 0
0.049194336 -0.11834717 -0.34814453 0 0 0 0
0.050994873 -0.11834717 -0.34814453 0 0 0 0
0.05279541 -0.11834717 -0.34814453 0 0 0 0
0.054443359 -0.11798096 -0.34716797 0 0 0 0
0.056243896 -0.11798096 -0.34716797 0 0 0 0
0.058044434 -0.11798096 -0.34716797 0 0 0 0
0.059844971 -0.11798096 -0.34716797 0 0 0 0
0.061645508 -0.11798096 -0.34716797 0 0 0 0
0.063415527 -0.11798096 -0.34716797 0 0 0 0
0.065185547 -0.11798096 -0.34716797 0 0 0 0
0.067016602 -0.11798096 -0.34716797 0 0 0 0
0.068786621 -0.11798096 -0.34716797 0 0 0 0
0.070617676 -0.11798096 -0.34716797 0 0 0 0
0.072387695 -0.11798096 -0.34716797 0 0 0 0
0.07421875 -0.11798096 -0.34716797 0 0 0 0
0.07598877 -0.11798096 -0.34716797 0 0 0 0
0.077819824 -0.11798096 -0.34716797 0 0 0 0
0.079589844 -0.11798096 -0.34716797 0 0 0 0
0.081420898 -0.11798096 -0.34716797 0 0 0 0
0.083190918 -0.11798096 -0.34716797 0 0 0 0
0.085021973 -0.11798096 -0.34716797 0 0 0 0
0.086791992 -0.11798096 -0.34716797 0 0 0 0
0.088623047 -0.11798096 -0.34716797 0 0 0 0
0.090393066 -0.11798096 -0.34716797 0 0 0 0
0.092163086 -0.11798096 -0.34716797 0 0 0 0
0.093994141 -0.11798096 -0.34716797 0 0 0 0
0.09576416 -0.11798096 -0.34716797 0 0 0 0
0.097595215 -0.11798096 -0.34716797 0 0 0 0
0.099365234 -0.11798096 -0.34716797 0 0 0 0
0.10119629 -0.11798096 -0.34716797 0 0 0 0
0.10296631 -0.11798096 -0.34716797 0 0 0 0
0.10479736 -0.11798096 -0.34716797 0 0 0 0
0.10656738 -0.11798096 -0.34716797 0 0 0 0
0.10058594 -0.099609375 -0.29296875 0 0 0 0
0.10211182 -0.099609375 -0.29296875 0 0 0 0
0.10327148 -0.099243164 -0.29199219 0 0 0 0
0.10473633 -0.099243164 -0.29199219 0 0 0 0
0.105896 -0.098876953 -0.29101562 0 0 0 0
0.10742188 -0.098876953 -0.29101562 0 0 0 0
0.10894775 -0.098876953 -0.29101562 0 0 0 0
0.1104126 -0.098876953 -0.29101562 0 0 0 0
0.11193848 -0.098876953 -0.29101562 0 0 0 0
0.11346436 -0.098876953 -0.29101562 0 0 0 0
0.1149292 -0.098876953 -0.29101562 0 0 0 0
0.11645508 -0.098876953 -0.29101562 0 0 0 0
0.11834717 -0.099243164 -0.29199219 0 0 0 0
0.11987305 -0.099243164 -0.29199219 0 0 0 0
0.12139893 -0.099243164 -0.29199219 0 0 0 0
0.043762207 -0.12017822 -0.34814453 0 0 0 0
0.045562744 -0.12017822 -0.34814453 0 0 0 0
0.047363281 -0.12017822 -0.34814453 0 0 0 0
0.049194336 -0.12017822 -0.34814453 0 0 0 0
0.050994873 -0.12017822 -0.34814453 0 0 0 0
0.052642822 -0.11981201 -0.34716797 0 0 0 0
0.054443359 -0.11981201 -0.34716797 0 0 0 0
0.056243896 -0.11981201 -0.34716797 0 0 0 0
0.058044434 -0.11981201 -0.34716797 0 0 0 0
0.059844971 -0.11981201 -0.34716797 0 0 0 0
0.061645508 -0.11981201 -0.34716797 0 0 0 0
0.063415527 -0.11981201 -0.34716797 0 0 0 0
0.065185547 -0.11981201 -0.34716797 0 0 0 0
0.067016602 -0.11981201 -0.34716797 0 0 0 0
0.068786621 -0.11981201 -0.34716797 0 0 0 0
0.070617676 -0.11981201 -0.34716797 0 0 0 0
0.072387695 -0.11981201 -0.34716797 0 0 0 0
0.07421875 -0.11981201 -0.34716797 0 0 0 0
0.07598877 -0.11981201 -0.34716797 0 0 0 0
0.077819824 -0.11981201 -0.34716797 0 0 0 0
0.079589844 -0.11981201 -0.34716797 0 0 0 0
0.081420898 -0.11981201 -0.34716797 0 0 0 0
0.083190918 -0.11981201 -0.34716797 0 0 0 0
0.085021973 -0.11981201 -0.34716797 0 0 0 0
0.086791992 -0.11981201 -0.34716797 0 0 0 0
0.088623047 -0.11981201 -0.34716797 0 0 0 0
0.090393066 -0.11981201 -0.34716797 0 0 0 0
0.092163086 -0.11981201 -0.34716797 0 0 0 0
0.093994141 -0.11981201 -0.34716797 0 0 0 0
0.09576416 -0.11981201 -0.34716797 0 0 0 0
0.097595215 -0.11981201 -0.34716797 0 0 0 0
0.099365234 -0.11981201 -0.34716797 0 0 0 0
0.10119629 -0.11981201 -0.34716797 0 0 0 0
0.10266113 -0.1194458 -0.34619141 0 0 0 0
0.10449219 -0.1194458 -0.34619141 0 0 0 0
0.10626221 -0.1194458 -0.34619141 0 0 0 0
0.10058594 -0.10107422 -0.29296875 0 0 0 0
0.10174561 -0.10076904 -0.29199219 0 0 0 0
0.10327148 -0.10076904 -0.29199219 0 0 0 0
0.10443115 -0.10040283 -0.29101562 0 0 0 0
0.105896 -0.10040283 -0.29101562 0 0 0 0
0.10742188 -0.10040283 -0.29101562 0 0 0 0
0.10852051 -0.10003662 -0.29003906 0 0 0 0
0.11004639 -0.10003662 -0.29003906 0 0 0 0
0.11157227 -0.10003662 -0.29003906 0 0 0 0
0.11303711 -0.10003662 -0.29003906 0 0 0 0
0.1149292 -0.10040283 -0.29101562 0 0 0 0
0.11645508 -0.10040283 -0.29101562 0 0 0 0
0.11798096 -0.10040283 -0.29101562 0 0 0 0
0.11987305 -0.10076904 -0.29199219 0 0 0 0
0.12139893 -0.10076904 -0.29199219 0 0 0 0
0.043762207 -0.12194824 -0.34814453 0 0 0 0
0.045562744 -0.12194824 -0.34814453 0 0 0 0
0.047363281 -0.12194824 -0.34814453 0 0 0 0
0.049194336 -0.12194824 -0.34814453 0 0 0 0
0.050842285 -0.12158203 -0.34716797 0 0 0 0
0.052642822 -0.12158203 -0.34716797 0 0 0 0
0.054443359 -0.12158203 -0.34716797 0 0 0 0
0.056243896 -0.12158203 -0.34716797 0 0 0 0
0.058044434 -0.12158203 -0.34716797 0 0 0 0
0.059844971 -0.12158203 -0.34716797 0 0 0 0
0.061645508 -0.12158203 -0.34716797 0 0 0 0
0.063415527 -0.12158203 -0.34716797 0 0 0 0
0.065185547 -0.12158203 -0.34716797 0 0 0 0
0.067016602 -0.12158203 -0.34716797 0 0 0 0
0.068786621 -0.12158203 -0.34716797 0 0 0 0
0.070617676 -0.12158203 -0.34716797 0 0 0 0
0.072387695 -0.12158203 -0.34716797 0 0 0 0
0.07421875 -0.12158203 -0.34716797 0 0 0 0
0.07598877 -0.12158203 -0.34716797 0 0 0 0
0.077819824 -0.12158203 -0.34716797 0 0 0 0
0.079589844 -0.12158203 -0.34716797 0 0 0 0
0.081420898 -0.12158203 -0.34716797 0 0 0 0
0.083190918 -0.12158203 -0.34716797 0 0 0 0
0.085021973 -0.12158203 -0.34716797 0 0 0 0
0.086791992 -0.12158203 -0.34716797 0 0 0 0
0.088623047 -0.12158203 -0.34716797 0 0 0 0
0.090393066 -0.12158203 -0.34716797 0 0 0 0
0.092163086 -0.12158203 -0.34716797 0 0 0 0
0.093688965 -0.12127686 -0.34619141 0 0 0 0
0.09552002 -0.12127686 -0.34619141 0 0 0 0
0.097290039 -0.12127686 -0.34619141 0 0 0 0
0.099121094 -0.12127686 -0.34619141 0 0 0 0
0.10089111 -0.12127686 -0.34619141 0 0 0 0
0.10266113 -0.12127686 -0.34619141 0 0 0 0
0.10449219 -0.12127686 -0.34619141 0 0 0 0
0.10626221 -0.12127686 -0.34619141 0 0 0 0
0.10021973 -0.10229492 -0.29199219 0 0 0 0
0.10174561 -0.10229492 -0.29199219 0 0 0 0
0.10290527 -0.10192871 -0.29101562 0 0 0 0
0.10443115 -0.10192871 -0.29101562 0 0 0 0
0.105896 -0.10192871 -0.29101562 0 0 0 0
0.10705566 -0.1015625 -0.29003906 0 0 0 0
0.10852051 -0.1015625 -0.29003906 0 0 0 0
0.11004639 -0.1015625 -0.29003906 0 0 0 0
0.11157227 -0.1015625 -0.29003906 0 0 0 0
0.11303711 -0.1015625 -0.29003906 0 0 0 0
0.11456299 -0.1015625 -0.29003906 0 0 0 0
0.11645508 -0.10192871 -0.29101562 0 0 0 0
0.11798096 -0.10192871 -0.29101562 0 0 0 0
0.11950684 -0.10192871 -0.29101562 0 0 0 0
0.043762207 -0.1237793 -0.34814453 0 0 0 0
0.045562744 -0.1237793 -0.34814453 0 0 0 0
0.047363281 -0.1237793 -0.34814453 0 0 0 0
0.049041748 -0.12341309 -0.34716797 0 0 0 0
0.050842285 -0.12341309 -0.34716797 0 0 0 0
0.052642822 -0.12341309 -0.34716797 0 0 0 0
0.054443359 -0.12341309 -0.34716797 0 0 0 0
0.056243896 -0.12341309 -0.34716797 0 0 0 0
0.058044434 -0.12341309 -0.34716797 0 0 0 0
0.059844971 -0.12341309 -0.34716797 0 0 0 0
0.061645508 -0.12341309 -0.34716797 0 0 0 0
0.063415527 -0.12341309 -0.34716797 0 0 0 0
0.065185547 -0.12341309 -0.34716797 0 0 0 0
0.067016602 -0.12341309 -0.34716797 0 0 0 0
0.068786621 -0.12341309 -0.34716797 0 0 0 0
0.070617676 -0.12341309 -0.34716797 0 0 0 0
0.072387695 -0.12341309 -0.34716797 0 0 0 0
0.07421875 -0.12341309 -0.34716797 0 0 0 0
0.07598877 -0.12341309 -0.34716797 0 0 0 0
0.077819824 -0.12341309 -0.34716797 0 0 0 0
0.079589844 -0.12341309 -0.34716797 0 0 0 0
0.081420898 -0.12341309 -0.34716797 0 0 0 0
0.083190918 -0.12341309 -0.34716797 0 0 0 0
0.085021973 -0.12341309 -0.34716797 0 0 0 0
0.086791992 -0.12341309 -0.34716797 0 0 0 0
0.088623047 -0.12341309 -0.34716797 0 0 0 0
0.090393066 -0.12341309 -0.34716797 0 0 0 0
0.091918945 -0.12304688 -0.34619141 0 0 0 0
0.093688965 -0.12304688 -0.34619141 0 0 0 0
0.09552002 -0.12304688 -0.34619141 0 0 0 0
0.097290039 -0.12304688 -0.34619141 0 0 0 0
0.099121094 -0.12304688 -0.34619141 0 0 0 0
0.10089111 -0.12304688 -0.34619141 0 0 0 0
0.10266113 -0.12304688 -0.34619141 0 0 0 0
0.10449219 -0.12304688 -0.34619141 0 0 0 0
0.10626221 -0.12304688 -0.34619141 0 0 0 0
0.10021973 -0.10375977 -0.29199219 0 0 0 0
0.10137939 -0.10339355 -0.29101562 0 0 0 0
0.10290527 -0.10339355 -0.29101562 0 0 0 0
0.10443115 -0.10339355 -0.29101562 0 0 0 0
0.10552979 -0.10308838 -0.29003906 0 0 0 0
0.10705566 -0.10308838 -0.29003906 0 0 0 0
0.10852051 -0.10308838 -0.29003906 0 0 0 0
0.11004639 -0.10308838 -0.29003906 0 0 0 0
0.11157227 -0.10308838 -0.29003906 0 0 0 0
0.11303711 -0.10308838 -0.29003906 0 0 0 0
0.11456299 -0.10308838 -0.29003906 0 0 0 0
0.11645508 -0.10339355 -0.29101562 0 0 0 0
0.11798096 -0.10339355 -0.29101562 0 0 0 0
0.11950684 -0.10339355 -0.29101562 0 0 0 0
0.13769531 -0.11767578 -0.33105469 0 0 0 0
0.1394043 -0.11767578 -0.33105469 0 0 0 0
0.14111328 -0.11767578 -0.33105469 0 0 0 0
0.04196167 -0.12548828 -0.34814453 0 0 0 0
0.043762207 -0.12548828 -0.34814453 0 0 0 0
0.045562744 -0.12548828 -0.34814453 0 0 0 0
0.047363281 -0.12548828 -0.34814453 0 0 0 0
0.049041748 -0.12512207 -0.34716797 0 0 0 0
0.050842285 -0.12512207 -0.34716797 0 0 0 0
0.052642822 -0.12512207 -0.34716797 0 0 0 0
0.054443359 -0.12512207 -0.34716797 0 0 0 0
0.056243896 -0.12512207 -0.34716797 0 0 0 0
0.058044434 -0.12512207 -0.34716797 0 0 0 0
0.059844971 -0.12512207 -0.34716797 0 0 0 0
0.061645508 -0.12512207 -0.34716797 0 0 0 0
0.063415527 -0.12512207 -0.34716797 0 0 0 0
0.065185547 -0.12512207 -0.34716797 0 0 0 0
0.067016602 -0.12512207 -0.34716797 0 0 0 0
0.068786621 -0.12512207 -0.34716797 0 0 0 0
0.070617676 -0.12512207 -0.34716797 0 0 0 0
0.072387695 -0.12512207 -0.34716797 0 0 0 0
0.07421875 -0.12512207 -0.34716797 0 0 0 0
0.07598877 -0.12512207 -0.34716797 0 0 0 0
0.077819824 -0.12512207 -0.34716797 0 0 0 0
0.079589844 -0.12512207 -0.34716797 0 0 0 0
0.081420898 -0.12512207 -0.34716797 0 0 0 0
0.083190918 -0.12512207 -0.34716797 0 0 0 0
0.085021973 -0.12512207 -0.34716797 0 0 0 0
0.086791992 -0.12512207 -0.34716797 0 0 0 0
0.088317871 -0.12481689 -0.34619141 0 0 0 0
0.090148926 -0.12481689 -0.34619141 0 0 0 0
0.091918945 -0.12481689 -0.34619141 0 0 0 0
0.093688965 -0.12481689 -0.34619141 0 0 0 0
0.09552002 -0.12481689 -0.34619141 0 0 0 0
0.097290039 -0.12481689 -0.34619141 0 0 0 0
0.099121094 -0.12481689 -0.34619141 0 0 0 0
0.10089111 -0.12481689 -0.34619141 0 0 0 0
0.10266113 -0.12481689 -0.34619141 0 0 0 0
0.10449219 -0.12481689 -0.34619141 0 0 0 0
0.10626221 -0.12481689 -0.34619141 0 0 0 0
0.10809326 -0.12481689 -0.34619141 0 0 0 0
0.10137939 -0.10491943 -0.29101562 0 0 0 0
0.10290527 -0.10491943 -0.29101562 0 0 0 0
0.10443115 -0.10491943 -0.29101562 0 0 0 0
0.10552979 -0.10455322 -0.29003906 0 0 0 0
0.10705566 -0.10455322 -0.29003906 0 0 0 0
0.10852051 -0.10455322 -0.29003906 0 0 0 0
0.11004639 -0.10455322 -0.29003906 0 0 0 0
0.11157227 -0.10455322 -0.29003906 0 0 0 0
0.11303711 -0.10455322 -0.29003906 0 0 0 0
0.11456299 -0.10455322 -0.29003906 0 0 0 0
0.11645508 -0.10491943 -0.29101562 0 0 0 0
0.11798096 -0.10491943 -0.29101562 0 0 0 0
0.13806152 -0.11975098 -0.33227539 0 0 0 0
0.13977051 -0.11975098 -0.33227539 0 0 0 0
0.14147949 -0.11975098 -0.33227539 0 0 0 0
0.04196167 -0.12731934 -0.34814453 0 0 0 0
0.043762207 -0.12731934 -0.34814453 0 0 0 0
0.045562744 -0.12731934 -0.34814453 0 0 0 0
0.047241211 -0.12695312 -0.34716797 0 0 0 0
0.049041748 -0.12695312 -0.34716797 0 0 0 0
0.050842285 -0.12695312 -0.34716797 0 0 0 0
0.052642822 -0.12695312 -0.34716797 0 0 0 0
0.054443359 -0.12695312 -0.34716797 0 0 0 0
0.056243896 -0.12695312 -0.34716797 0 0 0 0
0.058044434 -0.12695312 -0.34716797 0 0 0 0
0.059844971 -0.12695312 -0.34716797 0 0 0 0
0.061645508 -0.12695312 -0.34716797 0 0 0 0
0.063415527 -0.12695312 -0.34716797 0 0 0 0
0.065002441 -0.12658691 -0.34619141 0 0 0 0
0.066833496 -0.12658691 -0.34619141 0 0 0 0
0.068603516 -0.12658691 -0.34619141 0 0 0 0
0.07043457 -0.12658691 -0.34619141 0 0 0 0
0.07220459 -0.12658691 -0.34619141 0 0 0 0
0.07421875 -0.12695312 -0.34716797 0 0 0 0
0.07598877 -0.12695312 -0.34716797 0 0 0 0
0.077819824 -0.12695312 -0.34716797 0 0 0 0
0.079589844 -0.12695312 -0.34716797 0 0 0 0
0.081420898 -0.12695312 -0.34716797 0 0 0 0
0.083190918 -0.12695312 -0.34716797 0 0 0 0
0.084777832 -0.12658691 -0.34619141 0 0 0 0
0.086547852 -0.12658691 -0.34619141 0 0 0 0
0.088317871 -0.12658691 -0.34619141 0 0 0 0
0.090148926 -0.12658691 -0.34619141 0 0 0 0
0.091918945 -0.12658691 -0.34619141 0 0 0 0
0.093688965 -0.12658691 -0.34619141 0 0 0 0
0.09552002 -0.12658691 -0.34619141 0 0 0 0
0.097290039 -0.12658691 -0.34619141 0 0 0 0
0.099121094 -0.12658691 -0.34619141 0 0 0 0
0.10089111 -0.12658691 -0.34619141 0 0 0 0
0.10266113 -0.12658691 -0.34619141 0 0 0 0
0.10449219 -0.12658691 -0.34619141 0 0 0 0
0.10626221 -0.12658691 -0.34619141 0 0 0 0
0.10809326 -0.12658691 -0.34619141 0 0 0 0
0.10986328 -0.12658691 -0.34619141 0 0 0 0
0.10290527 -0.10644531 -0.29101562 0 0 0 0
0.10443115 -0.10644531 -0.29101562 0 0 0 0
0.10552979 -0.1060791 -0.29003906 0 0 0 0
0.10705566 -0.1060791 -0.29003906 0 0 0 0
0.10852051 -0.1060791 -0.29003906 0 0 0 0
0.11004639 -0.1060791 -0.29003906 0 0 0 0
0.11157227 -0.1060791 -0.29003906 0 0 0 0
0.11303711 -0.1060791 -0.29003906 0 0 0 0
0.11456299 -0.1060791 -0.29003906 0 0 0 0
0.11608887 -0.1060791 -0.29003906 0 0 0 0
0.13598633 -0.12109375 -0.33105469 0 0 0 0
0.13769531 -0.12109375 -0.33105469 0 0 0 0
0.13977051 -0.12145996 -0.33227539 0 0 0 0
0.14147949 -0.12145996 -0.33227539 0 0 0 0
0.14318848 -0.12145996 -0.33227539 0 0 0 0
0.04196167 -0.12915039 -0.34814453 0 0 0 0
0.043762207 -0.12915039 -0.34814453 0 0 0 0
0.045440674 -0.12878418 -0.34716797 0 0 0 0
0.047241211 -0.12878418 -0.34716797 0 0 0 0
0.049041748 -0.12878418 -0.34716797 0 0 0 0
0.050842285 -0.12878418 -0.34716797 0 0 0 0
0.052642822 -0.12878418 -0.34716797 0 0 0 0
0.054443359 -0.12878418 -0.34716797 0 0 0 0
0.056243896 -0.12878418 -0.34716797 0 0 0 0
0.058044434 -0.12878418 -0.34716797 0 0 0 0
0.059661865 -0.12841797 -0.34619141 0 0 0 0
0.061462402 -0.12841797 -0.34619141 0 0 0 0
0.063232422 -0.12841797 -0.34619141 0 0 0 0
0.065002441 -0.12841797 -0.34619141 0 0 0 0
0.066833496 -0.12841797 -0.34619141 0 0 0 0
0.068603516 -0.12841797 -0.34619141 0 0 0 0
0.07043457 -0.12841797 -0.34619141 0 0 0 0
0.07220459 -0.12841797 -0.34619141 0 0 0 0
0.073974609 -0.12841797 -0.34619141 0 0 0 0
0.075805664 -0.12841797 -0.34619141 0 0 0 0
0.077575684 -0.12841797 -0.34619141 0 0 0 0
0.079345703 -0.12841797 -0.34619141 0 0 0 0
0.081176758 -0.12841797 -0.34619141 0 0 0 0
0.082946777 -0.12841797 -0.34619141 0 0 0 0
0.084777832 -0.12841797 -0.34619141 0 0 0 0
0.086547852 -0.12841797 -0.34619141 0 0 0 0
0.088317871 -0.12841797 -0.34619141 0 0 0 0
0.090148926 -0.12841797 -0.34619141 0 0 0 0
0.091918945 -0.12841797 -0.34619141 0 0 0 0
0.093688965 -0.12841797 -0.34619141 0 0 0 0
0.09552002 -0.12841797 -0.34619141 0 0 0 0
0.097290039 -0.12841797 -0.34619141 0 0 0 0
0.099121094 -0.12841797 -0.34619141 0 0 0 0
0.10089111 -0.12841797 -0.34619141 0 0 0 0
0.10266113 -0.12841797 -0.34619141 0 0 0 0
0.10449219 -0.12841797 -0.34619141 0 0 0 0
0.10626221 -0.12841797 -0.34619141 0 0 0 0
0.10809326 -0.12841797 -0.34619141 0 0 0 0
0.10986328 -0.12841797 -0.34619141 0 0 0 0
0.10552979 -0.10754395 -0.29003906 0 0 0 0
0.10705566 -0.10754395 -0.29003906 0 0 0 0
0.10852051 -0.10754395 -0.29003906 0 0 0 0
0.11004639 -0.10754395 -0.29003906 0 0 0 0
0.11157227 -0.10754395 -0.29003906 0 0 0 0
0.11303711 -0.10754395 -0.29003906 0 0 0 0
0.13342285 -0.12207031 -0.32910156 0 0 0 0
0.13549805 -0.12243652 -0.33007812 0 0 0 0
0.13769531 -0.12286377 -0.33105469 0 0 0 0
0.1394043 -0.12286377 -0.33105469 0 0 0 0
0.14111328 -0.12286377 -0.33105469 0 0 0 0
0.040161133 -0.13098145 -0.34814453 0 0 0 0
0.0418396 -0.13061523 -0.34716797 0 0 0 0
0.043640137 -0.13061523 -0.34716797 0 0 0 0
0.045440674 -0.13061523 -0.34716797 0 0 0 0
0.047241211 -0.13061523 -0.34716797 0 0 0 0
0.049041748 -0.13061523 -0.34716797 0 0 0 0
0.050842285 -0.13061523 -0.34716797 0 0 0 0
0.052642822 -0.13061523 -0.34716797 0 0 0 0
0.054443359 -0.13061523 -0.34716797 0 0 0 0
0.056060791 -0.13012695 -0.34619141 0 0 0 0
0.057861328 -0.13012695 -0.34619141 0 0 0 0
0.059661865 -0.13012695 -0.34619141 0 0 0 0
0.061462402 -0.13012695 -0.34619141 0 0 0 0
0.063232422 -0.13012695 -0.34619141 0 0 0 0
0.065002441 -0.13012695 -0.34619141 0 0 0 0
0.066833496 -0.13012695 -0.34619141 0 0 0 0
0.068603516 -0.13012695 -0.34619141 0 0 0 0
0.07043457 -0.13012695 -0.34619141 0 0 0 0
0.07220459 -0.13012695 -0.34619141 0 0 0 0
0.073974609 -0.13012695 -0.34619141 0 0 0 0
0.075805664 -0.13012695 -0.34619141 0 0 0 0
0.077575684 -0.13012695 -0.34619141 0 0 0 0
0.079345703 -0.13012695 -0.34619141 0 0 0 0
0.081176758 -0.13012695 -0.34619141 0 0 0 0
0.082946777 -0.13012695 -0.34619141 0 0 0 0
0.084777832 -0.13012695 -0.34619141 0 0 0 0
0.086547852 -0.13012695 -0.34619141 0 0 0 0
0.088317871 -0.13012695 -0.34619141 0 0 0 0
0.090148926 -0.13012695 -0.34619141 0 0 0 0
0.091918945 -0.13012695 -0.34619141 0 0 0 0
0.093688965 -0.13012695 -0.34619141 0 0 0 0
0.09552002 -0.13012695 -0.34619141 0 0 0 0
0.097290039 -0.13012695 -0.34619141 0 0 0 0
0.099121094 -0.13012695 -0.34619141 0 0 0 0
0.10089111 -0.13012695 -0.34619141 0 0 0 0
0.10266113 -0.13012695 -0.34619141 0 0 0 0
0.10449219 -0.13012695 -0.34619141 0 0 0 0
0.10626221 -0.13012695 -0.34619141 0 0 0 0
0.10809326 -0.13012695 -0.34619141 0 0 0 0
0.10955811 -0.12976074 -0.34521484 0 0 0 0
0.11212158 -0.1192627 -0.31713867 0 0 0 0
0.11376953 -0.1192627 -0.31713867 0 0 0 0
0.11541748 -0.1192627 -0.31713867 0 0 0 0
0.11669922 -0.11889648 -0.31616211 0 0 0 0
0.11828613 -0.11889648 -0.31616211 0 0 0 0
0.11993408 -0.11889648 -0.31616211 0 0 0 0
0.13085938 -0.12304688 -0.32714844 0 0 0 0
0.13293457 -0.12341309 -0.328125 0 0 0 0
0.13513184 -0.1237793 -0.32910156 0 0 0 0
0.13720703 -0.12414551 -0.33007812 0 0 0 0
0.1394043 -0.12457275 -0.33105469 0 0 0 0
0.14111328 -0.12457275 -0.33105469 0 0 0 0
0.14282227 -0.12457275 -0.33105469 0 0 0 0
0.040039062 -0.13232422 -0.34716797 0 0 0 0
0.0418396 -0.13232422 -0.34716797 0 0 0 0
0.043640137 -0.13232422 -0.34716797 0 0 0 0
0.045440674 -0.13232422 -0.34716797 0 0 0 0
0.047241211 -0.13232422 -0.34716797 0 0 0 0
0.049041748 -0.13232422 -0.34716797 0 0 0 0
0.050842285 -0.13232422 -0.34716797 0 0 0 0
0.052642822 -0.13232422 -0.34716797 0 0 0 0
0.054290771 -0.13195801 -0.34619141 0 0 0 0
0.056060791 -0.13195801 -0.34619141 0 0 0 0
0.057861328 -0.13195801 -0.34619141 0 0 0 0
0.059661865 -0.13195801 -0.34619141 0 0 0 0
0.061462402 -0.13195801 -0.34619141 0 0 0 0
0.063232422 -0.13195801 -0.34619141 0 0 0 0
0.065002441 -0.13195801 -0.34619141 0 0 0 0
0.066833496 -0.13195801 -0.34619141 0 0 0 0
0.068603516 -0.13195801 -0.34619141 0 0 0 0
0.07043457 -0.13195801 -0.34619141 0 0 0 0
0.07220459 -0.13195801 -0.34619141 0 0 0 0
0.073974609 -0.13195801 -0.34619141 0 0 0 0
0.075805664 -0.13195801 -0.34619141 0 0 0 0
0.077575684 -0.13195801 -0.34619141 0 0 0 0
0.079345703 -0.13195801 -0.34619141 0 0 0 0
0.081176758 -0.13195801 -0.34619141 0 0 0 0
0.082946777 -0.13195801 -0.34619141 0 0 0 0
0.084777832 -0.13195801 -0.34619141 0 0 0 0
0.086547852 -0.13195801 -0.34619141 0 0 0 0
0.088317871 -0.13195801 -0.34619141 0 0 0 0
0.090148926 -0.13195801 -0.34619141 0 0 0 0
0.091918945 -0.13195801 -0.34619141 0 0 0 0
0.093688965 -0.13195801 -0.34619141 0 0 0 0
0.09552002 -0.13195801 -0.34619141 0 0 0 0
0.097290039 -0.13195801 -0.34619141 0 0 0 0
0.099121094 -0.13195801 -0.34619141 0 0 0 0
0.10089111 -0.13195801 -0.34619141 0 0 0 0
0.10266113 -0.13195801 -0.34619141 0 0 0 0
0.10449219 -0.13195801 -0.34619141 0 0 0 0
0.10626221 -0.13195801 -0.34619141 0 0 0 0
0.10772705 -0.1315918 -0.34521484 0 0 0 0
0.10955811 -0.1315918 -0.34521484 0 0 0 0
0.11132812 -0.1315918 -0.34521484 0 0 0 0
0.11083984 -0.12127686 -0.31811523 0 0 0 0
0.11212158 -0.12091064 -0.31713867 0 0 0 0
0.11376953 -0.12091064 -0.31713867 0 0 0 0
0.11541748 -0.12091064 -0.31713867 0 0 0 0
0.11669922 -0.12054443 -0.31616211 0 0 0 0
0.11828613 -0.12054443 -0.31616211 0 0 0 0
0.11993408 -0.12054443 -0.31616211 0 0 0 0
0.12194824 -0.12091064 -0.31713867 0 0 0 0
0.12402344 -0.12127686 -0.31811523 0 0 0 0
0.12756348 -0.12322998 -0.32324219 0 0 0 0
0.13049316 -0.12432861 -0.32617188 0 0 0 0
0.13256836 -0.12475586 -0.32714844 0 0 0 0
0.13464355 -0.12512207 -0.328125 0 0 0 0
0.13684082 -0.12548828 -0.32910156 0 0 0 0
0.13891602 -0.12585449 -0.33007812 0 0 0 0
0.140625 -0.12585449 -0.33007812 0 0 0 0
0.14233398 -0.12585449 -0.33007812 0 0 0 0
0.14404297 -0.12585449 -0.33007812 0 0 0 0
0.14575195 -0.12585449 -0.33007812 0 0 0 0
0.040039062 -0.13415527 -0.34716797 0 0 0 0
0.0418396 -0.13415527 -0.34716797 0 0 0 0
0.043640137 -0.13415527 -0.34716797 0 0 0 0
0.045440674 -0.13415527 -0.34716797 0 0 0 0
0.047241211 -0.13415527 -0.34716797 0 0 0 0
0.049041748 -0.13415527 -0.34716797 0 0 0 0
0.050689697 -0.13378906 -0.34619141 0 0 0 0
0.052490234 -0.13378906 -0.34619141 0 0 0 0
0.054290771 -0.13378906 -0.34619141 0 0 0 0
0.056060791 -0.13378906 -0.34619141 0 0 0 0
0.057861328 -0.13378906 -0.34619141 0 0 0 0
0.059661865 -0.13378906 -0.34619141 0 0 0 0
0.061462402 -0.13378906 -0.34619141 0 0 0 0
0.063232422 -0.13378906 -0.34619141 0 0 0 0
0.065002441 -0.13378906 -0.34619141 0 0 0 0
0.066833496 -0.13378906 -0.34619141 0 0 0 0
0.068603516 -0.13378906 -0.34619141 0 0 0 0
0.07043457 -0.13378906 -0.34619141 0 0 0 0
0.07220459 -0.13378906 -0.34619141 0 0 0 0
0.073974609 -0.13378906 -0.34619141 0 0 0 0
0.075805664 -0.13378906 -0.34619141 0 0 0 0
0.077575684 -0.13378906 -0.34619141 0 0 0 0
0.079345703 -0.13378906 -0.34619141 0 0 0 0
0.081176758 -0.13378906 -0.34619141 0 0 0 0
0.082946777 -0.13378906 -0.34619141 0 0 0 0
0.084777832 -0.13378906 -0.34619141 0 0 0 0
0.086547852 -0.13378906 -0.34619141 0 0 0 0
0.088317871 -0.13378906 -0.34619141 0 0 0 0
0.090148926 -0.13378906 -0.34619141 0 0 0 0
0.091918945 -0.13378906 -0.34619141 0 0 0 0
0.093688965 -0.13378906 -0.34619141 0 0 0 0
0.09552002 -0.13378906 -0.34619141 0 0 0 0
0.097290039 -0.13378906 -0.34619141 0 0 0 0
0.099121094 -0.13378906 -0.34619141 0 0 0 0
0.10089111 -0.13378906 -0.34619141 0 0 0 0
0.10266113 -0.13378906 -0.34619141 0 0 0 0
0.10449219 -0.13378906 -0.34619141 0 0 0 0
0.10626221 -0.13378906 -0.34619141 0 0 0 0
0.10772705 -0.13342285 -0.34521484 0 0 0 0
0.10955811 -0.13342285 -0.34521484 0 0 0 0
0.11132812 -0.13342285 -0.34521484 0 0 0 0
0.10919189 -0.1229248 -0.31811523 0 0 0 0
0.11083984 -0.1229248 -0.31811523 0 0 0 0
0.11212158 -0.12255859 -0.31713867 0 0 0 0
0.11376953 -0.12255859 -0.31713867 0 0 0 0
0.11541748 -0.12255859 -0.31713867 0 0 0 0
0.11669922 -0.12219238 -0.31616211 0 0 0 0
0.11828613 -0.12219238 -0.31616211 0 0 0 0
0.12036133 -0.12255859 -0.31713867 0 0 0 0
0.12194824 -0.12255859 -0.31713867 0 0 0 0
0.12438965 -0.12335205 -0.3190918 0 0 0 0
0.12719727 -0.12451172 -0.32202148 0 0 0 0
0.13012695 -0.12561035 -0.32519531 0 0 0 0
0.13220215 -0.12597656 -0.32617188 0 0 0 0
0.13464355 -0.12683105 -0.328125 0 0 0 0
0.13635254 -0.12683105 -0.328125 0 0 0 0
0.1385498 -0.12719727 -0.32910156 0 0 0 0
0.14025879 -0.12719727 -0.32910156 0 0 0 0
0.14196777 -0.12719727 -0.32910156 0 0 0 0
0.14367676 -0.12719727 -0.32910156 0 0 0 0
0.14538574 -0.12719727 -0.32910156 0 0 0 0
0.14709473 -0.12719727 -0.32910156 0 0 0 0
0.14880371 -0.12719727 -0.32910156 0 0 0 0
0.0418396 -0.13598633 -0.34716797 0 0 0 0
0.043518066 -0.13562012 -0.34619141 0 0 0 0
0.045318604 -0.13562012 -0.34619141 0 0 0 0
0.047119141 -0.13562012 -0.34619141 0 0 0 0
0.04888916 -0.13562012 -0.34619141 0 0 0 0
0.050689697 -0.13562012 -0.34619141 0 0 0 0
0.052490234 -0.13562012 -0.34619141 0 0 0 0
0.054290771 -0.13562012 -0.34619141 0 0 0 0
0.056060791 -0.13562012 -0.34619141 0 0 0 0
0.057861328 -0.13562012 -0.34619141 0 0 0 0
0.059661865 -0.13562012 -0.34619141 0 0 0 0
0.061462402 -0.13562012 -0.34619141 0 0 0 0
0.063232422 -0.13562012 -0.34619141 0 0 0 0
0.065002441 -0.13562012 -0.34619141 0 0 0 0
0.066833496 -0.13562012 -0.34619141 0 0 0 0
0.068603516 -0.13562012 -0.34619141 0 0 0 0
0.07043457 -0.13562012 -0.34619141 0 0 0 0
0.07220459 -0.13562012 -0.34619141 0 0 0 0
0.073974609 -0.13562012 -0.34619141 0 0 0 0
0.075805664 -0.13562012 -0.34619141 0 0 0 0
0.077575684 -0.13562012 -0.34619141 0 0 0 0
0.079345703 -0.13562012 -0.34619141 0 0 0 0
0.081176758 -0.13562012 -0.34619141 0 0 0 0
0.082946777 -0.13562012 -0.34619141 0 0 0 0
0.084777832 -0.13562012 -0.34619141 0 0 0 0
0.086547852 -0.13562012 -0.34619141 0 0 0 0
0.088317871 -0.13562012 -0.34619141 0 0 0 0
0.090148926 -0.13562012 -0.34619141 0 0 0 0
0.091918945 -0.13562012 -0.34619141 0 0 0 0
0.093688965 -0.13562012 -0.34619141 0 0 0 0
0.09552002 -0.13562012 -0.34619141 0 0 0 0
0.097290039 -0.13562012 -0.34619141 0 0 0 0
0.099121094 -0.13562012 -0.34619141 0 0 0 0
0.10089111 -0.13562012 -0.34619141 0 0 0 0
0.10266113 -0.13562012 -0.34619141 0 0 0 0
0.10449219 -0.13562012 -0.34619141 0 0 0 0
0.10595703 -0.13513184 -0.34521484 0 0 0 0
0.10772705 -0.13513184 -0.34521484 0 0 0 0
0.10955811 -0.13513184 -0.34521484 0 0 0 0
0.11132812 -0.13513184 -0.34521484 0 0 0 0
0.11309814 -0.13513184 -0.34521484 0 0 0 0
0.10919189 -0.12457275 -0.31811523 0 0 0 0
0.11083984 -0.12457275 -0.31811523 0 0 0 0
0.11212158 -0.12420654 -0.31713867 0 0 0 0
0.11376953 -0.12420654 -0.31713867 0 0 0 0
0.11505127 -0.1237793 -0.31616211 0 0 0 0
0.11669922 -0.1237793 -0.31616211 0 0 0 0
0.11828613 -0.1237793 -0.31616211 0 0 0 0
0.12036133 -0.12420654 -0.31713867 0 0 0 0
0.12237549 -0.12457275 -0.31811523 0 0 0 0
0.12438965 -0.125 -0.3190918 0 0 0 0
0.12683105 -0.12573242 -0.32104492 0 0 0 0
0.12963867 -0.12695312 -0.32421875 0 0 0 0
0.13171387 -0.12731934 -0.32519531 0 0 0 0
0.13427734 -0.12805176 -0.32714844 0 0 0 0
0.13635254 -0.12854004 -0.328125 0 0 0 0
0.13806152 -0.12854004 -0.328125 0 0 0 0
0.14025879 -0.12890625 -0.32910156 0 0 0 0
0.14196777 -0.12890625 -0.32910156 0 0 0 0
0.14367676 -0.12890625 -0.32910156 0 0 0 0
0.14538574 -0.12890625 -0.32910156 0 0 0 0
0.14709473 -0.12890625 -0.32910156 0 0 0 0
0.14880371 -0.12890625 -0.32910156 0 0 0 0
0.15039062 -0.12890625 -0.32910156 0 0 0 0
0.041717529 -0.1373291 -0.34619141 0 0 0 0
0.043518066 -0.1373291 -0.34619141 0 0 0 0
0.045318604 -0.1373291 -0.34619141 0 0 0 0
0.047119141 -0.1373291 -0.34619141 0 0 0 0
0.04888916 -0.1373291 -0.34619141 0 0 0 0
0.050689697 -0.1373291 -0.34619141 0 0 0 0
0.052490234 -0.1373291 -0.34619141 0 0 0 0
0.054290771 -0.1373291 -0.34619141 0 0 0 0
0.056060791 -0.1373291 -0.34619141 0 0 0 0
0.057861328 -0.1373291 -0.34619141 0 0 0 0
0.059661865 -0.1373291 -0.34619141 0 0 0 0
0.061462402 -0.1373291 -0.34619141 0 0 0 0
0.063232422 -0.1373291 -0.34619141 0 0 0 0
0.065002441 -0.1373291 -0.34619141 0 0 0 0
0.066833496 -0.1373291 -0.34619141 0 0 0 0
0.068603516 -0.1373291 -0.34619141 0 0 0 0
0.07043457 -0.1373291 -0.34619141 0 0 0 0
0.07220459 -0.1373291 -0.34619141 0 0 0 0
0.073974609 -0.1373291 -0.34619141 0 0 0 0
0.075805664 -0.1373291 -0.34619141 0 0 0 0
0.077575684 -0.1373291 -0.34619141 0 0 0 0
0.079345703 -0.1373291 -0.34619141 0 0 0 0
0.081176758 -0.1373291 -0.34619141 0 0 0 0
0.082702637 -0.13696289 -0.34521484 0 0 0 0
0.084533691 -0.13696289 -0.34521484 0 0 0 0
0.086303711 -0.13696289 -0.34521484 0 0 0 0
0.08807373 -0.13696289 -0.34521484 0 0 0 0
0.08984375 -0.13696289 -0.34521484 0 0 0 0
0.091674805 -0.13696289 -0.34521484 0 0 0 0
