ply
format ascii 1.0
comment PCL generated
element vertex 1071
property float x
property float y
property float z
property float nx
property float ny
property float nz
property float curvature
element face 0
element camera 0
property float view_px
property float view_py
property float view_pz
property float x_axisx
property float x_axisy
property float x_axisz
property float y_axisx
property float y_axisy
property float y_axisz
property float z_axisx
property float z_axisy
property float z_axisz
property float focal
property float scalex
property float scaley
property float centerx
property float centery
property int viewportx
property int viewporty
property float k1
property float k2
end_header
0.1227417 -0.030319214 -0.35229492 0 0 0 0
0.12457275 -0.030319214 -0.35229492 0 0 0 0
0.12634277 -0.030319214 -0.35229492 0 0 0 0
0.12817383 -0.030319214 -0.35229492 0 0 0 0
0.13000488 -0.030319214 -0.35229492 0 0 0 0
0.13183594 -0.030319214 -0.35229492 0 0 0 0
0.13366699 -0.030319214 -0.35229492 0 0 0 0
0.13549805 -0.030319214 -0.35229492 0 0 0 0
0.1373291 -0.030319214 -0.35229492 0 0 0 0
0.13916016 -0.030319214 -0.35229492 0 0 0 0
0.14099121 -0.030319214 -0.35229492 0 0 0 0
0.1427002 -0.030319214 -0.35229492 0 0 0 0
0.14453125 -0.030319214 -0.35229492 0 0 0 0
0.1463623 -0.030319214 -0.35229492 0 0 0 0
0.14819336 -0.030319214 -0.35229492 0 0 0 0
0.15002441 -0.030319214 -0.35229492 0 0 0 0
0.15185547 -0.030319214 -0.35229492 0 0 0 0
0.15368652 -0.030319214 -0.35229492 0 0 0 0
0.15551758 -0.030319214 -0.35229492 0 0 0 0
0.15734863 -0.030319214 -0.35229492 0 0 0 0
0.15917969 -0.030319214 -0.35229492 0 0 0 0
0.16101074 -0.030319214 -0.35229492 0 0 0 0
0.1628418 -0.030319214 -0.35229492 0 0 0 0
0.16418457 -0.03024292 -0.35131836 0 0 0 0
0.16601562 -0.03024292 -0.35131836 0 0 0 0
0.16784668 -0.03024292 -0.35131836 0 0 0 0
0.16967773 -0.03024292 -0.35131836 0 0 0 0
0.17150879 -0.03024292 -0.35131836 0 0 0 0
0.17333984 -0.03024292 -0.35131836 0 0 0 0
0.17504883 -0.03024292 -0.35131836 0 0 0 0
0.17687988 -0.03024292 -0.35131836 0 0 0 0
0.17871094 -0.03024292 -0.35131836 0 0 0 0
0.18054199 -0.03024292 -0.35131836 0 0 0 0
0.18237305 -0.03024292 -0.35131836 0 0 0 0
0.1842041 -0.03024292 -0.35131836 0 0 0 0
0.18603516 -0.03024292 -0.35131836 0 0 0 0
0.18725586 -0.030151367 -0.3503418 0 0 0 0
0.18908691 -0.030151367 -0.3503418 0 0 0 0
0.19091797 -0.030151367 -0.3503418 0 0 0 0
0.19274902 -0.030151367 -0.3503418 0 0 0 0
0.19458008 -0.030151367 -0.3503418 0 0 0 0
0.19641113 -0.030151367 -0.3503418 0 0 0 0
0.19824219 -0.030151367 -0.3503418 0 0 0 0
0.19995117 -0.030151367 -0.3503418 0 0 0 0
0.20178223 -0.030151367 -0.3503418 0 0 0 0
0.20361328 -0.030151367 -0.3503418 0 0 0 0
0.20605469 -0.03024292 -0.35131836 0 0 0 0
0.20788574 -0.03024292 -0.35131836 0 0 0 0
0.2097168 -0.03024292 -0.35131836 0 0 0 0
0.21154785 -0.03024292 -0.35131836 0 0 0 0
0.21325684 -0.03024292 -0.35131836 0 0 0 0
0.00051498413 -0.03314209 -0.36328125 0 0 0 0
0.0023956299 -0.03314209 -0.36328125 0 0 0 0
0.0042877197 -0.033233643 -0.36425781 0 0 0 0
0.0061912537 -0.033325195 -0.36523438 0 0 0 0
0.008102417 -0.033416748 -0.36621094 0 0 0 0
0.010002136 -0.033416748 -0.36621094 0 0 0 0
0.011932373 -0.033508301 -0.36743164 0 0 0 0
0.013832092 -0.033508301 -0.36743164 0 0 0 0
0.015731812 -0.033508301 -0.36743164 0 0 0 0
0.017593384 -0.033416748 -0.36621094 0 0 0 0
0.019485474 -0.033416748 -0.36621094 0 0 0 0
0.021331787 -0.033325195 -0.36523438 0 0 0 0
0.023147583 -0.033233643 -0.36425781 0 0 0 0
0.024963379 -0.03314209 -0.36328125 0 0 0 0
0.026855469 -0.03314209 -0.36328125 0 0 0 0
0.028656006 -0.033050537 -0.36230469 0 0 0 0
0.030441284 -0.032958984 -0.36132812 0 0 0 0
0.032226562 -0.032867432 -0.36035156 0 0 0 0
0.033996582 -0.032775879 -0.359375 0 0 0 0
0.035766602 -0.032684326 -0.35839844 0 0 0 0
0.037384033 -0.032501221 -0.35620117 0 0 0 0
0.039123535 -0.032409668 -0.35522461 0 0 0 0
0.040863037 -0.032318115 -0.35424805 0 0 0 0
0.042572021 -0.032226562 -0.35327148 0 0 0 0
0.044281006 -0.03213501 -0.35229492 0 0 0 0
0.045959473 -0.032043457 -0.35131836 0 0 0 0
0.047637939 -0.031951904 -0.3503418 0 0 0 0
0.049468994 -0.031951904 -0.3503418 0 0 0 0
0.051147461 -0.031860352 -0.34912109 0 0 0 0
0.05279541 -0.031768799 -0.34814453 0 0 0 0
0.054595947 -0.031768799 -0.34814453 0 0 0 0
0.056243896 -0.031677246 -0.34716797 0 0 0 0
0.058044434 -0.031677246 -0.34716797 0 0 0 0
0.059661865 -0.031585693 -0.34619141 0 0 0 0
0.061462402 -0.031585693 -0.34619141 0 0 0 0
0.063232422 -0.031585693 -0.34619141 0 0 0 0
0.064819336 -0.031494141 -0.34521484 0 0 0 0
0.066650391 -0.031494141 -0.34521484 0 0 0 0
0.06842041 -0.031494141 -0.34521484 0 0 0 0
0.070007324 -0.031402588 -0.34423828 0 0 0 0
0.071777344 -0.031402588 -0.34423828 0 0 0 0
0.073547363 -0.031402588 -0.34423828 0 0 0 0
0.075134277 -0.031311035 -0.34326172 0 0 0 0
0.076660156 -0.031234741 -0.34228516 0 0 0 0
0.078430176 -0.031234741 -0.34228516 0 0 0 0
0.08001709 -0.031143188 -0.34130859 0 0 0 0
0.081542969 -0.031051636 -0.34008789 0 0 0 0
0.083007812 -0.030960083 -0.33911133 0 0 0 0
0.084533691 -0.03086853 -0.33813477 0 0 0 0
0.08605957 -0.030776978 -0.3371582 0 0 0 0
0.087524414 -0.030685425 -0.33618164 0 0 0 0
0.088989258 -0.030593872 -0.33520508 0 0 0 0
0.090759277 -0.030593872 -0.33520508 0 0 0 0
0.092163086 -0.030502319 -0.33422852 0 0 0 0
0.093383789 -0.030319214 -0.33227539 0 0 0 0
0.095092773 -0.030319214 -0.33227539 0 0 0 0
0.096496582 -0.030227661 -0.33105469 0 0 0 0
0.097900391 -0.030136108 -0.33007812 0 0 0 0
0.10601807 -0.032043457 -0.35131836 0 0 0 0
0.10778809 -0.032043457 -0.35131836 0 0 0 0
0.11297607 -0.031951904 -0.3503418 0 0 0 0
0.11474609 -0.031951904 -0.3503418 0 0 0 0
0.11657715 -0.031951904 -0.3503418 0 0 0 0
0.11871338 -0.032043457 -0.35131836 0 0 0 0
0.12054443 -0.032043457 -0.35131836 0 0 0 0
0.12237549 -0.032043457 -0.35131836 0 0 0 0
0.12457275 -0.03213501 -0.35229492 0 0 0 0
0.12634277 -0.03213501 -0.35229492 0 0 0 0
0.12817383 -0.03213501 -0.35229492 0 0 0 0
0.13000488 -0.03213501 -0.35229492 0 0 0 0
0.13183594 -0.03213501 -0.35229492 0 0 0 0
0.13366699 -0.03213501 -0.35229492 0 0 0 0
0.13549805 -0.03213501 -0.35229492 0 0 0 0
0.1373291 -0.03213501 -0.35229492 0 0 0 0
0.13916016 -0.03213501 -0.35229492 0 0 0 0
0.14099121 -0.03213501 -0.35229492 0 0 0 0
0.1427002 -0.03213501 -0.35229492 0 0 0 0
0.14453125 -0.03213501 -0.35229492 0 0 0 0
0.1463623 -0.03213501 -0.35229492 0 0 0 0
0.14819336 -0.03213501 -0.35229492 0 0 0 0
0.15002441 -0.03213501 -0.35229492 0 0 0 0
0.15185547 -0.03213501 -0.35229492 0 0 0 0
0.15332031 -0.032043457 -0.35131836 0 0 0 0
0.1550293 -0.032043457 -0.35131836 0 0 0 0
0.15686035 -0.032043457 -0.35131836 0 0 0 0
0.15869141 -0.032043457 -0.35131836 0 0 0 0
0.16052246 -0.032043457 -0.35131836 0 0 0 0
0.16235352 -0.032043457 -0.35131836 0 0 0 0
0.16418457 -0.032043457 -0.35131836 0 0 0 0
0.16601562 -0.032043457 -0.35131836 0 0 0 0
0.16784668 -0.032043457 -0.35131836 0 0 0 0
0.16967773 -0.032043457 -0.35131836 0 0 0 0
0.17150879 -0.032043457 -0.35131836 0 0 0 0
0.17333984 -0.032043457 -0.35131836 0 0 0 0
0.17504883 -0.032043457 -0.35131836 0 0 0 0
0.17687988 -0.032043457 -0.35131836 0 0 0 0
0.17871094 -0.032043457 -0.35131836 0 0 0 0
0.18054199 -0.032043457 -0.35131836 0 0 0 0
0.18237305 -0.032043457 -0.35131836 0 0 0 0
0.1842041 -0.032043457 -0.35131836 0 0 0 0
0.18554688 -0.031951904 -0.3503418 0 0 0 0
0.18725586 -0.031951904 -0.3503418 0 0 0 0
0.18908691 -0.031951904 -0.3503418 0 0 0 0
0.19091797 -0.031951904 -0.3503418 0 0 0 0
0.19274902 -0.031951904 -0.3503418 0 0 0 0
0.19458008 -0.031951904 -0.3503418 0 0 0 0
0.19641113 -0.031951904 -0.3503418 0 0 0 0
0.19824219 -0.031951904 -0.3503418 0 0 0 0
0.19995117 -0.031951904 -0.3503418 0 0 0 0
0.20178223 -0.031951904 -0.3503418 0 0 0 0
0.20361328 -0.031951904 -0.3503418 0 0 0 0
0.20605469 -0.032043457 -0.35131836 0 0 0 0
0.20788574 -0.032043457 -0.35131836 0 0 0 0
0.2097168 -0.032043457 -0.35131836 0 0 0 0
0.21154785 -0.032043457 -0.35131836 0 0 0 0
-0.0013628006 -0.034942627 -0.36230469 0 0 0 0
0.00051355362 -0.034942627 -0.36230469 0 0 0 0
0.0023956299 -0.03503418 -0.36328125 0 0 0 0
0.0042877197 -0.035125732 -0.36425781 0 0 0 0
0.0061759949 -0.035125732 -0.36425781 0 0 0 0
0.0080795288 -0.035217285 -0.36523438 0 0 0 0
0.010002136 -0.035308838 -0.36621094 0 0 0 0
0.011901855 -0.035308838 -0.36621094 0 0 0 0
0.013832092 -0.035430908 -0.36743164 0 0 0 0
0.015731812 -0.035430908 -0.36743164 0 0 0 0
0.01763916 -0.035430908 -0.36743164 0 0 0 0
0.019485474 -0.035308838 -0.36621094 0 0 0 0
0.021331787 -0.035217285 -0.36523438 0 0 0 0
0.023147583 -0.035125732 -0.36425781 0 0 0 0
0.025039673 -0.035125732 -0.36425781 0 0 0 0
0.026855469 -0.03503418 -0.36328125 0 0 0 0
0.028656006 -0.034942627 -0.36230469 0 0 0 0
0.030532837 -0.034942627 -0.36230469 0 0 0 0
0.032318115 -0.034851074 -0.36132812 0 0 0 0
0.033996582 -0.034637451 -0.359375 0 0 0 0
0.035766602 -0.034545898 -0.35839844 0 0 0 0
0.037384033 -0.034362793 -0.35620117 0 0 0 0
0.039123535 -0.03427124 -0.35522461 0 0 0 0
0.040863037 -0.03414917 -0.35424805 0 0 0 0
0.042572021 -0.034057617 -0.35327148 0 0 0 0
0.044281006 -0.033966064 -0.35229492 0 0 0 0
0.045959473 -0.033874512 -0.35131836 0 0 0 0
0.047637939 -0.033782959 -0.3503418 0 0 0 0
0.049468994 -0.033782959 -0.3503418 0 0 0 0
0.051147461 -0.033691406 -0.34912109 0 0 0 0
0.05279541 -0.033569336 -0.34814453 0 0 0 0
0.054595947 -0.033569336 -0.34814453 0 0 0 0
0.056243896 -0.033477783 -0.34716797 0 0 0 0
0.057861328 -0.03338623 -0.34619141 0 0 0 0
0.059661865 -0.03338623 -0.34619141 0 0 0 0
0.061462402 -0.03338623 -0.34619141 0 0 0 0
0.063049316 -0.033294678 -0.34521484 0 0 0 0
0.064819336 -0.033294678 -0.34521484 0 0 0 0
0.066650391 -0.033294678 -0.34521484 0 0 0 0
0.06842041 -0.033294678 -0.34521484 0 0 0 0
0.070007324 -0.033203125 -0.34423828 0 0 0 0
0.071777344 -0.033203125 -0.34423828 0 0 0 0
0.073364258 -0.033081055 -0.34326172 0 0 0 0
0.075134277 -0.033081055 -0.34326172 0 0 0 0
0.076660156 -0.032989502 -0.34228516 0 0 0 0
0.078430176 -0.032989502 -0.34228516 0 0 0 0
0.08001709 -0.032897949 -0.34130859 0 0 0 0
0.081542969 -0.032806396 -0.34008789 0 0 0 0
0.083007812 -0.032714844 -0.33911133 0 0 0 0
0.084533691 -0.032623291 -0.33813477 0 0 0 0
0.08605957 -0.032501221 -0.3371582 0 0 0 0
0.087524414 -0.032409668 -0.33618164 0 0 0 0
0.088989258 -0.032318115 -0.33520508 0 0 0 0
0.090454102 -0.032226562 -0.33422852 0 0 0 0
0.091918945 -0.03213501 -0.33325195 0 0 0 0
0.093383789 -0.032043457 -0.33227539 0 0 0 0
0.094787598 -0.031921387 -0.33105469 0 0 0 0
0.096191406 -0.031829834 -0.33007812 0 0 0 0
0.097900391 -0.031829834 -0.33007812 0 0 0 0
0.099304199 -0.031738281 -0.32910156 0 0 0 0
0.10101318 -0.031738281 -0.32910156 0 0 0 0
0.10272217 -0.031738281 -0.32910156 0 0 0 0
0.11260986 -0.033691406 -0.34912109 0 0 0 0
0.11474609 -0.033782959 -0.3503418 0 0 0 0
0.11657715 -0.033782959 -0.3503418 0 0 0 0
0.11871338 -0.033874512 -0.35131836 0 0 0 0
0.12054443 -0.033874512 -0.35131836 0 0 0 0
0.12237549 -0.033874512 -0.35131836 0 0 0 0
0.12420654 -0.033874512 -0.35131836 0 0 0 0
0.12634277 -0.033966064 -0.35229492 0 0 0 0
0.12817383 -0.033966064 -0.35229492 0 0 0 0
0.13000488 -0.033966064 -0.35229492 0 0 0 0
0.13183594 -0.033966064 -0.35229492 0 0 0 0
0.13366699 -0.033966064 -0.35229492 0 0 0 0
0.13549805 -0.033966064 -0.35229492 0 0 0 0
0.1373291 -0.033966064 -0.35229492 0 0 0 0
0.13916016 -0.033966064 -0.35229492 0 0 0 0
0.14099121 -0.033966064 -0.35229492 0 0 0 0
0.1427002 -0.033966064 -0.35229492 0 0 0 0
0.14453125 -0.033966064 -0.35229492 0 0 0 0
0.1463623 -0.033966064 -0.35229492 0 0 0 0
0.14819336 -0.033966064 -0.35229492 0 0 0 0
0.15002441 -0.033966064 -0.35229492 0 0 0 0
0.15148926 -0.033874512 -0.35131836 0 0 0 0
0.15332031 -0.033874512 -0.35131836 0 0 0 0
0.1550293 -0.033874512 -0.35131836 0 0 0 0
0.15686035 -0.033874512 -0.35131836 0 0 0 0
0.15869141 -0.033874512 -0.35131836 0 0 0 0
0.16052246 -0.033874512 -0.35131836 0 0 0 0
0.16235352 -0.033874512 -0.35131836 0 0 0 0
0.16418457 -0.033874512 -0.35131836 0 0 0 0
0.16601562 -0.033874512 -0.35131836 0 0 0 0
0.16784668 -0.033874512 -0.35131836 0 0 0 0
0.16967773 -0.033874512 -0.35131836 0 0 0 0
0.17150879 -0.033874512 -0.35131836 0 0 0 0
0.17333984 -0.033874512 -0.35131836 0 0 0 0
0.17504883 -0.033874512 -0.35131836 0 0 0 0
0.17687988 -0.033874512 -0.35131836 0 0 0 0
0.17871094 -0.033874512 -0.35131836 0 0 0 0
0.18054199 -0.033874512 -0.35131836 0 0 0 0
0.18237305 -0.033874512 -0.35131836 0 0 0 0
0.18371582 -0.033782959 -0.3503418 0 0 0 0
0.18554688 -0.033782959 -0.3503418 0 0 0 0
0.18725586 -0.033782959 -0.3503418 0 0 0 0
0.18908691 -0.033782959 -0.3503418 0 0 0 0
0.19091797 -0.033782959 -0.3503418 0 0 0 0
0.19274902 -0.033782959 -0.3503418 0 0 0 0
0.19458008 -0.033782959 -0.3503418 0 0 0 0
0.19641113 -0.033782959 -0.3503418 0 0 0 0
0.19824219 -0.033782959 -0.3503418 0 0 0 0
0.19995117 -0.033782959 -0.3503418 0 0 0 0
0.20178223 -0.033782959 -0.3503418 0 0 0 0
0.20361328 -0.033782959 -0.3503418 0 0 0 0
0.20605469 -0.033874512 -0.35131836 0 0 0 0
0.20788574 -0.033874512 -0.35131836 0 0 0 0
0.2097168 -0.033874512 -0.35131836 0 0 0 0
0.21154785 -0.033874512 -0.35131836 0 0 0 0
-0.0013589859 -0.036712646 -0.36132812 0 0 0 0
0.00051355362 -0.036804199 -0.36230469 0 0 0 0
0.0023899078 -0.036804199 -0.36230469 0 0 0 0
0.0042762756 -0.03692627 -0.36328125 0 0 0 0
0.0061759949 -0.037017822 -0.36425781 0 0 0 0
0.0080795288 -0.037109375 -0.36523438 0 0 0 0
0.010002136 -0.037231445 -0.36621094 0 0 0 0
0.011901855 -0.037231445 -0.36621094 0 0 0 0
0.013832092 -0.037322998 -0.36743164 0 0 0 0
0.015731812 -0.037322998 -0.36743164 0 0 0 0
0.01763916 -0.037322998 -0.36743164 0 0 0 0
0.019485474 -0.037231445 -0.36621094 0 0 0 0
0.035644531 -0.036315918 -0.35717773 0 0 0 0
0.037384033 -0.036193848 -0.35620117 0 0 0 0
0.039123535 -0.036102295 -0.35522461 0 0 0 0
0.040863037 -0.036010742 -0.35424805 0 0 0 0
0.042572021 -0.035888672 -0.35327148 0 0 0 0
0.044281006 -0.035797119 -0.35229492 0 0 0 0
0.045959473 -0.035675049 -0.35131836 0 0 0 0
0.047637939 -0.035583496 -0.3503418 0 0 0 0
0.049468994 -0.035583496 -0.3503418 0 0 0 0
0.051147461 -0.035491943 -0.34912109 0 0 0 0
0.05279541 -0.035369873 -0.34814453 0 0 0 0
0.054443359 -0.03527832 -0.34716797 0 0 0 0
0.056243896 -0.03527832 -0.34716797 0 0 0 0
0.057861328 -0.035186768 -0.34619141 0 0 0 0
0.059661865 -0.035186768 -0.34619141 0 0 0 0
0.061279297 -0.035064697 -0.34521484 0 0 0 0
0.063049316 -0.035064697 -0.34521484 0 0 0 0
0.064819336 -0.035064697 -0.34521484 0 0 0 0
0.06640625 -0.034973145 -0.34423828 0 0 0 0
0.068237305 -0.034973145 -0.34423828 0 0 0 0
0.070007324 -0.034973145 -0.34423828 0 0 0 0
0.071777344 -0.034973145 -0.34423828 0 0 0 0
0.073364258 -0.034881592 -0.34326172 0 0 0 0
0.075134277 -0.034881592 -0.34326172 0 0 0 0
0.076660156 -0.034759521 -0.34228516 0 0 0 0
0.078430176 -0.034759521 -0.34228516 0 0 0 0
0.08001709 -0.034667969 -0.34130859 0 0 0 0
0.081542969 -0.034576416 -0.34008789 0 0 0 0
0.083007812 -0.034454346 -0.33911133 0 0 0 0
0.084533691 -0.034362793 -0.33813477 0 0 0 0
0.08605957 -0.03427124 -0.3371582 0 0 0 0
0.087280273 -0.034057617 -0.33520508 0 0 0 0
0.088745117 -0.033966064 -0.33422852 0 0 0 0
0.090209961 -0.033843994 -0.33325195 0 0 0 0
0.09161377 -0.033752441 -0.33227539 0 0 0 0
0.093078613 -0.033660889 -0.33105469 0 0 0 0
0.094787598 -0.033660889 -0.33105469 0 0 0 0
0.096191406 -0.033538818 -0.33007812 0 0 0 0
0.097595215 -0.033447266 -0.32910156 0 0 0 0
0.099304199 -0.033447266 -0.32910156 0 0 0 0
0.10101318 -0.033447266 -0.32910156 0 0 0 0
0.10272217 -0.033447266 -0.32910156 0 0 0 0
0.10443115 -0.033447266 -0.32910156 0 0 0 0
0.11260986 -0.035491943 -0.34912109 0 0 0 0
0.11474609 -0.035583496 -0.3503418 0 0 0 0
0.11657715 -0.035583496 -0.3503418 0 0 0 0
0.1184082 -0.035583496 -0.3503418 0 0 0 0
0.12054443 -0.035675049 -0.35131836 0 0 0 0
0.12237549 -0.035675049 -0.35131836 0 0 0 0
0.12420654 -0.035675049 -0.35131836 0 0 0 0
0.12597656 -0.035675049 -0.35131836 0 0 0 0
0.12817383 -0.035797119 -0.35229492 0 0 0 0
0.13000488 -0.035797119 -0.35229492 0 0 0 0
0.13183594 -0.035797119 -0.35229492 0 0 0 0
0.13366699 -0.035797119 -0.35229492 0 0 0 0
0.13549805 -0.035797119 -0.35229492 0 0 0 0
0.1373291 -0.035797119 -0.35229492 0 0 0 0
0.13916016 -0.035797119 -0.35229492 0 0 0 0
0.14099121 -0.035797119 -0.35229492 0 0 0 0
0.1427002 -0.035797119 -0.35229492 0 0 0 0
0.14453125 -0.035797119 -0.35229492 0 0 0 0
0.1463623 -0.035797119 -0.35229492 0 0 0 0
0.14782715 -0.035675049 -0.35131836 0 0 0 0
0.1496582 -0.035675049 -0.35131836 0 0 0 0
0.15148926 -0.035675049 -0.35131836 0 0 0 0
0.15332031 -0.035675049 -0.35131836 0 0 0 0
0.1550293 -0.035675049 -0.35131836 0 0 0 0
0.15686035 -0.035675049 -0.35131836 0 0 0 0
0.15869141 -0.035675049 -0.35131836 0 0 0 0
0.16052246 -0.035675049 -0.35131836 0 0 0 0
0.16235352 -0.035675049 -0.35131836 0 0 0 0
0.16418457 -0.035675049 -0.35131836 0 0 0 0
0.16601562 -0.035675049 -0.35131836 0 0 0 0
0.16784668 -0.035675049 -0.35131836 0 0 0 0
0.16967773 -0.035675049 -0.35131836 0 0 0 0
0.17150879 -0.035675049 -0.35131836 0 0 0 0
0.17333984 -0.035675049 -0.35131836 0 0 0 0
0.17504883 -0.035675049 -0.35131836 0 0 0 0
0.17687988 -0.035675049 -0.35131836 0 0 0 0
0.17871094 -0.035675049 -0.35131836 0 0 0 0
0.18054199 -0.035675049 -0.35131836 0 0 0 0
0.18237305 -0.035675049 -0.35131836 0 0 0 0
0.18371582 -0.035583496 -0.3503418 0 0 0 0
0.18554688 -0.035583496 -0.3503418 0 0 0 0
0.18725586 -0.035583496 -0.3503418 0 0 0 0
0.18908691 -0.035583496 -0.3503418 0 0 0 0
0.19091797 -0.035583496 -0.3503418 0 0 0 0
0.19274902 -0.035583496 -0.3503418 0 0 0 0
0.19458008 -0.035583496 -0.3503418 0 0 0 0
0.19641113 -0.035583496 -0.3503418 0 0 0 0
0.19824219 -0.035583496 -0.3503418 0 0 0 0
0.19995117 -0.035583496 -0.3503418 0 0 0 0
0.20178223 -0.035583496 -0.3503418 0 0 0 0
0.20361328 -0.035583496 -0.3503418 0 0 0 0
0.20605469 -0.035675049 -0.35131836 0 0 0 0
0.20788574 -0.035675049 -0.35131836 0 0 0 0
0.2097168 -0.035675049 -0.35131836 0 0 0 0
-0.0013589859 -0.038574219 -0.36132812 0 0 0 0
0.00051355362 -0.038696289 -0.36230469 0 0 0 0
0.0023899078 -0.038696289 -0.36230469 0 0 0 0
0.0042762756 -0.038787842 -0.36328125 0 0 0 0
0.0061759949 -0.038909912 -0.36425781 0 0 0 0
0.00806427 -0.038909912 -0.36425781 0 0 0 0
0.0099716187 -0.039001465 -0.36523438 0 0 0 0
0.011901855 -0.039123535 -0.36621094 0 0 0 0
0.013793945 -0.039123535 -0.36621094 0 0 0 0
0.015731812 -0.039215088 -0.36743164 0 0 0 0
0.01763916 -0.039215088 -0.36743164 0 0 0 0
0.03729248 -0.03793335 -0.35522461 0 0 0 0
0.039031982 -0.037841797 -0.35424805 0 0 0 0
0.040863037 -0.037841797 -0.35424805 0 0 0 0
0.042572021 -0.037719727 -0.35327148 0 0 0 0
0.044281006 -0.037628174 -0.35229492 0 0 0 0
0.045959473 -0.037506104 -0.35131836 0 0 0 0
0.047790527 -0.037506104 -0.35131836 0 0 0 0
0.049468994 -0.037414551 -0.3503418 0 0 0 0
0.051147461 -0.03729248 -0.34912109 0 0 0 0
0.05279541 -0.037200928 -0.34814453 0 0 0 0
0.054443359 -0.037078857 -0.34716797 0 0 0 0
0.056243896 -0.037078857 -0.34716797 0 0 0 0
0.057861328 -0.036987305 -0.34619141 0 0 0 0
0.059661865 -0.036987305 -0.34619141 0 0 0 0
0.061279297 -0.036865234 -0.34521484 0 0 0 0
0.063049316 -0.036865234 -0.34521484 0 0 0 0
0.06463623 -0.036773682 -0.34423828 0 0 0 0
0.06640625 -0.036773682 -0.34423828 0 0 0 0
0.068237305 -0.036773682 -0.34423828 0 0 0 0
0.069763184 -0.036651611 -0.34326172 0 0 0 0
0.071594238 -0.036651611 -0.34326172 0 0 0 0
0.073364258 -0.036651611 -0.34326172 0 0 0 0
0.074890137 -0.036529541 -0.34228516 0 0 0 0
0.076660156 -0.036529541 -0.34228516 0 0 0 0
0.078430176 -0.036529541 -0.34228516 0 0 0 0
0.08001709 -0.036437988 -0.34130859 0 0 0 0
0.081726074 -0.036437988 -0.34130859 0 0 0 0
0.083251953 -0.036315918 -0.34008789 0 0 0 0
0.084777832 -0.036224365 -0.33911133 0 0 0 0
0.085754395 -0.035888672 -0.33618164 0 0 0 0
0.087280273 -0.035797119 -0.33520508 0 0 0 0
0.088745117 -0.035675049 -0.33422852 0 0 0 0
0.090209961 -0.035583496 -0.33325195 0 0 0 0
0.09161377 -0.035461426 -0.33227539 0 0 0 0
0.093078613 -0.035369873 -0.33105469 0 0 0 0
0.094482422 -0.035247803 -0.33007812 0 0 0 0
0.096191406 -0.035247803 -0.33007812 0 0 0 0
0.097595215 -0.03515625 -0.32910156 0 0 0 0
0.099304199 -0.03515625 -0.32910156 0 0 0 0
0.10101318 -0.03515625 -0.32910156 0 0 0 0
0.10272217 -0.03515625 -0.32910156 0 0 0 0
0.10443115 -0.03515625 -0.32910156 0 0 0 0
0.11260986 -0.03729248 -0.34912109 0 0 0 0
0.11474609 -0.037414551 -0.3503418 0 0 0 0
0.11657715 -0.037414551 -0.3503418 0 0 0 0
0.1184082 -0.037414551 -0.3503418 0 0 0 0
0.12054443 -0.037506104 -0.35131836 0 0 0 0
0.12237549 -0.037506104 -0.35131836 0 0 0 0
0.12420654 -0.037506104 -0.35131836 0 0 0 0
0.12597656 -0.037506104 -0.35131836 0 0 0 0
0.12817383 -0.037628174 -0.35229492 0 0 0 0
0.13000488 -0.037628174 -0.35229492 0 0 0 0
0.13183594 -0.037628174 -0.35229492 0 0 0 0
0.13366699 -0.037628174 -0.35229492 0 0 0 0
0.13549805 -0.037628174 -0.35229492 0 0 0 0
0.1373291 -0.037628174 -0.35229492 0 0 0 0
0.13916016 -0.037628174 -0.35229492 0 0 0 0
0.14099121 -0.037628174 -0.35229492 0 0 0 0
0.14233398 -0.037506104 -0.35131836 0 0 0 0
0.14416504 -0.037506104 -0.35131836 0 0 0 0
0.14599609 -0.037506104 -0.35131836 0 0 0 0
0.14782715 -0.037506104 -0.35131836 0 0 0 0
0.1496582 -0.037506104 -0.35131836 0 0 0 0
0.15148926 -0.037506104 -0.35131836 0 0 0 0
0.15332031 -0.037506104 -0.35131836 0 0 0 0
0.1550293 -0.037506104 -0.35131836 0 0 0 0
0.15686035 -0.037506104 -0.35131836 0 0 0 0
0.15869141 -0.037506104 -0.35131836 0 0 0 0
0.16052246 -0.037506104 -0.35131836 0 0 0 0
0.16235352 -0.037506104 -0.35131836 0 0 0 0
0.16418457 -0.037506104 -0.35131836 0 0 0 0
0.16601562 -0.037506104 -0.35131836 0 0 0 0
0.16784668 -0.037506104 -0.35131836 0 0 0 0
0.16967773 -0.037506104 -0.35131836 0 0 0 0
0.17150879 -0.037506104 -0.35131836 0 0 0 0
0.17333984 -0.037506104 -0.35131836 0 0 0 0
0.17504883 -0.037506104 -0.35131836 0 0 0 0
0.17687988 -0.037506104 -0.35131836 0 0 0 0
0.17871094 -0.037506104 -0.35131836 0 0 0 0
0.18054199 -0.037506104 -0.35131836 0 0 0 0
0.18237305 -0.037506104 -0.35131836 0 0 0 0
0.18371582 -0.037414551 -0.3503418 0 0 0 0
0.18554688 -0.037414551 -0.3503418 0 0 0 0
0.18725586 -0.037414551 -0.3503418 0 0 0 0
0.18908691 -0.037414551 -0.3503418 0 0 0 0
0.19091797 -0.037414551 -0.3503418 0 0 0 0
0.19274902 -0.037414551 -0.3503418 0 0 0 0
0.19458008 -0.037414551 -0.3503418 0 0 0 0
0.19641113 -0.037414551 -0.3503418 0 0 0 0
0.19824219 -0.037414551 -0.3503418 0 0 0 0
0.19995117 -0.037414551 -0.3503418 0 0 0 0
0.20178223 -0.037414551 -0.3503418 0 0 0 0
0.20422363 -0.037506104 -0.35131836 0 0 0 0
0.20605469 -0.037506104 -0.35131836 0 0 0 0
0.20788574 -0.037506104 -0.35131836 0 0 0 0
-0.0013589859 -0.040466309 -0.36132812 0 0 0 0
0.00051212311 -0.040466309 -0.36132812 0 0 0 0
0.0023899078 -0.040557861 -0.36230469 0 0 0 0
0.0042648315 -0.040557861 -0.36230469 0 0 0 0
0.0061569214 -0.040679932 -0.36328125 0 0 0 0
0.00806427 -0.040802002 -0.36425781 0 0 0 0
0.0099716187 -0.040893555 -0.36523438 0 0 0 0
0.011863708 -0.040893555 -0.36523438 0 0 0 0
0.013793945 -0.041015625 -0.36621094 0 0 0 0
0.015686035 -0.041015625 -0.36621094 0 0 0 0
0.01763916 -0.041137695 -0.36743164 0 0 0 0
0.019546509 -0.041137695 -0.36743164 0 0 0 0
0.03729248 -0.039764404 -0.35522461 0 0 0 0
0.039031982 -0.039672852 -0.35424805 0 0 0 0
0.040863037 -0.039672852 -0.35424805 0 0 0 0
0.042572021 -0.039550781 -0.35327148 0 0 0 0
0.044281006 -0.039428711 -0.35229492 0 0 0 0
0.046112061 -0.039428711 -0.35229492 0 0 0 0
0.047790527 -0.039337158 -0.35131836 0 0 0 0
0.049468994 -0.039215088 -0.3503418 0 0 0 0
0.051147461 -0.039093018 -0.34912109 0 0 0 0
0.05279541 -0.039001465 -0.34814453 0 0 0 0
0.054443359 -0.038879395 -0.34716797 0 0 0 0
0.056243896 -0.038879395 -0.34716797 0 0 0 0
0.057861328 -0.038757324 -0.34619141 0 0 0 0
0.05947876 -0.038665771 -0.34521484 0 0 0 0
0.061279297 -0.038665771 -0.34521484 0 0 0 0
0.063049316 -0.038665771 -0.34521484 0 0 0 0
0.06463623 -0.038543701 -0.34423828 0 0 0 0
0.06640625 -0.038543701 -0.34423828 0 0 0 0
0.067993164 -0.038421631 -0.34326172 0 0 0 0
0.069763184 -0.038421631 -0.34326172 0 0 0 0
0.071594238 -0.038421631 -0.34326172 0 0 0 0
0.073120117 -0.038330078 -0.34228516 0 0 0 0
0.074890137 -0.038330078 -0.34228516 0 0 0 0
0.076660156 -0.038330078 -0.34228516 0 0 0 0
0.078430176 -0.038330078 -0.34228516 0 0 0 0
0.080200195 -0.038330078 -0.34228516 0 0 0 0
0.081726074 -0.038208008 -0.34130859 0 0 0 0
0.083496094 -0.038208008 -0.34130859 0 0 0 0
0.085021973 -0.038085938 -0.34008789 0 0 0 0
0.08605957 -0.037750244 -0.3371582 0 0 0 0
0.086975098 -0.037414551 -0.33422852 0 0 0 0
0.088439941 -0.03729248 -0.33325195 0 0 0 0
0.089904785 -0.037200928 -0.33227539 0 0 0 0
0.091369629 -0.037078857 -0.33105469 0 0 0 0
0.093078613 -0.037078857 -0.33105469 0 0 0 0
0.094482422 -0.036956787 -0.33007812 0 0 0 0
0.095947266 -0.036865234 -0.32910156 0 0 0 0
0.097595215 -0.036865234 -0.32910156 0 0 0 0
0.099304199 -0.036865234 -0.32910156 0 0 0 0
0.10070801 -0.036743164 -0.328125 0 0 0 0
0.10272217 -0.036865234 -0.32910156 0 0 0 0
0.10443115 -0.036865234 -0.32910156 0 0 0 0
0.11260986 -0.039093018 -0.34912109 0 0 0 0
0.11474609 -0.039215088 -0.3503418 0 0 0 0
0.11657715 -0.039215088 -0.3503418 0 0 0 0
0.1184082 -0.039215088 -0.3503418 0 0 0 0
0.12054443 -0.039337158 -0.35131836 0 0 0 0
0.12237549 -0.039337158 -0.35131836 0 0 0 0
0.12420654 -0.039337158 -0.35131836 0 0 0 0
0.12597656 -0.039337158 -0.35131836 0 0 0 0
0.12780762 -0.039337158 -0.35131836 0 0 0 0
0.13000488 -0.039428711 -0.35229492 0 0 0 0
0.13183594 -0.039428711 -0.35229492 0 0 0 0
0.13366699 -0.039428711 -0.35229492 0 0 0 0
0.13549805 -0.039428711 -0.35229492 0 0 0 0
0.1373291 -0.039428711 -0.35229492 0 0 0 0
0.13867188 -0.039337158 -0.35131836 0 0 0 0
0.14050293 -0.039337158 -0.35131836 0 0 0 0
0.14233398 -0.039337158 -0.35131836 0 0 0 0
0.14416504 -0.039337158 -0.35131836 0 0 0 0
0.14599609 -0.039337158 -0.35131836 0 0 0 0
0.14782715 -0.039337158 -0.35131836 0 0 0 0
0.1496582 -0.039337158 -0.35131836 0 0 0 0
0.15148926 -0.039337158 -0.35131836 0 0 0 0
0.15332031 -0.039337158 -0.35131836 0 0 0 0
0.1550293 -0.039337158 -0.35131836 0 0 0 0
0.15686035 -0.039337158 -0.35131836 0 0 0 0
0.15869141 -0.039337158 -0.35131836 0 0 0 0
0.16052246 -0.039337158 -0.35131836 0 0 0 0
0.16235352 -0.039337158 -0.35131836 0 0 0 0
0.16418457 -0.039337158 -0.35131836 0 0 0 0
0.16601562 -0.039337158 -0.35131836 0 0 0 0
0.16784668 -0.039337158 -0.35131836 0 0 0 0
0.16967773 -0.039337158 -0.35131836 0 0 0 0
0.17150879 -0.039337158 -0.35131836 0 0 0 0
0.17333984 -0.039337158 -0.35131836 0 0 0 0
0.17504883 -0.039337158 -0.35131836 0 0 0 0
0.17687988 -0.039337158 -0.35131836 0 0 0 0
0.17871094 -0.039337158 -0.35131836 0 0 0 0
0.18054199 -0.039337158 -0.35131836 0 0 0 0
0.18188477 -0.039215088 -0.3503418 0 0 0 0
0.18371582 -0.039215088 -0.3503418 0 0 0 0
0.18554688 -0.039215088 -0.3503418 0 0 0 0
0.18725586 -0.039215088 -0.3503418 0 0 0 0
0.18908691 -0.039215088 -0.3503418 0 0 0 0
0.19091797 -0.039215088 -0.3503418 0 0 0 0
0.19274902 -0.039215088 -0.3503418 0 0 0 0
0.19458008 -0.039215088 -0.3503418 0 0 0 0
0.19641113 -0.039215088 -0.3503418 0 0 0 0
0.19824219 -0.039215088 -0.3503418 0 0 0 0
0.19995117 -0.039215088 -0.3503418 0 0 0 0
0.20178223 -0.039215088 -0.3503418 0 0 0 0
0.20422363 -0.039337158 -0.35131836 0 0 0 0
0.20605469 -0.039337158 -0.35131836 0 0 0 0
0.00051212311 -0.042327881 -0.36132812 0 0 0 0
0.0023822784 -0.042327881 -0.36132812 0 0 0 0
0.0042648315 -0.042449951 -0.36230469 0 0 0 0
0.0061569214 -0.042572021 -0.36328125 0 0 0 0
0.00806427 -0.042663574 -0.36425781 0 0 0 0
0.0099487305 -0.042663574 -0.36425781 0 0 0 0
0.011863708 -0.042785645 -0.36523438 0 0 0 0
0.013793945 -0.042907715 -0.36621094 0 0 0 0
0.015686035 -0.042907715 -0.36621094 0 0 0 0
0.017593384 -0.042907715 -0.36621094 0 0 0 0
0.019485474 -0.042907715 -0.36621094 0 0 0 0
0.039031982 -0.041503906 -0.35424805 0 0 0 0
0.040863037 -0.041503906 -0.35424805 0 0 0 0
0.042572021 -0.041381836 -0.35327148 0 0 0 0
0.044403076 -0.041381836 -0.35327148 0 0 0 0
0.046112061 -0.041259766 -0.35229492 0 0 0 0
0.047790527 -0.041137695 -0.35131836 0 0 0 0
0.049468994 -0.041015625 -0.3503418 0 0 0 0
0.051147461 -0.040924072 -0.34912109 0 0 0 0
0.05279541 -0.040802002 -0.34814453 0 0 0 0
0.054443359 -0.040679932 -0.34716797 0 0 0 0
0.056243896 -0.040679932 -0.34716797 0 0 0 0
0.057861328 -0.040557861 -0.34619141 0 0 0 0
0.05947876 -0.040435791 -0.34521484 0 0 0 0
0.061279297 -0.040435791 -0.34521484 0 0 0 0
0.062866211 -0.040313721 -0.34423828 0 0 0 0
0.06463623 -0.040313721 -0.34423828 0 0 0 0
0.066223145 -0.040222168 -0.34326172 0 0 0 0
0.067993164 -0.040222168 -0.34326172 0 0 0 0
0.069580078 -0.040100098 -0.34228516 0 0 0 0
0.071350098 -0.040100098 -0.34228516 0 0 0 0
0.073120117 -0.040100098 -0.34228516 0 0 0 0
0.074890137 -0.040100098 -0.34228516 0 0 0 0
0.076660156 -0.040100098 -0.34228516 0 0 0 0
0.078430176 -0.040100098 -0.34228516 0 0 0 0
0.080200195 -0.040100098 -0.34228516 0 0 0 0
0.081970215 -0.040100098 -0.34228516 0 0 0 0
0.083740234 -0.040100098 -0.34228516 0 0 0 0
0.085266113 -0.039978027 -0.34130859 0 0 0 0
0.08605957 -0.039489746 -0.3371582 0 0 0 0
0.086975098 -0.039154053 -0.33422852 0 0 0 0
0.088439941 -0.039031982 -0.33325195 0 0 0 0
0.089904785 -0.038909912 -0.33227539 0 0 0 0
0.091369629 -0.038787842 -0.33105469 0 0 0 0
0.092773438 -0.038665771 -0.33007812 0 0 0 0
0.094482422 -0.038665771 -0.33007812 0 0 0 0
0.095947266 -0.038574219 -0.32910156 0 0 0 0
0.097595215 -0.038574219 -0.32910156 0 0 0 0
0.098999023 -0.038452148 -0.328125 0 0 0 0
0.10070801 -0.038452148 -0.328125 0 0 0 0
0.10241699 -0.038452148 -0.328125 0 0 0 0
0.10412598 -0.038452148 -0.328125 0 0 0 0
0.11297607 -0.041015625 -0.3503418 0 0 0 0
0.11474609 -0.041015625 -0.3503418 0 0 0 0
0.11657715 -0.041015625 -0.3503418 0 0 0 0
0.1184082 -0.041015625 -0.3503418 0 0 0 0
0.12054443 -0.041137695 -0.35131836 0 0 0 0
0.12237549 -0.041137695 -0.35131836 0 0 0 0
0.12420654 -0.041137695 -0.35131836 0 0 0 0
0.12597656 -0.041137695 -0.35131836 0 0 0 0
0.12780762 -0.041137695 -0.35131836 0 0 0 0
0.12963867 -0.041137695 -0.35131836 0 0 0 0
0.13146973 -0.041137695 -0.35131836 0 0 0 0
0.13330078 -0.041137695 -0.35131836 0 0 0 0
0.13513184 -0.041137695 -0.35131836 0 0 0 0
0.13684082 -0.041137695 -0.35131836 0 0 0 0
0.13867188 -0.041137695 -0.35131836 0 0 0 0
0.14050293 -0.041137695 -0.35131836 0 0 0 0
0.14233398 -0.041137695 -0.35131836 0 0 0 0
0.14416504 -0.041137695 -0.35131836 0 0 0 0
0.14599609 -0.041137695 -0.35131836 0 0 0 0
0.14782715 -0.041137695 -0.35131836 0 0 0 0
0.1496582 -0.041137695 -0.35131836 0 0 0 0
0.15148926 -0.041137695 -0.35131836 0 0 0 0
0.15332031 -0.041137695 -0.35131836 0 0 0 0
0.1550293 -0.041137695 -0.35131836 0 0 0 0
0.15686035 -0.041137695 -0.35131836 0 0 0 0
0.15869141 -0.041137695 -0.35131836 0 0 0 0
0.16052246 -0.041137695 -0.35131836 0 0 0 0
0.16235352 -0.041137695 -0.35131836 0 0 0 0
0.16418457 -0.041137695 -0.35131836 0 0 0 0
0.16601562 -0.041137695 -0.35131836 0 0 0 0
0.16784668 -0.041137695 -0.35131836 0 0 0 0
0.16967773 -0.041137695 -0.35131836 0 0 0 0
0.17150879 -0.041137695 -0.35131836 0 0 0 0
0.17333984 -0.041137695 -0.35131836 0 0 0 0
0.17504883 -0.041137695 -0.35131836 0 0 0 0
0.17687988 -0.041137695 -0.35131836 0 0 0 0
0.17871094 -0.041137695 -0.35131836 0 0 0 0
0.18054199 -0.041137695 -0.35131836 0 0 0 0
0.18188477 -0.041015625 -0.3503418 0 0 0 0
0.18371582 -0.041015625 -0.3503418 0 0 0 0
0.18554688 -0.041015625 -0.3503418 0 0 0 0
0.18725586 -0.041015625 -0.3503418 0 0 0 0
0.18908691 -0.041015625 -0.3503418 0 0 0 0
0.19091797 -0.041015625 -0.3503418 0 0 0 0
0.19274902 -0.041015625 -0.3503418 0 0 0 0
0.19458008 -0.041015625 -0.3503418 0 0 0 0
0.19641113 -0.041015625 -0.3503418 0 0 0 0
0.19824219 -0.041015625 -0.3503418 0 0 0 0
0.19995117 -0.041015625 -0.3503418 0 0 0 0
0.20178223 -0.041015625 -0.3503418 0 0 0 0
0.20422363 -0.041137695 -0.35131836 0 0 0 0
0.20605469 -0.041137695 -0.35131836 0 0 0 0
-0.012268066 -0.04309082 -0.35229492 0 0 0 0
-0.010475159 -0.043212891 -0.35327148 0 0 0 0
0.0042648315 -0.044311523 -0.36230469 0 0 0 0
0.0061569214 -0.044433594 -0.36328125 0 0 0 0
0.0080413818 -0.044433594 -0.36328125 0 0 0 0
0.0099487305 -0.044555664 -0.36425781 0 0 0 0
0.011863708 -0.044677734 -0.36523438 0 0 0 0
0.013755798 -0.044677734 -0.36523438 0 0 0 0
0.015655518 -0.044677734 -0.36523438 0 0 0 0
0.017593384 -0.044799805 -0.36621094 0 0 0 0
0.019485474 -0.044799805 -0.36621094 0 0 0 0
0.039031982 -0.043334961 -0.35424805 0 0 0 0
0.040863037 -0.043334961 -0.35424805 0 0 0 0
0.042572021 -0.043212891 -0.35327148 0 0 0 0
0.044403076 -0.043212891 -0.35327148 0 0 0 0
0.046112061 -0.04309082 -0.35229492 0 0 0 0
0.047912598 -0.04309082 -0.35229492 0 0 0 0
0.049621582 -0.04296875 -0.35131836 0 0 0 0
0.051269531 -0.04284668 -0.3503418 0 0 0 0
0.052947998 -0.042724609 -0.34912109 0 0 0 0
0.054595947 -0.042602539 -0.34814453 0 0 0 0
0.056243896 -0.042480469 -0.34716797 0 0 0 0
0.057861328 -0.042358398 -0.34619141 0 0 0 0
0.05947876 -0.042236328 -0.34521484 0 0 0 0
0.061279297 -0.042236328 -0.34521484 0 0 0 0
0.062866211 -0.042114258 -0.34423828 0 0 0 0
0.064453125 -0.041992188 -0.34326172 0 0 0 0
0.066223145 -0.041992188 -0.34326172 0 0 0 0
0.067810059 -0.041870117 -0.34228516 0 0 0 0
0.069580078 -0.041870117 -0.34228516 0 0 0 0
0.071166992 -0.041748047 -0.34130859 0 0 0 0
0.072937012 -0.041748047 -0.34130859 0 0 0 0
0.074707031 -0.041748047 -0.34130859 0 0 0 0
0.076477051 -0.041748047 -0.34130859 0 0 0 0
0.07824707 -0.041748047 -0.34130859 0 0 0 0
0.080200195 -0.041870117 -0.34228516 0 0 0 0
0.082214355 -0.041992188 -0.34326172 0 0 0 0
0.083984375 -0.041992188 -0.34326172 0 0 0 0
0.08581543 -0.041992188 -0.34326172 0 0 0 0
0.087585449 -0.041992188 -0.34326172 0 0 0 0
0.086975098 -0.040893555 -0.33422852 0 0 0 0
0.088195801 -0.040649414 -0.33227539 0 0 0 0
0.089904785 -0.040649414 -0.33227539 0 0 0 0
0.091369629 -0.040496826 -0.33105469 0 0 0 0
0.092773438 -0.040374756 -0.33007812 0 0 0 0
0.094482422 -0.040374756 -0.33007812 0 0 0 0
0.095947266 -0.040252686 -0.32910156 0 0 0 0
0.097595215 -0.040252686 -0.32910156 0 0 0 0
0.098999023 -0.040130615 -0.328125 0 0 0 0
0.10070801 -0.040130615 -0.328125 0 0 0 0
0.10241699 -0.040130615 -0.328125 0 0 0 0
0.11114502 -0.04284668 -0.3503418 0 0 0 0
0.11297607 -0.04284668 -0.3503418 0 0 0 0
0.11474609 -0.04284668 -0.3503418 0 0 0 0
0.11657715 -0.04284668 -0.3503418 0 0 0 0
0.1184082 -0.04284668 -0.3503418 0 0 0 0
0.12054443 -0.04296875 -0.35131836 0 0 0 0
0.12237549 -0.04296875 -0.35131836 0 0 0 0
0.12420654 -0.04296875 -0.35131836 0 0 0 0
0.12597656 -0.04296875 -0.35131836 0 0 0 0
0.12780762 -0.04296875 -0.35131836 0 0 0 0
0.12963867 -0.04296875 -0.35131836 0 0 0 0
0.13146973 -0.04296875 -0.35131836 0 0 0 0
0.13330078 -0.04296875 -0.35131836 0 0 0 0
0.13513184 -0.04296875 -0.35131836 0 0 0 0
0.13684082 -0.04296875 -0.35131836 0 0 0 0
0.13867188 -0.04296875 -0.35131836 0 0 0 0
0.14050293 -0.04296875 -0.35131836 0 0 0 0
0.14233398 -0.04296875 -0.35131836 0 0 0 0
0.14416504 -0.04296875 -0.35131836 0 0 0 0
0.14599609 -0.04296875 -0.35131836 0 0 0 0
0.14782715 -0.04296875 -0.35131836 0 0 0 0
0.1496582 -0.04296875 -0.35131836 0 0 0 0
0.15148926 -0.04296875 -0.35131836 0 0 0 0
0.15332031 -0.04296875 -0.35131836 0 0 0 0
0.1550293 -0.04296875 -0.35131836 0 0 0 0
0.15686035 -0.04296875 -0.35131836 0 0 0 0
0.15869141 -0.04296875 -0.35131836 0 0 0 0
0.16052246 -0.04296875 -0.35131836 0 0 0 0
0.16235352 -0.04296875 -0.35131836 0 0 0 0
0.16418457 -0.04296875 -0.35131836 0 0 0 0
0.16601562 -0.04296875 -0.35131836 0 0 0 0
0.16784668 -0.04296875 -0.35131836 0 0 0 0
0.16967773 -0.04296875 -0.35131836 0 0 0 0
0.17150879 -0.04296875 -0.35131836 0 0 0 0
0.17333984 -0.04296875 -0.35131836 0 0 0 0
0.17504883 -0.04296875 -0.35131836 0 0 0 0
0.17687988 -0.04296875 -0.35131836 0 0 0 0
0.17871094 -0.04296875 -0.35131836 0 0 0 0
0.18005371 -0.04284668 -0.3503418 0 0 0 0
0.18188477 -0.04284668 -0.3503418 0 0 0 0
0.18371582 -0.04284668 -0.3503418 0 0 0 0
0.18554688 -0.04284668 -0.3503418 0 0 0 0
0.18725586 -0.04284668 -0.3503418 0 0 0 0
0.18908691 -0.04284668 -0.3503418 0 0 0 0
0.19091797 -0.04284668 -0.3503418 0 0 0 0
0.19274902 -0.04284668 -0.3503418 0 0 0 0
0.19458008 -0.04284668 -0.3503418 0 0 0 0
0.19641113 -0.04284668 -0.3503418 0 0 0 0
0.19824219 -0.04284668 -0.3503418 0 0 0 0
0.19995117 -0.04284668 -0.3503418 0 0 0 0
0.20178223 -0.04284668 -0.3503418 0 0 0 0
0.20361328 -0.04284668 -0.3503418 0 0 0 0
0.20605469 -0.04296875 -0.35131836 0 0 0 0
-0.019561768 -0.044921875 -0.35229492 0 0 0 0
-0.017745972 -0.044921875 -0.35229492 0 0 0 0
-0.015869141 -0.044799805 -0.35131836 0 0 0 0
-0.014053345 -0.044799805 -0.35131836 0 0 0 0
-0.012268066 -0.044921875 -0.35229492 0 0 0 0
-0.010444641 -0.044921875 -0.35229492 0 0 0 0
-0.0086212158 -0.044921875 -0.35229492 0 0 0 0
-0.0067977905 -0.044921875 -0.35229492 0 0 0 0
0.0080413818 -0.046325684 -0.36328125 0 0 0 0
0.0099487305 -0.046447754 -0.36425781 0 0 0 0
0.011833191 -0.046447754 -0.36425781 0 0 0 0
0.013755798 -0.046569824 -0.36523438 0 0 0 0
0.015655518 -0.046569824 -0.36523438 0 0 0 0
0.017547607 -0.046569824 -0.36523438 0 0 0 0
0.019439697 -0.046569824 -0.36523438 0 0 0 0
0.039031982 -0.045166016 -0.35424805 0 0 0 0
0.040863037 -0.045166016 -0.35424805 0 0 0 0
0.042694092 -0.045166016 -0.35424805 0 0 0 0
0.044403076 -0.045043945 -0.35327148 0 0 0 0
0.046234131 -0.045043945 -0.35327148 0 0 0 0
0.047912598 -0.044921875 -0.35229492 0 0 0 0
0.049621582 -0.044799805 -0.35131836 0 0 0 0
0.051269531 -0.044647217 -0.3503418 0 0 0 0
0.052947998 -0.044525146 -0.34912109 0 0 0 0
0.054595947 -0.044403076 -0.34814453 0 0 0 0
0.056243896 -0.044281006 -0.34716797 0 0 0 0
0.057861328 -0.044158936 -0.34619141 0 0 0 0
0.05947876 -0.044006348 -0.34521484 0 0 0 0
0.061279297 -0.044006348 -0.34521484 0 0 0 0
0.062866211 -0.043884277 -0.34423828 0 0 0 0
0.064453125 -0.043762207 -0.34326172 0 0 0 0
0.066040039 -0.043640137 -0.34228516 0 0 0 0
0.067810059 -0.043640137 -0.34228516 0 0 0 0
0.069396973 -0.043518066 -0.34130859 0 0 0 0
0.071166992 -0.043518066 -0.34130859 0 0 0 0
0.072692871 -0.043365479 -0.34008789 0 0 0 0
0.074462891 -0.043365479 -0.34008789 0 0 0 0
0.07623291 -0.043365479 -0.34008789 0 0 0 0
0.07800293 -0.043365479 -0.34008789 0 0 0 0
0.08001709 -0.043518066 -0.34130859 0 0 0 0
0.082214355 -0.043762207 -0.34326172 0 0 0 0
0.083984375 -0.043762207 -0.34326172 0 0 0 0
0.08581543 -0.043762207 -0.34326172 0 0 0 0
0.088195801 -0.042358398 -0.33227539 0 0 0 0
0.089660645 -0.042236328 -0.33105469 0 0 0 0
0.091369629 -0.042236328 -0.33105469 0 0 0 0
0.092773438 -0.04208374 -0.33007812 0 0 0 0
0.094238281 -0.04196167 -0.32910156 0 0 0 0
0.095947266 -0.04196167 -0.32910156 0 0 0 0
0.097595215 -0.04196167 -0.32910156 0 0 0 0
0.098999023 -0.0418396 -0.328125 0 0 0 0
0.10070801 -0.0418396 -0.328125 0 0 0 0
0.11114502 -0.044647217 -0.3503418 0 0 0 0
0.11297607 -0.044647217 -0.3503418 0 0 0 0
0.11474609 -0.044647217 -0.3503418 0 0 0 0
0.11657715 -0.044647217 -0.3503418 0 0 0 0
0.1184082 -0.044647217 -0.3503418 0 0 0 0
0.12054443 -0.044799805 -0.35131836 0 0 0 0
0.12237549 -0.044799805 -0.35131836 0 0 0 0
0.12420654 -0.044799805 -0.35131836 0 0 0 0
0.12597656 -0.044799805 -0.35131836 0 0 0 0
0.12780762 -0.044799805 -0.35131836 0 0 0 0
0.12963867 -0.044799805 -0.35131836 0 0 0 0
0.13146973 -0.044799805 -0.35131836 0 0 0 0
0.13330078 -0.044799805 -0.35131836 0 0 0 0
0.13513184 -0.044799805 -0.35131836 0 0 0 0
0.13684082 -0.044799805 -0.35131836 0 0 0 0
0.13867188 -0.044799805 -0.35131836 0 0 0 0
0.14050293 -0.044799805 -0.35131836 0 0 0 0
0.14233398 -0.044799805 -0.35131836 0 0 0 0
0.14416504 -0.044799805 -0.35131836 0 0 0 0
0.14599609 -0.044799805 -0.35131836 0 0 0 0
0.14782715 -0.044799805 -0.35131836 0 0 0 0
0.1496582 -0.044799805 -0.35131836 0 0 0 0
0.15148926 -0.044799805 -0.35131836 0 0 0 0
0.15332031 -0.044799805 -0.35131836 0 0 0 0
0.1550293 -0.044799805 -0.35131836 0 0 0 0
0.15686035 -0.044799805 -0.35131836 0 0 0 0
0.15869141 -0.044799805 -0.35131836 0 0 0 0
0.16052246 -0.044799805 -0.35131836 0 0 0 0
0.16235352 -0.044799805 -0.35131836 0 0 0 0
0.16418457 -0.044799805 -0.35131836 0 0 0 0
0.16601562 -0.044799805 -0.35131836 0 0 0 0
0.16784668 -0.044799805 -0.35131836 0 0 0 0
0.16967773 -0.044799805 -0.35131836 0 0 0 0
0.17150879 -0.044799805 -0.35131836 0 0 0 0
0.17333984 -0.044799805 -0.35131836 0 0 0 0
0.17504883 -0.044799805 -0.35131836 0 0 0 0
0.17687988 -0.044799805 -0.35131836 0 0 0 0
0.17822266 -0.044647217 -0.3503418 0 0 0 0
0.18005371 -0.044647217 -0.3503418 0 0 0 0
0.18188477 -0.044647217 -0.3503418 0 0 0 0
0.18371582 -0.044647217 -0.3503418 0 0 0 0
0.18554688 -0.044647217 -0.3503418 0 0 0 0
0.18725586 -0.044647217 -0.3503418 0 0 0 0
0.18908691 -0.044647217 -0.3503418 0 0 0 0
0.19091797 -0.044647217 -0.3503418 0 0 0 0
0.19274902 -0.044647217 -0.3503418 0 0 0 0
0.19458008 -0.044647217 -0.3503418 0 0 0 0
0.19641113 -0.044647217 -0.3503418 0 0 0 0
0.19824219 -0.044647217 -0.3503418 0 0 0 0
0.19995117 -0.044647217 -0.3503418 0 0 0 0
0.20178223 -0.044647217 -0.3503418 0 0 0 0
0.20361328 -0.044647217 -0.3503418 0 0 0 0
-0.023208618 -0.04675293 -0.35229492 0 0 0 0
-0.021392822 -0.04675293 -0.35229492 0 0 0 0
-0.019561768 -0.04675293 -0.35229492 0 0 0 0
-0.017684937 -0.046600342 -0.35131836 0 0 0 0
-0.015869141 -0.046600342 -0.35131836 0 0 0 0
-0.014053345 -0.046600342 -0.35131836 0 0 0 0
-0.012237549 -0.046600342 -0.35131836 0 0 0 0
-0.010414124 -0.046600342 -0.35131836 0 0 0 0
-0.0086212158 -0.04675293 -0.35229492 0 0 0 0
-0.0067977905 -0.04675293 -0.35229492 0 0 0 0
0.013725281 -0.048339844 -0.36425781 0 0 0 0
0.015609741 -0.048339844 -0.36425781 0 0 0 0
0.017547607 -0.048461914 -0.36523438 0 0 0 0
0.019439697 -0.048461914 -0.36523438 0 0 0 0
0.039031982 -0.04699707 -0.35424805 0 0 0 0
0.040863037 -0.04699707 -0.35424805 0 0 0 0
0.042694092 -0.04699707 -0.35424805 0 0 0 0
0.044525146 -0.04699707 -0.35424805 0 0 0 0
0.046234131 -0.046875 -0.35327148 0 0 0 0
0.048065186 -0.046875 -0.35327148 0 0 0 0
0.049621582 -0.046600342 -0.35131836 0 0 0 0
0.051269531 -0.046478271 -0.3503418 0 0 0 0
0.052947998 -0.046325684 -0.34912109 0 0 0 0
0.054595947 -0.046203613 -0.34814453 0 0 0 0
0.056243896 -0.046081543 -0.34716797 0 0 0 0
0.057861328 -0.045928955 -0.34619141 0 0 0 0
0.05947876 -0.045806885 -0.34521484 0 0 0 0
0.061279297 -0.045806885 -0.34521484 0 0 0 0
0.062866211 -0.045684814 -0.34423828 0 0 0 0
0.064453125 -0.045532227 -0.34326172 0 0 0 0
0.066040039 -0.045410156 -0.34228516 0 0 0 0
0.067626953 -0.045288086 -0.34130859 0 0 0 0
0.069152832 -0.045135498 -0.34008789 0 0 0 0
0.070922852 -0.045135498 -0.34008789 0 0 0 0
0.072692871 -0.045135498 -0.34008789 0 0 0 0
0.07421875 -0.045013428 -0.33911133 0 0 0 0
0.07598877 -0.045013428 -0.33911133 0 0 0 0
0.077758789 -0.045013428 -0.33911133 0 0 0 0
0.079772949 -0.045135498 -0.34008789 0 0 0 0
0.081970215 -0.045410156 -0.34228516 0 0 0 0
0.083984375 -0.045532227 -0.34326172 0 0 0 0
0.091064453 -0.043823242 -0.33007812 0 0 0 0
0.092773438 -0.043823242 -0.33007812 0 0 0 0
0.094238281 -0.043670654 -0.32910156 0 0 0 0
0.095947266 -0.043670654 -0.32910156 0 0 0 0
0.097595215 -0.043670654 -0.32910156 0 0 0 0
0.10778809 -0.046600342 -0.35131836 0 0 0 0
0.10961914 -0.046600342 -0.35131836 0 0 0 0
0.11114502 -0.046478271 -0.3503418 0 0 0 0
0.11297607 -0.046478271 -0.3503418 0 0 0 0
0.11474609 -0.046478271 -0.3503418 0 0 0 0
0.11657715 -0.046478271 -0.3503418 0 0 0 0
0.11871338 -0.046600342 -0.35131836 0 0 0 0
0.12054443 -0.046600342 -0.35131836 0 0 0 0
0.12237549 -0.046600342 -0.35131836 0 0 0 0
0.12420654 -0.046600342 -0.35131836 0 0 0 0
0.12597656 -0.046600342 -0.35131836 0 0 0 0
0.12780762 -0.046600342 -0.35131836 0 0 0 0
0.12963867 -0.046600342 -0.35131836 0 0 0 0
0.13146973 -0.046600342 -0.35131836 0 0 0 0
0.13330078 -0.046600342 -0.35131836 0 0 0 0
0.13513184 -0.046600342 -0.35131836 0 0 0 0
0.13684082 -0.046600342 -0.35131836 0 0 0 0
0.13867188 -0.046600342 -0.35131836 0 0 0 0
0.14050293 -0.046600342 -0.35131836 0 0 0 0
0.14233398 -0.046600342 -0.35131836 0 0 0 0
0.14416504 -0.046600342 -0.35131836 0 0 0 0
0.14599609 -0.046600342 -0.35131836 0 0 0 0
0.14782715 -0.046600342 -0.35131836 0 0 0 0
0.1496582 -0.046600342 -0.35131836 0 0 0 0
0.15148926 -0.046600342 -0.35131836 0 0 0 0
0.15332031 -0.046600342 -0.35131836 0 0 0 0
0.1550293 -0.046600342 -0.35131836 0 0 0 0
0.15686035 -0.046600342 -0.35131836 0 0 0 0
0.15869141 -0.046600342 -0.35131836 0 0 0 0
0.16052246 -0.046600342 -0.35131836 0 0 0 0
0.16235352 -0.046600342 -0.35131836 0 0 0 0
0.16418457 -0.046600342 -0.35131836 0 0 0 0
0.16601562 -0.046600342 -0.35131836 0 0 0 0
0.16784668 -0.046600342 -0.35131836 0 0 0 0
0.16967773 -0.046600342 -0.35131836 0 0 0 0
0.17102051 -0.046478271 -0.3503418 0 0 0 0
0.17272949 -0.046478271 -0.3503418 0 0 0 0
0.17456055 -0.046478271 -0.3503418 0 0 0 0
0.1763916 -0.046478271 -0.3503418 0 0 0 0
0.17822266 -0.046478271 -0.3503418 0 0 0 0
0.18005371 -0.046478271 -0.3503418 0 0 0 0
0.18188477 -0.046478271 -0.3503418 0 0 0 0
0.18371582 -0.046478271 -0.3503418 0 0 0 0
0.18554688 -0.046478271 -0.3503418 0 0 0 0
0.18725586 -0.046478271 -0.3503418 0 0 0 0
0.18908691 -0.046478271 -0.3503418 0 0 0 0
0.19091797 -0.046478271 -0.3503418 0 0 0 0
0.19274902 -0.046478271 -0.3503418 0 0 0 0
0.19458008 -0.046478271 -0.3503418 0 0 0 0
0.19641113 -0.046478271 -0.3503418 0 0 0 0
0.19824219 -0.046478271 -0.3503418 0 0 0 0
0.19995117 -0.046478271 -0.3503418 0 0 0 0
0.20178223 -0.046478271 -0.3503418 0 0 0 0
-0.025115967 -0.048706055 -0.35327148 0 0 0 0
-0.023208618 -0.048553467 -0.35229492 0 0 0 0
-0.021392822 -0.048553467 -0.35229492 0 0 0 0
-0.019500732 -0.048431396 -0.35131836 0 0 0 0
-0.017684937 -0.048431396 -0.35131836 0 0 0 0
-0.015869141 -0.048431396 -0.35131836 0 0 0 0
-0.014053345 -0.048431396 -0.35131836 0 0 0 0
-0.012237549 -0.048431396 -0.35131836 0 0 0 0
-0.010414124 -0.048431396 -0.35131836 0 0 0 0
-0.0085983276 -0.048431396 -0.35131836 0 0 0 0
-0.006778717 -0.048431396 -0.35131836 0 0 0 0
0.013725281 -0.050231934 -0.36425781 0 0 0 0
0.015609741 -0.050231934 -0.36425781 0 0 0 0
0.017486572 -0.050231934 -0.36425781 0 0 0 0
0.019439697 -0.050354004 -0.36523438 0 0 0 0
0.021331787 -0.050354004 -0.36523438 0 0 0 0
0.039031982 -0.048828125 -0.35424805 0 0 0 0
0.040985107 -0.048980713 -0.35522461 0 0 0 0
0.042694092 -0.048828125 -0.35424805 0 0 0 0
0.044525146 -0.048828125 -0.35424805 0 0 0 0
0.046356201 -0.048828125 -0.35424805 0 0 0 0
0.048187256 -0.048828125 -0.35424805 0 0 0 0
0.057861328 -0.047729492 -0.34619141 0 0 0 0
0.05947876 -0.047607422 -0.34521484 0 0 0 0
0.061279297 -0.047607422 -0.34521484 0 0 0 0
0.062866211 -0.047454834 -0.34423828 0 0 0 0
0.064453125 -0.047332764 -0.34326172 0 0 0 0
0.066040039 -0.047180176 -0.34228516 0 0 0 0
0.067626953 -0.047027588 -0.34130859 0 0 0 0
0.069152832 -0.046905518 -0.34008789 0 0 0 0
0.070739746 -0.04675293 -0.33911133 0 0 0 0
0.072509766 -0.04675293 -0.33911133 0 0 0 0
0.074035645 -0.046630859 -0.33813477 0 0 0 0
0.075805664 -0.046630859 -0.33813477 0 0 0 0
0.077270508 -0.046478271 -0.3371582 0 0 0 0
0.079040527 -0.046478271 -0.3371582 0 0 0 0
0.080322266 -0.046203613 -0.33520508 0 0 0 0
0.081542969 -0.045928955 -0.33325195 0 0 0 0
0.10418701 -0.048431396 -0.35131836 0 0 0 0
0.10601807 -0.048431396 -0.35131836 0 0 0 0
0.10778809 -0.048431396 -0.35131836 0 0 0 0
0.10961914 -0.048431396 -0.35131836 0 0 0 0
0.1114502 -0.048431396 -0.35131836 0 0 0 0
0.11328125 -0.048431396 -0.35131836 0 0 0 0
0.1151123 -0.048431396 -0.35131836 0 0 0 0
0.11688232 -0.048431396 -0.35131836 0 0 0 0
0.11871338 -0.048431396 -0.35131836 0 0 0 0
0.12054443 -0.048431396 -0.35131836 0 0 0 0
0.12237549 -0.048431396 -0.35131836 0 0 0 0
0.12420654 -0.048431396 -0.35131836 0 0 0 0
0.12597656 -0.048431396 -0.35131836 0 0 0 0
0.12780762 -0.048431396 -0.35131836 0 0 0 0
0.12963867 -0.048431396 -0.35131836 0 0 0 0
0.13146973 -0.048431396 -0.35131836 0 0 0 0
0.13330078 -0.048431396 -0.35131836 0 0 0 0
0.13513184 -0.048431396 -0.35131836 0 0 0 0
