# .PCD v0.7 - Point Cloud Data file format
VERSION 0.7
FIELDS x y z
SIZE 4 4 4
TYPE F F F
COUNT 1 1 1
WIDTH 1266
HEIGHT 1
VIEWPOINT 0 0 0 1 0 0 0
POINTS 1266
DATA ascii
-0.013340369 -0.062497694 0.065443546
-0.012572828 -0.062350482 0.065362848
-0.011360663 -0.062399808 0.065547675
-0.010291373 -0.062293362 0.065743648
-0.009276378 -0.062127702 0.065498382
-0.0086332168 -0.062204998 0.065169528
0.0079501579 -0.062889203 0.065865085
0.008687255 -0.062340505 0.065548137
0.0096678622 -0.062380571 0.065749422
0.010613197 -0.062479317 0.065529607
0.011813934 -0.062540486 0.065321028
-0.013089937 -0.061834849 0.065455906
-0.012566771 -0.061545685 0.065409623
-0.011361121 -0.061425604 0.065700784
-0.010774228 -0.061650325 0.065631293
-0.0092738308 -0.061383747 0.065166682
-0.0085213641 -0.061668277 0.065663323
-0.0073337108 -0.06141343 0.065667972
-0.0051825698 -0.061129317 0.065989383
0.0020756368 -0.061358605 0.065705016
0.0063742809 -0.061925668 0.065989383
0.0076704351 -0.061236404 0.065646045
0.008571675 -0.061379671 0.065490417
0.0095253289 -0.061353859 0.065325052
0.010416838 -0.061677586 0.065579973
0.011559469 -0.061724227 0.06539616
0.012172447 -0.061551511 0.065226674
-0.011019813 -0.060879674 0.065891042
-0.010293202 -0.060312618 0.065507941
-0.0094913784 -0.060495608 0.06542863
-0.0083246464 -0.06030174 0.065728486
-0.0074650957 -0.060447197 0.065727122
-0.0060721086 -0.060405482 0.065901585
-0.0053454395 -0.060572978 0.065655142
-0.0047374768 -0.060447644 0.06541653
-0.0038270121 -0.060932972 0.065664545
-0.0020577591 -0.06010304 0.065995917
0.0034312189 -0.060259223 0.065699555
0.00468612 -0.060249727 0.065944836
0.0056174695 -0.060575262 0.065207273
0.0064540324 -0.060311958 0.065337785
0.0075283041 -0.060348902 0.065568529
0.0083498191 -0.060168099 0.06562914
0.0095762359 -0.060638905 0.065378912
0.010291567 -0.06031356 0.065677889
0.011099325 -0.0609743 0.065088734
-0.011257445 -0.059174344 0.065061279
-0.01064802 -0.059838179 0.065486804
-0.0092084352 -0.059501834 0.065839611
-0.008819947 -0.059706617 0.06549678
-0.0072951475 -0.059717566 0.065824822
-0.006806633 -0.059304655 0.065426812
-0.0057332432 -0.059319764 0.065433294
-0.0043220092 -0.059454679 0.065535918
-0.003425614 -0.059326082 0.065370016
-0.002453106 -0.059468813 0.065589197
-0.00039633457 -0.059355024 0.065251634
0.00043218528 -0.059231944 0.06558802
0.0019677589 -0.059013285 0.065578938
0.0029525887 -0.059623558 0.065136798
0.0035023063 -0.05949603 0.065488994
0.004631462 -0.059524864 0.065518558
0.005717963 -0.059862636 0.065036505
0.0063909721 -0.059341557 0.065661095
0.0076155411 -0.059342623 0.065529481
0.008473102 -0.059646625 0.065528885
0.0093648955 -0.059445824 0.065149195
-0.01054957 -0.058894612 0.065018356
-0.0096284403 -0.058873881 0.065530539
-0.0085965339 -0.058374159 0.065495513
-0.0065360437 -0.058397423 0.0656875
-0.0056201951 -0.058543157 0.06525676
-0.0046902765 -0.058454793 0.065579958
-0.0032983008 -0.058222633 0.065596238
-0.0024736035 -0.058536023 0.065447852
-0.0011111327 -0.058492038 0.065953858
-0.00035722012 -0.058347829 0.065476753
0.00027232571 -0.058344387 0.065435611
0.0012476386 -0.058679782 0.06586536
0.0023804349 -0.058245875 0.06547612
0.0035203216 -0.058650807 0.065531284
0.0042752209 -0.058310878 0.065425865
0.0052103773 -0.058375888 0.065474667
0.0062948349 -0.058400765 0.065397665
0.008347068 -0.058755003 0.065182537
-0.0086423373 -0.057408191 0.065072522
-0.0076747569 -0.057806969 0.065546744
-0.006539078 -0.057587039 0.065402322
-0.0057625961 -0.057969894 0.06553077
-0.0044611893 -0.057637185 0.065391101
-0.0035614725 -0.057854384 0.065491132
-0.0023829313 -0.0576231 0.065498516
-0.0012935936 -0.057575077 0.065642089
-0.00028159586 -0.057727221 0.065550983
0.00043626988 -0.057856504 0.065556385
0.0018935854 -0.057849679 0.065414138
0.0024721632 -0.057395872 0.065428376
0.0034788109 -0.057654131 0.065471351
0.0043210248 -0.057534225 0.065285288
0.0052274438 -0.057919651 0.065604091
0.0078029889 -0.057664692 0.06534984
-0.0055877655 -0.056583777 0.065239817
-0.0046073864 -0.056551918 0.06524691
-0.0032649129 -0.056380272 0.065241501
-0.0020026711 -0.056591257 0.065157339
-0.0013410369 -0.056471892 0.0656619
-0.00047814945 -0.056234572 0.06551487
0.00048618414 -0.056482702 0.065339133
0.0017878655 -0.05658073 0.065476082
0.0028524669 -0.056719385 0.065565377
0.0036503468 -0.05672656 0.065519542
0.004930662 -0.056028977 0.065001681
0.0050097373 -0.05681821 0.065088123
-0.0047529591 -0.055755485 0.065132767
-0.0029116583 -0.05567129 0.065085031
-0.001809503 -0.055282556 0.065167159
-0.00080192834 -0.055819817 0.065351918
0.00024221465 -0.055786807 0.065994352
0.0024548208 -0.055539552 0.06517648
0.005084171 -0.055924237 0.065119147
-0.018975565 -0.08002767 0.066661432
0.016066644 -0.080139205 0.066678211
-0.019695625 -0.0793074 0.06612011
-0.018459171 -0.079597935 0.066393614
-0.017795317 -0.079522237 0.066571191
-0.01677906 -0.079151183 0.066720054
-0.015612943 -0.079174846 0.06612543
-0.01461106 -0.079402 0.066130333
0.012865489 -0.079283655 0.066084966
0.013758597 -0.079334646 0.066302679
0.014200605 -0.079259194 0.066482961
0.015488481 -0.079721332 0.066690244
0.016427647 -0.079504237 0.066307962
0.017524363 -0.079355001 0.066392511
0.01832206 -0.079341263 0.066332914
0.019297976 -0.079013787 0.066153206
-0.020571494 -0.078593701 0.066270351
-0.019667335 -0.078695603 0.066110559
-0.018431319 -0.078331836 0.066635832
-0.017188013 -0.078120142 0.066642687
-0.01637206 -0.078498453 0.066423319
-0.015455193 -0.078463592 0.066492721
-0.014623487 -0.078423828 0.066243351
-0.013336815 -0.078317873 0.066335864
-0.011241922 -0.078527808 0.066210195
-0.0090463702 -0.07854557 0.066207245
-0.0068510287 -0.078564763 0.066204064
-0.0046559912 -0.078582644 0.066201113
-0.0024612856 -0.078601837 0.066197932
-0.0019068308 -0.078152411 0.066415861
-0.00026694199 -0.07862103 0.066194758
0.0019271609 -0.078638792 0.066191807
0.0029144567 -0.078319333 0.066188693
0.0041209008 -0.078657925 0.066188633
0.0063143983 -0.078675747 0.066185683
0.0085075349 -0.07869488 0.066182509
0.0096282028 -0.078053646 0.066097826
0.010630062 -0.078396693 0.066436723
0.011477406 -0.078178868 0.066847973
0.012497231 -0.078351416 0.066463381
0.013506696 -0.078479052 0.066425584
0.014425385 -0.078394443 0.06659583
0.015462482 -0.078110464 0.066646785
0.016381785 -0.078960963 0.066505007
0.017334729 -0.078294359 0.066448152
0.018242357 -0.078461349 0.066445768
-0.02066105 -0.077247433 0.066300593
-0.019418864 -0.077355519 0.066588536
-0.018729022 -0.077563748 0.066443443
-0.017081922 -0.077794254 0.066734001
-0.01671149 -0.077617168 0.066869199
-0.014516112 -0.077746741 0.066383101
-0.013252347 -0.077511624 0.066678539
-0.012533498 -0.077420488 0.066463068
-0.011315956 -0.077378951 0.066492409
-0.010492456 -0.077206492 0.066563442
-0.0097627174 -0.077181101 0.06640102
-0.0086726043 -0.077303767 0.06604898
-0.0076601645 -0.077409089 0.066415675
-0.0064759594 -0.077672645 0.066417292
-0.0054494515 -0.077203691 0.0664948
-0.0045014457 -0.077232257 0.066565633
-0.0033925362 -0.077589586 0.066139154
-0.0024101168 -0.077436507 0.066361316
-0.0013000779 -0.077010661 0.066256672
-0.00073601288 -0.077433027 0.06611976
0.00058091473 -0.077515461 0.066282175
0.0016628541 -0.077453785 0.066167057
0.0024560143 -0.077462733 0.066339746
0.0038057016 -0.077258848 0.06638363
0.0048407111 -0.077630699 0.066563755
0.0055900118 -0.077425323 0.066419408
0.0064913258 -0.077496029 0.066423431
0.0073698 -0.077525631 0.06639532
0.0086480603 -0.077507816 0.066488966
0.0095651271 -0.077285878 0.066499852
0.010541139 -0.077512383 0.066347614
0.011594628 -0.077498265 0.066687882
0.012149441 -0.077577256 0.066460848
0.016506473 -0.077605851 0.066545747
0.017377099 -0.077215716 0.066592343
0.018394897 -0.077474296 0.066397049
0.019463636 -0.077559799 0.066167586
-0.020411681 -0.076007038 0.066760249
-0.019476347 -0.07649295 0.066181138
-0.018520724 -0.076884426 0.066424929
-0.017657444 -0.076488197 0.066624038
-0.011407045 -0.076902434 0.066615105
-0.01042479 -0.076820284 0.06646648
-0.0093583995 -0.076566026 0.066800036
-0.0083515923 -0.076491475 0.066900834
-0.0074241222 -0.076931089 0.066536494
-0.0065553416 -0.076660424 0.066592336
-0.0056178235 -0.076887883 0.06674277
-0.0043568797 -0.076194167 0.066737771
-0.0034781252 -0.076859593 0.066560619
-0.0027713832 -0.076771945 0.066728242
-0.0015768858 -0.076586008 0.066244029
-0.00054471334 -0.076648511 0.066343457
0.00087286904 -0.076450288 0.066537097
0.0015240402 -0.076752104 0.066828266
0.0035338569 -0.076473519 0.066550925
0.0047258865 -0.076998517 0.066324219
0.0054066828 -0.076482452 0.066709109
0.0064492421 -0.076699875 0.066324331
0.0093719848 -0.07697612 0.066508457
0.017659303 -0.076609969 0.066490516
0.018535111 -0.076535806 0.066491783
0.019468337 -0.076372631 0.066380009
-0.021052945 -0.075467795 0.066202015
-0.020576594 -0.075413115 0.066487424
-0.019398073 -0.075279005 0.066337369
-0.01855294 -0.075544402 0.066521361
-0.0038707834 -0.075952679 0.066805616
-0.0023873756 -0.075889334 0.06661734
0.016608104 -0.075286001 0.066713795
0.017321145 -0.075576015 0.066512622
0.018358776 -0.075421743 0.066341929
0.019561822 -0.075584017 0.066476628
-0.020989746 -0.074453056 0.066193655
-0.019538082 -0.074648805 0.066489525
-0.01894767 -0.074762374 0.066201866
0.016617384 -0.074536234 0.066701218
0.017521955 -0.074205369 0.066899538
0.018501436 -0.074500024 0.066516243
0.019316483 -0.07439024 0.066243708
-0.020089669 -0.073251814 0.066157714
-0.019422974 -0.073221892 0.066457137
-0.018131599 -0.073485449 0.066577345
-0.017973227 -0.073955007 0.066707529
0.016007103 -0.0730877 0.066749163
0.017551593 -0.073142022 0.066868357
0.01861052 -0.073661834 0.066444345
0.019525781 -0.073732227 0.06628713
-0.020002712 -0.072019652 0.066059187
-0.019293243 -0.072646759 0.066324547
-0.018767107 -0.072600335 0.066316485
-0.017534588 -0.072059385 0.066697195
-0.015795993 -0.072329268 0.066618174
0.015447927 -0.072470054 0.066627689
0.016598983 -0.072610967 0.066503592
0.017675079 -0.072644703 0.066279471
0.018423023 -0.072475366 0.066135213
-0.019166932 -0.07143975 0.066290043
-0.018270671 -0.071530953 0.06680806
-0.017325999 -0.071477652 0.066685081
-0.01696742 -0.071058884 0.06660182
0.015431397 -0.071436107 0.066767186
0.016560635 -0.071347713 0.066473946
-0.018524466 -0.070787176 0.06631051
-0.017384315 -0.070484534 0.066651031
-0.016090706 -0.070317842 0.06680844
-0.015697433 -0.070069045 0.066309877
-0.014834929 -0.070315488 0.066980943
0.01415937 -0.070175305 0.066946372
0.01551047 -0.07059712 0.066600204
0.016511127 -0.070579953 0.066242024
0.01732602 -0.070598476 0.066443138
-0.017270206 -0.069767073 0.066296846
-0.016678464 -0.069249101 0.06631431
-0.015741557 -0.069467083 0.066433586
-0.013763318 -0.069047235 0.066156566
0.012528187 -0.069095992 0.066445246
0.013854122 -0.069132566 0.066304624
0.014414507 -0.069293462 0.066187061
0.015847268 -0.069310687 0.066518568
0.016621308 -0.06961076 0.066504791
-0.017223326 -0.068749994 0.066268377
-0.016698461 -0.068291992 0.066381395
-0.015319983 -0.068358421 0.066537224
-0.014667645 -0.068178475 0.066939592
0.011527551 -0.068190411 0.066538617
0.013902299 -0.068511337 0.066641368
0.014437228 -0.068404801 0.066552915
0.015496701 -0.068363845 0.066571176
0.01640329 -0.06833452 0.066764116
-0.015485603 -0.067509376 0.06633687
-0.014361853 -0.067717515 0.066360854
-0.013577914 -0.067617625 0.066399336
-0.012796752 -0.067082986 0.066431776
0.011531861 -0.067879513 0.066991776
0.012393642 -0.067753039 0.066587277
0.013259831 -0.067370929 0.066318206
0.01481035 -0.067212462 0.066343665
0.016427729 -0.06772501 0.066154562
-0.015176311 -0.066455357 0.066425942
-0.014551381 -0.066349536 0.066393413
-0.013895596 -0.066041991 0.066240832
-0.012469713 -0.06646508 0.066616863
-0.010415967 -0.066431828 0.066683926
0.0098501602 -0.06670934 0.06665124
0.010398781 -0.066412926 0.066689625
0.011737975 -0.066134214 0.066398293
0.012270897 -0.066528097 0.066604942
0.013516373 -0.066155143 0.066095948
0.014409054 -0.066492654 0.066357017
-0.014582444 -0.065603405 0.06653107
-0.012411979 -0.065422744 0.066446058
-0.011528632 -0.065231003 0.066712588
-0.010736194 -0.065998547 0.066835217
-0.0099624945 -0.065199196 0.066983283
0.010904274 -0.065265253 0.066527218
0.011425748 -0.065243453 0.066058576
0.012202289 -0.065431245 0.066831283
0.01342568 -0.065349951 0.066476174
-0.013629038 -0.064470202 0.066367552
-0.012703441 -0.064398535 0.066427842
-0.011730645 -0.064425074 0.066516079
-0.010449263 -0.064403899 0.066578247
-0.0095941639 -0.064278074 0.066359185
0.0088718869 -0.064700209 0.066870756
0.0096271578 -0.064364582 0.066483185
0.010532102 -0.064359695 0.066573702
0.011133187 -0.064513236 0.066487364
0.012284066 -0.064640932 0.066264249
0.013488715 -0.064810991 0.066564947
-0.013739761 -0.063598581 0.066466868
-0.012468089 -0.063325502 0.066268548
-0.011902094 -0.063755229 0.066524968
-0.010703983 -0.063527696 0.066353954
-0.0086656725 -0.063222751 0.066679671
-0.0071659749 -0.063347057 0.066088125
-0.0063511115 -0.063197359 0.066897236
0.0048643872 -0.063475549 0.066689745
0.0064906036 -0.063509434 0.066556588
0.0077068936 -0.063286759 0.066566981
0.0082624583 -0.063407414 0.066614866
0.0094382791 -0.063632265 0.06619896
0.010929825 -0.063059792 0.066392466
0.011585248 -0.063668124 0.066484019
0.01342739 -0.063565195 0.066131935
-0.012571819 -0.062493522 0.066279083
-0.011361239 -0.062265731 0.066248298
-0.010398282 -0.062262695 0.06659738
-0.0093220584 -0.062534675 0.066606224
-0.0084841913 -0.062104493 0.066496156
-0.0075587006 -0.062289201 0.066462234
-0.0068849698 -0.062627673 0.066221043
-0.0048600752 -0.062082037 0.066701569
-0.0013253605 -0.062286414 0.066644847
0.0044496097 -0.062378019 0.066590063
0.006539166 -0.062333077 0.066434219
0.0074926615 -0.062174585 0.066637143
0.0085237138 -0.062471509 0.066527635
0.0096565019 -0.062605128 0.066431537
0.010614959 -0.062808819 0.066504583
0.011508754 -0.062627904 0.066198528
-0.010482435 -0.061175391 0.066162504
-0.0083925594 -0.061489008 0.066608012
-0.0076264227 -0.061855018 0.0665759
-0.0067017018 -0.061258931 0.066460378
-0.0055825217 -0.061627761 0.066611528
-0.004761131 -0.061556458 0.06672886
-0.0037937658 -0.061146077 0.066942737
-0.0027732477 -0.061779775 0.066639237
-0.00042094977 -0.061365571 0.066781826
0.00097918883 -0.061610673 0.066635013
0.0010496899 -0.061093464 0.066201374
0.0024086523 -0.061435636 0.066301867
0.0036667027 -0.061532337 0.066426843
0.0042125885 -0.061236445 0.066483259
0.0055313176 -0.061529923 0.066369444
0.0069024861 -0.06165868 0.066021301
0.0079443343 -0.061899051 0.066014588
0.0086033912 -0.061715733 0.066865988
0.0098526068 -0.061235815 0.06604059
-0.0093004983 -0.060473446 0.066414773
-0.0083444994 -0.060499948 0.066629507
-0.0075108018 -0.060733754 0.066656895
-0.0062872902 -0.060507476 0.066474721
-0.0056352904 -0.060188126 0.066281423
-0.0049242368 -0.060260888 0.066245653
-0.0035694775 -0.060458161 0.066585049
-0.0023907714 -0.060214564 0.066326924
-0.0011148788 -0.060917411 0.066363953
-0.00070993212 -0.060247689 0.06663496
0.00033535971 -0.060433395 0.066552334
0.0015058056 -0.060458135 0.066567503
0.0024346563 -0.060154069 0.066494226
0.0032827652 -0.060546432 0.066658027
0.0046755224 -0.060708225 0.066423126
0.0055355877 -0.060282871 0.066491835
0.0062306444 -0.060691029 0.066611536
0.0076191053 -0.060646426 0.066385545
0.0082650781 -0.060345698 0.066558287
0.0091474093 -0.060907178 0.066021748
-0.0081399484 -0.059854999 0.066367656
-0.0073873335 -0.059735451 0.066429324
-0.0068655638 -0.059889775 0.066197187
-0.0054900502 -0.059443694 0.066657066
-0.0046868301 -0.059524111 0.066470832
-0.0036662137 -0.05933591 0.066285029
-0.0025011431 -0.059818983 0.066621222
-0.00041484347 -0.059582312 0.066451304
0.00053570536 -0.05942053 0.066631943
0.0017545788 -0.059806868 0.066661522
0.0026700506 -0.059504285 0.066374332
0.0036156187 -0.059481218 0.066726059
0.0043635583 -0.059572436 0.066472456
0.005591874 -0.05951035 0.066363961
0.0064063384 -0.059297547 0.066176958
0.0072924672 -0.059747577 0.066455409
-0.0069908686 -0.058479972 0.066111401
-0.0056122364 -0.058456093 0.066266
-0.0047037285 -0.058320411 0.066207066
-0.0038540612 -0.058714107 0.06671194
-0.0024589794 -0.058432579 0.066626377
-0.0016227147 -0.058551811 0.066334784
-0.00040751763 -0.058493759 0.066406883
0.00055558875 -0.058289506 0.066261195
0.0018648689 -0.058359861 0.066279441
0.0027732921 -0.058445286 0.066483967
0.0035444263 -0.058591206 0.066415757
0.0055643935 -0.058653388 0.066245586
0.0068851672 -0.058862466 0.0662314
-0.0052142236 -0.057815731 0.066032343
-0.0045360196 -0.057800762 0.066170283
-0.0036808872 -0.057769008 0.066052049
-0.0022356263 -0.057809234 0.066465706
-0.0014574472 -0.057430666 0.066166088
-0.00078328233 -0.057539679 0.066570975
0.00091397273 -0.057911314 0.066167317
0.0014684121 -0.057624623 0.066173904
0.0024352921 -0.057794433 0.066399843
0.0037583844 -0.057612516 0.06606631
0.004622919 -0.057634681 0.066106752
-0.00062217377 -0.056946658 0.066115707
-0.01880781 -0.079023324 0.0673692
-0.016499896 -0.07930173 0.067502558
-0.015651414 -0.079716377 0.067059547
0.012943348 -0.079146765 0.067044467
0.015491635 -0.079294458 0.067192487
0.016533036 -0.079521663 0.067346685
-0.018270031 -0.078427993 0.06741149
-0.017171662 -0.07876429 0.06731014
-0.016463092 -0.078394972 0.067553893
-0.014831331 -0.078396618 0.067992538
-0.013583986 -0.078287378 0.067557469
-0.012820783 -0.078457057 0.067762591
0.010888662 -0.078281358 0.067082025
0.011902995 -0.078452647 0.06794095
0.012293185 -0.078348711 0.067610323
0.013585811 -0.078726269 0.067609251
0.014326648 -0.078459784 0.067718975
0.015601707 -0.078696929 0.06749849
0.016471872 -0.078420348 0.067661569
0.018184934 -0.078237824 0.067253046
-0.018468365 -0.077471867 0.067560963
-0.017450815 -0.077466622 0.067502081
-0.016654845 -0.077237546 0.067426734
-0.015335248 -0.077309944 0.067795865
-0.014515749 -0.07785134 0.067561492
-0.013571055 -0.077652521 0.067541547
-0.012569549 -0.077292457 0.067584582
-0.011806418 -0.07741686 0.067213804
-0.010651588 -0.077075556 0.06728968
-0.0094560459 -0.077201508 0.067330919
-0.0086205592 -0.077249438 0.067517415
-0.0067127291 -0.077254914 0.067216814
-0.0054695578 -0.077028237 0.06711524
-0.0044370326 -0.077228189 0.067273408
-0.0038627237 -0.077572271 0.067381337
-0.0023266585 -0.077135071 0.067439862
-0.0013438293 -0.077227607 0.067096785
-0.0002669511 -0.07714802 0.067446418
0.0007907172 -0.077513501 0.067184195
0.001455375 -0.077232823 0.067354754
0.0028022744 -0.077092282 0.067117684
0.0036981783 -0.077260055 0.067560039
0.0057466566 -0.077276781 0.0673026
0.0067225327 -0.077153169 0.067182861
0.0079694465 -0.077205203 0.067475356
0.0086259199 -0.077320725 0.06759911
0.0094534494 -0.077181935 0.067215405
0.010422858 -0.077426814 0.06757734
0.011245869 -0.077545337 0.067390002
0.012416786 -0.077918507 0.067674004
0.014470736 -0.077584729 0.067565814
0.015847275 -0.077367157 0.067938559
0.016449008 -0.077360645 0.067526139
0.017477829 -0.077643216 0.067513391
-0.018647108 -0.076054789 0.067987151
-0.017376179 -0.076564498 0.067570187
-0.015724085 -0.076827846 0.067893833
-0.011271857 -0.076728515 0.067697376
-0.010185094 -0.07660906 0.067410477
-0.0095910849 -0.076777101 0.067590222
-0.0085045025 -0.076404877 0.067539513
-0.0074315011 -0.076436728 0.067706689
-0.0065113991 -0.076326557 0.067492791
-0.0056006503 -0.076135896 0.06724146
-0.0044631506 -0.076475821 0.067625411
-0.0034835066 -0.076602891 0.067794152
-0.002360424 -0.076137736 0.067583248
-0.0012711621 -0.076554649 0.067402564
-0.00059302937 -0.076580599 0.067497663
0.00065185467 -0.07646741 0.067668997
0.0014986848 -0.076281741 0.067617208
0.0026337761 -0.076399885 0.067476854
0.0036388051 -0.076351561 0.06786783
0.004211192 -0.076606996 0.067348816
0.0058626086 -0.076409675 0.067721345
0.0065379636 -0.076509491 0.067632809
0.0075099552 -0.076609433 0.06758067
0.0084984396 -0.076640077 0.06742847
0.0095146755 -0.076586239 0.067579001
0.014778222 -0.076869197 0.06765902
0.015336257 -0.076791741 0.067466609
0.016583594 -0.076350875 0.067420073
0.017425373 -0.076454699 0.067718834
0.018241202 -0.076579221 0.067303136
-0.019350421 -0.075621672 0.067371048
-0.018508336 -0.07547985 0.067533836
-0.017698456 -0.075442068 0.067051798
-0.016470902 -0.075327896 0.067654103
-0.0055487752 -0.075969413 0.067149058
-0.0041099004 -0.075839616 0.067434818
-0.0035077003 -0.075798854 0.067775436
-0.0022949427 -0.07586433 0.067885786
-0.00050720386 -0.075886279 0.067692496
0.00036725402 -0.075980142 0.067621835
0.0012474358 -0.075590782 0.067853689
0.0025127186 -0.07564687 0.06776993
0.0038571209 -0.075840801 0.067089111
0.0046792105 -0.07577154 0.067393713
0.015422774 -0.075787961 0.067825891
0.016624913 -0.075246722 0.067646936
0.017853275 -0.075453669 0.06749969
0.018608145 -0.07551726 0.06706363
-0.020049889 -0.074982025 0.067416549
-0.019591022 -0.074717209 0.067184493
-0.018583603 -0.074448027 0.067588732
-0.017586835 -0.074445598 0.067720361
-0.016422957 -0.074431293 0.06790673
0.015365709 -0.074319817 0.067042373
0.01677111 -0.074863359 0.067353323
0.017325262 -0.074451596 0.067652851
0.018722858 -0.074581124 0.0672215
-0.019150695 -0.073504686 0.067430198
-0.018351043 -0.07360369 0.067431577
-0.017435759 -0.07358399 0.067543864
-0.016229067 -0.073028266 0.067420952
0.014944332 -0.073910207 0.067218781
0.015521241 -0.073858716 0.067730121
0.016470723 -0.073560849 0.067638546
0.017688157 -0.073731177 0.067301415
0.018211607 -0.073198222 0.067191951
-0.018009353 -0.072896138 0.06781549
-0.017396055 -0.072375849 0.067474917
-0.016502796 -0.072657041 0.067782998
-0.015705906 -0.072485745 0.067858636
0.014559063 -0.072337978 0.067810051
0.015114371 -0.072937921 0.067695536
0.016375674 -0.072720639 0.067592666
0.017096806 -0.072701626 0.067549363
0.018025905 -0.072916433 0.067323595
-0.017257059 -0.071428947 0.067552224
-0.016583176 -0.071454726 0.067802481
-0.015585732 -0.071548402 0.067479379
0.013621621 -0.071184643 0.067362294
0.014504679 -0.071176358 0.067413352
0.015233612 -0.071402505 0.067517981
0.016548498 -0.071803212 0.067520373
0.017143408 -0.07191132 0.067034677
-0.017298866 -0.070774838 0.067103818
-0.01680238 -0.070382699 0.067349285
-0.015419528 -0.070510909 0.067750037
-0.014697365 -0.070205435 0.067711882
-0.013674718 -0.070339397 0.067414276
-0.01269741 -0.070493147 0.067966744
0.012868425 -0.070373029 0.067367397
0.013563502 -0.070335977 0.067433335
0.014661333 -0.070439056 0.06742318
0.015458255 -0.070498154 0.067655385
-0.017047301 -0.069499657 0.067194052
-0.016424876 -0.069524884 0.067331269
-0.015537001 -0.069155157 0.067598879
-0.014580656 -0.069448933 0.067455947
-0.013468638 -0.069912203 0.067635477
0.013414092 -0.069371052 0.067405052
0.014438516 -0.069296554 0.067499787
0.015657317 -0.069540776 0.067366213
-0.01606122 -0.068529725 0.067575999
-0.015497455 -0.068512954 0.067350112
-0.014499299 -0.068193331 0.06747923
-0.013556248 -0.068453759 0.067575201
-0.012299349 -0.06810239 0.067227863
-0.011908056 -0.06863641 0.067920491
0.01141433 -0.068348743 0.067564406
0.01251687 -0.068512894 0.067559153
0.013512316 -0.068291984 0.067784794
0.014186464 -0.068030484 0.06772624
-0.015676381 -0.067809805 0.067261256
-0.014972277 -0.067401744 0.067429461
-0.013735507 -0.067485653 0.067457229
-0.012546471 -0.067424044 0.067430437
-0.01138729 -0.06756518 0.067038693
-0.010582367 -0.067350537 0.067646056
0.0095817484 -0.067361757 0.067500785
0.010001273 -0.067505822 0.067585669
0.01144461 -0.067767285 0.067408405
0.012345511 -0.067389466 0.067376643
0.013122644 -0.067316763 0.067419752
-0.013390746 -0.066454135 0.067496635
-0.012581642 -0.066243671 0.067335553
-0.011863317 -0.066357978 0.067358874
-0.010508856 -0.066261642 0.067563385
-0.0080647897 -0.066915967 0.067938082
0.0074775028 -0.066649832 0.067736872
0.010433079 -0.066383958 0.06754972
0.011515701 -0.066473268 0.067378715
0.012443554 -0.066280745 0.067260161
0.013075561 -0.06679143 0.067537695
-0.013388316 -0.065713763 0.067394793
-0.012599489 -0.065283693 0.067710936
-0.011893487 -0.065263316 0.067187555
-0.010665637 -0.065288708 0.067515001
-0.0094365655 -0.065296263 0.067561895
-0.0076586679 -0.065273352 0.067737065
0.0047848555 -0.065313578 0.067915082
0.0075924452 -0.065135866 0.067302495
0.0088401427 -0.065414459 0.067429163
0.0092044501 -0.065290481 0.067231275
0.01025678 -0.065560333 0.067390308
0.011316335 -0.06546659 0.067850493
0.01260488 -0.065691397 0.067288861
-0.012539703 -0.064262621 0.067143865
-0.011043932 -0.064086512 0.067395926
-0.010639742 -0.064468265 0.067479253
-0.0095627932 -0.064427368 0.067572676
-0.008271805 -0.064328313 0.067723058
-0.0073782429 -0.064512588 0.067803919
-0.0063971709 -0.064449951 0.067214072
-0.0047630649 -0.064298779 0.067276813
0.0011898559 -0.064456835 0.067601442
0.0051070089 -0.064033628 0.067449532
0.0065755262 -0.064460658 0.067605875
0.0074775261 -0.064535394 0.067432396
0.0084417611 -0.064257599 0.067517817
0.0093548158 -0.064430319 0.067568272
0.010363746 -0.064586625 0.067256376
0.011291339 -0.064020351 0.067295849
-0.011588939 -0.063561328 0.067286938
-0.010695728 -0.06359598 0.067461856
-0.0094746547 -0.063913174 0.067589447
-0.0082775066 -0.063278183 0.067775719
-0.0078916159 -0.063746437 0.067750439
-0.0065241521 -0.063849621 0.067535684
-0.0058137998 -0.063593917 0.067882627
-0.0045143114 -0.063188605 0.067624092
-0.0015152562 -0.063089728 0.067759812
-0.00095627829 -0.063183032 0.067909084
0.0013758093 -0.063535102 0.067501418
0.0023387731 -0.063181862 0.067547306
0.0037372992 -0.063348636 0.067869805
0.0043368675 -0.063355915 0.067512758
0.0054366579 -0.063413419 0.067468047
0.0063073537 -0.063627787 0.067599408
0.0075743031 -0.063860662 0.06715104
0.0082722558 -0.063359827 0.067637399
0.0094925379 -0.063513815 0.06747774
0.010763071 -0.063883021 0.067156784
0.011032136 -0.063602082 0.06703876
-0.010835428 -0.062989093 0.06714642
-0.0094476584 -0.062928222 0.067547068
-0.0085952906 -0.062509358 0.067447521
-0.0072808345 -0.062256038 0.067405112
-0.0064681093 -0.062598407 0.06746643
-0.005418539 -0.062442653 0.067504004
-0.004579349 -0.062211394 0.067748614
-0.0033040859 -0.062483203 0.067553125
-0.002377874 -0.062542647 0.067310259
-0.0015521431 -0.062648356 0.067885555
-0.00072724576 -0.062551804 0.067614451
0.00033101323 -0.062768579 0.06763415
0.0015014104 -0.062420767 0.067601055
0.0025624291 -0.062270433 0.067417048
0.0034613062 -0.062494129 0.067639999
0.0044302084 -0.062533684 0.067455769
0.005570469 -0.062302273 0.067431875
0.0066074715 -0.062474683 0.067363925
0.0077764024 -0.062417641 0.067212306
0.0095148254 -0.062028073 0.067375295
-0.0085027805 -0.061665617 0.067040518
-0.0074980557 -0.061348073 0.067490861
-0.0068029161 -0.061696149 0.067404792
-0.0054808222 -0.061661512 0.06734477
-0.0044667237 -0.061483685 0.06729915
-0.0025040512 -0.061554741 0.067536101
-0.0012988769 -0.06158131 0.067391612
-0.00045770104 -0.061627474 0.06754072
0.00097592361 -0.061274227 0.067215115
0.0016823362 -0.061663687 0.067684852
0.0024694414 -0.061782442 0.067810223
0.0034754437 -0.061623633 0.067428045
0.0045377067 -0.061531413 0.067464255
0.0056817424 -0.061426498 0.067731455
0.0065939752 -0.061506059 0.067059837
0.0081062801 -0.061449252 0.067173354
-0.0072861258 -0.060635611 0.06707906
-0.0062666852 -0.06065489 0.06718386
-0.0052924878 -0.060465947 0.067259856
-0.0043224613 -0.060444705 0.067414373
-0.0033893595 -0.06038624 0.067436635
-0.0022657628 -0.0603671 0.067115545
-0.0014464025 -0.06035034 0.067316249
-0.00048442854 -0.060360562 0.067795552
0.00065111311 -0.060487978 0.067273229
0.0015183837 -0.060588334 0.067535646
0.0024375184 -0.060304053 0.067712486
0.0036520276 -0.060469635 0.067292891
0.0044600582 -0.060631629 0.067380309
-0.0067097945 -0.059903339 0.067561574
-0.0055754329 -0.059991151 0.067112125
-0.0033779603 -0.059458505 0.067220546
-0.0026068324 -0.059731185 0.067121357
-0.0016777124 -0.059619859 0.067321211
-0.0003533308 -0.059616011 0.06736353
0.0002728058 -0.059948668 0.067916982
0.001496193 -0.059493765 0.067332692
0.0025766622 -0.059490278 0.067319266
0.0031047543 -0.05949571 0.067640372
0.0052816751 -0.059847772 0.067076035
-0.0039714053 -0.058985174 0.067258999
0.00034380378 -0.05890692 0.067218304
0.0011261927 -0.05891072 0.06705866
0.015012162 -0.08000946 0.068147436
-0.017749673 -0.079693258 0.068202436
-0.015591614 -0.079223633 0.068284139
0.012737023 -0.079295933 0.068208411
0.014024211 -0.079096086 0.068432219
-0.016524429 -0.078639746 0.068332128
-0.015306251 -0.078131415 0.068519637
-0.013377341 -0.078289405 0.06841401
0.010374638 -0.078175731 0.068516456
0.011631399 -0.078004137 0.068511836
0.012953898 -0.078365684 0.06889917
0.013695553 -0.07846082 0.068215065
0.014428646 -0.078509904 0.068320312
0.015122586 -0.078926012 0.068799898
0.016400428 -0.078490369 0.06832616
-0.018448869 -0.077534407 0.068151698
-0.01701827 -0.077044018 0.068753779
-0.016359601 -0.077259935 0.06838727
-0.015407352 -0.077489413 0.068690583
-0.0144265 -0.077646494 0.068343811
-0.013490434 -0.077407114 0.068714596
-0.012149933 -0.077445038 0.068279296
-0.011253444 -0.077403538 0.068514884
-0.010610538 -0.077281944 0.068653375
-0.0090867635 -0.077325761 0.068614326
-0.0068864874 -0.07713604 0.06864731
-0.0046796715 -0.077155471 0.068643942
-0.0024731869 -0.077173471 0.068640813
-0.00061895646 -0.077177569 0.068377174
0.0019389656 -0.077210844 0.068634301
0.004144574 -0.077230215 0.068630934
0.0063476129 -0.077338159 0.068612158
0.0085371938 -0.07779932 0.06853193
0.0094970092 -0.077270955 0.068535008
0.010510649 -0.077482902 0.068714254
0.011573623 -0.077620804 0.068218894
0.012622411 -0.077239707 0.068857364
0.013425975 -0.077121332 0.068570301
0.014641886 -0.07754916 0.068567887
0.015558128 -0.077495113 0.06823919
-0.018018525 -0.076936722 0.068284914
-0.017573116 -0.076427311 0.068259291
-0.016536247 -0.076500714 0.06853915
-0.015558359 -0.076634027 0.068567507
-0.014721462 -0.076665185 0.068528742
-0.013959099 -0.07645914 0.068425819
-0.012179127 -0.076938793 0.068829812
-0.011587586 -0.076828264 0.06855531
-0.010366023 -0.076598749 0.068840735
-0.0095988987 -0.076402932 0.068344027
-0.008645894 -0.076428831 0.068295978
-0.0074964683 -0.076295227 0.068477899
-0.0062794504 -0.076433405 0.068278112
-0.0057111159 -0.076439425 0.068401352
-0.0046370304 -0.076153159 0.068484619
-0.0033275017 -0.076211661 0.06848228
-0.0024137571 -0.076267496 0.068599425
-0.0012702042 -0.076554745 0.068130687
-0.0004650841 -0.076193742 0.068130925
0.00065445318 -0.076578096 0.068230048
0.0017706516 -0.07642103 0.068599492
0.0023467427 -0.076224782 0.068785198
0.0033098683 -0.076248221 0.06840989
0.0047125751 -0.076277204 0.068444744
0.0056065111 -0.076351121 0.068473898
0.0067524496 -0.076409146 0.068612494
0.0074841101 -0.076520681 0.068522133
0.0083292229 -0.07665778 0.068240963
0.0093042729 -0.076751173 0.068556249
0.010741957 -0.076892972 0.068016492
0.012713556 -0.076263905 0.06875594
0.013902577 -0.076040283 0.068752691
0.014551464 -0.076649658 0.068636946
0.015309257 -0.076767273 0.068400204
0.016464753 -0.076548971 0.068371356
0.018148612 -0.076260671 0.068128809
-0.018383138 -0.07561323 0.068312004
-0.017603904 -0.075631559 0.068301678
-0.016432239 -0.075707726 0.068561144
-0.015591708 -0.075495221 0.068304189
-0.014477017 -0.075757548 0.068817168
-0.012883038 -0.075988024 0.068991408
-0.0071295314 -0.075979725 0.068913229
-0.0063887006 -0.075787827 0.068735898
-0.0052837683 -0.075847745 0.068660274
-0.004539385 -0.075798467 0.068269715
-0.0036173435 -0.075878635 0.068685338
-0.0025204085 -0.0758439 0.068580188
-0.001281924 -0.075549096 0.068564028
-0.00039759529 -0.075785771 0.068271011
0.00059433293 -0.07583043 0.068809621
0.0015022068 -0.075700194 0.068322696
0.0023562764 -0.075823471 0.068627745
0.0034868624 -0.075863577 0.068537392
0.004388114 -0.07591524 0.068701386
0.0057239351 -0.075731948 0.068888754
0.013249772 -0.075865 0.068681031
0.014734034 -0.075412288 0.068049744
0.015369793 -0.075543962 0.068782791
0.016621528 -0.075512677 0.068306245
0.017021472 -0.075668462 0.068324514
0.018180793 -0.075823709 0.068060853
-0.018950671 -0.074310116 0.068330534
-0.017637094 -0.074652933 0.068273604
-0.016423453 -0.074246258 0.068419725
-0.015807301 -0.074639067 0.068769261
0.013804512 -0.074356385 0.068934046
0.014841547 -0.074662417 0.068837658
0.015365524 -0.074600369 0.068536215
0.016581355 -0.074548505 0.068463519
0.017297888 -0.074742891 0.068160214
-0.01880811 -0.073768541 0.068052538
-0.017681519 -0.073352955 0.068502754
-0.016668875 -0.073486112 0.068747327
-0.015513435 -0.073667623 0.06834542
-0.014067897 -0.073046669 0.068746433
0.013606431 -0.073399425 0.068639487
0.014591541 -0.073611483 0.068070337
0.015499903 -0.073483266 0.06851802
0.016266335 -0.073366486 0.068340637
-0.018164665 -0.072351471 0.068052754
-0.017439814 -0.072468266 0.068346053
-0.016423494 -0.072320737 0.068507619
-0.015734736 -0.072557554 0.06881915
-0.014668311 -0.072688773 0.068706281
-0.013976065 -0.072802216 0.068429284
0.012722568 -0.072536528 0.068637535
0.014743545 -0.072530188 0.068391368
0.015370176 -0.072225831 0.068237424
0.016208593 -0.072520904 0.068486467
-0.017293628 -0.071284078 0.068026409
-0.016481496 -0.071094401 0.068231128
-0.015570266 -0.071527869 0.06837175
-0.012887143 -0.071001559 0.068729103
0.012595424 -0.071961299 0.068050779
0.013197687 -0.071083695 0.06831485
0.014543223 -0.071486175 0.068501934
0.015154492 -0.07151597 0.068371557
0.016384199 -0.071366817 0.068012327
-0.016481526 -0.070675343 0.068280049
-0.015388071 -0.070351057 0.068318211
-0.014400461 -0.070467636 0.068611018
-0.013275858 -0.070358463 0.068821467
-0.012317429 -0.070152581 0.068493165
-0.011303657 -0.070172057 0.068716899
0.0099629182 -0.070241153 0.068703413
0.010603906 -0.070568711 0.068676203
0.011612868 -0.070191011 0.068413518
0.012587965 -0.070434332 0.068631582
0.013691726 -0.070648298 0.068546772
0.014431586 -0.070520587 0.068641268
0.015260487 -0.070272714 0.068299174
-0.015384828 -0.06983646 0.068481632
-0.014588341 -0.069573507 0.06865377
-0.013551056 -0.069375962 0.068448305
-0.012596902 -0.069570586 0.068605706
0.010695565 -0.069691762 0.068770163
0.011429036 -0.069490135 0.068178184
0.012529012 -0.069571979 0.068393484
0.013220058 -0.06956476 0.068493858
0.01446476 -0.069507495 0.068207577
-0.015199284 -0.068797611 0.068088502
-0.014051266 -0.068626046 0.068630785
-0.01335191 -0.068346612 0.068460658
-0.012848967 -0.068370983 0.06817735
-0.011410486 -0.068699121 0.068774544
-0.010603005 -0.068298489 0.068648852
0.010537084 -0.068444982 0.068632953
0.011228003 -0.068601444 0.068668149
0.012443437 -0.068531223 0.068288013
0.013350434 -0.068283148 0.068204664
0.014101141 -0.068534404 0.068105578
-0.013201647 -0.067200422 0.06837251
-0.012428775 -0.067428902 0.068710536
-0.011502917 -0.067451715 0.068456292
-0.010412405 -0.067466341 0.068685919
-0.0084953569 -0.067558482 0.068762384
0.0075385082 -0.067402281 0.068661883
0.0084020942 -0.067013726 0.068839967
0.0093447343 -0.067665972 0.068559512
0.011142668 -0.067536332 0.068732597
0.012481815 -0.067589968 0.068630502
-0.013174099 -0.066882521 0.068031907
-0.012726039 -0.066930801 0.0687626
-0.011443516 -0.066441305 0.068491168
-0.010725229 -0.066207647 0.068374634
-0.009602475 -0.066683829 0.068524793
-0.0081835743 -0.066390328 0.068090007
-0.0077296887 -0.066695608 0.068554938
-0.0063488362 -0.066674851 0.068972602
-0.0058200443 -0.066955082 0.06894242
0.0038455464 -0.066749282 0.068653271
0.004853785 -0.066188328 0.068779856
0.0055149067 -0.066021793 0.068748377
0.0068370542 -0.066800222 0.068853959
0.0078891553 -0.066179737 0.068468451
0.008488792 -0.066257842 0.068535909
0.0094613619 -0.066403978 0.068481192
0.010432624 -0.066464119 0.068476126
0.01183283 -0.066677079 0.068335041
-0.012022137 -0.065682888 0.06808196
-0.011728005 -0.065581515 0.068473905
-0.010478117 -0.065570258 0.068762071
-0.0096260151 -0.065527253 0.068605654
-0.0085002538 -0.0659879 0.0687249
-0.0073382067 -0.065572977 0.068537936
-0.0068035875 -0.065249786 0.068558477
-0.005536505 -0.065484822 0.068333074
-0.0042303121 -0.065151647 0.068700686
-0.0033112774 -0.065729402 0.068880737
-0.0022645742 -0.065831199 0.068407811
-0.00056006759 -0.065399811 0.068949662
0.00058574229 -0.065821193 0.068920806
0.0023253271 -0.065399483 0.06885995
0.0045282459 -0.065471977 0.068477087
0.0059480434 -0.065957218 0.068743996
0.0066792313 -0.065682977 0.068766885
0.0075730039 -0.065380871 0.068597883
0.0081108976 -0.065579318 0.068782821
0.0094393054 -0.065386996 0.068531938
-0.011259848 -0.064869262 0.068000242
-0.010137014 -0.064075723 0.068458237
-0.0095771765 -0.064336427 0.068546645
-0.008662154 -0.064358577 0.068322562
-0.0075915018 -0.064553797 0.068345591
-0.0063804332 -0.064482689 0.068663582
-0.0055754045 -0.064356022 0.068491437
-0.0045667686 -0.064204186 0.068442151
-0.0035132472 -0.064427875 0.06851238
-0.0025150445 -0.064636543 0.068394229
-0.0014296565 -0.064398944 0.06897907
-0.00025197153 -0.06447719 0.068595126
0.00057991315 -0.064386964 0.068690658
0.0016311646 -0.064505883 0.068484433
0.0021139449 -0.064412676 0.068427719
0.0034652967 -0.064466745 0.068737686
0.0044636317 -0.064686611 0.068333022
0.0056410674 -0.064511493 0.068406217
0.0067071421 -0.064283617 0.068518199
0.0073035271 -0.064372815 0.068477012
0.0084328661 -0.064448431 0.068347976
-0.0096365698 -0.063626803 0.068371981
-0.0087689953 -0.063572101 0.068226896
-0.0071843364 -0.063169979 0.068314746
-0.0066739745 -0.063575193 0.06851048
-0.0054070693 -0.063208729 0.068599194
-0.0046019685 -0.063497208 0.068685502
-0.0035559447 -0.063832931 0.068446383
-0.0023068213 -0.063562289 0.068581857
-0.0019003325 -0.063715577 0.068546697
-0.00039547789 -0.063614123 0.068678215
0.001686292 -0.063643172 0.06863264
0.002623463 -0.063174129 0.068416685
0.0038270459 -0.063712038 0.068626195
0.004136696 -0.063883699 0.068638913
0.0055925781 -0.06339924 0.06855417
0.0064469748 -0.063563243 0.068425529
0.0079545695 -0.063763797 0.068898767
0.0081152786 -0.063329414 0.068105429
-0.0082372641 -0.062954366 0.068417504
-0.0077352151 -0.062286042 0.068180457
-0.0062872171 -0.062581047 0.068349272
-0.0055658403 -0.062504254 0.068525046
-0.0043726866 -0.062538043 0.068475589
-0.0033893692 -0.062623233 0.068622209
-0.0023984797 -0.062300023 0.068572432
-0.0015107784 -0.062481795 0.068360977
-0.00041645329 -0.062401235 0.068866991
0.00040404269 -0.062583469 0.068228818
0.0016118065 -0.062265098 0.068627149
0.00237187 -0.062366933 0.068335555
0.0036811668 -0.062488984 0.068296112
0.0043357029 -0.062387642 0.068303145
0.0055093374 -0.062703766 0.06833829
0.0064885663 -0.062429212 0.068302505
-0.0050880862 -0.061568715 0.068441197
-0.0046538976 -0.061886609 0.068402596
-0.002452106 -0.061460711 0.068316028
-0.0015821692 -0.06158936 0.06826815
-0.00036566952 -0.061385438 0.068399273
0.0014798844 -0.06166818 0.068253003
0.0026713642 -0.061200541 0.068384334
0.0034993202 -0.061526183 0.068137512
0.0054556346 -0.061674245 0.068519153
-0.0050364304 -0.060836963 0.068006657
-0.0044854619 -0.060257524 0.068103425
-0.0026293965 -0.060555264 0.06821917
-0.0016603762 -0.060319789 0.068057597
-0.0003466206 -0.060734753 0.068206467
0.0037925255 -0.060802314 0.068056695
-0.015418083 -0.078387722 0.069185019
-0.013500441 -0.078138851 0.069065489
-0.011456976 -0.078194857 0.069336787
0.011629972 -0.078182422 0.069461755
0.012226732 -0.078407772 0.06957835
0.01378856 -0.078212582 0.069343254
0.014480955 -0.078256957 0.069254868
-0.01510933 -0.077189118 0.069556452
-0.01438765 -0.077562056 0.069444813
-0.013423353 -0.077291436 0.069399014
-0.012524188 -0.07752376 0.069652557
-0.011338823 -0.077145338 0.069423467
-0.0094871484 -0.077099115 0.069418855
0.0052646808 -0.077049419 0.069658555
0.0065150689 -0.077214561 0.069275513
0.0071308305 -0.077053711 0.069579951
0.0084773721 -0.077671245 0.069593593
0.0097452365 -0.077535793 0.069359876
0.010486115 -0.077466659 0.069562718
0.011471778 -0.077410236 0.069727518
0.01261561 -0.07749553 0.069395438
0.013179816 -0.077290058 0.069456637
-0.016497258 -0.076373249 0.069449991
-0.015383611 -0.076603472 0.069664516
-0.014694471 -0.076421142 0.069680244
-0.013486521 -0.076710992 0.069545195
-0.012531474 -0.076438047 0.069308288
-0.011237007 -0.076762572 0.06957224
-0.010329759 -0.076579794 0.069492504
-0.0093799625 -0.076470889 0.069524392
-0.0084334183 -0.07662861 0.069452427
-0.0076366127 -0.076548189 0.069278985
-0.0062502436 -0.076128229 0.069391035
-0.0054410975 -0.076426409 0.069810189
-0.0044514458 -0.076203801 0.069463812
-0.0030938685 -0.076018073 0.069066428
-0.0026262619 -0.076328896 0.069167905
-0.00029995132 -0.076185167 0.069349639
0.001792171 -0.076141506 0.069238424
0.0023215234 -0.076217279 0.069084436
0.0036383225 -0.076242283 0.069612011
0.0046820594 -0.076351747 0.069585837
0.0054604425 -0.076413013 0.069290273
0.0077777221 -0.076578327 0.069477305
0.0087838583 -0.076700568 0.069426537
0.0091063743 -0.076603226 0.069202639
0.010227885 -0.076535322 0.069567144
0.011298878 -0.076340139 0.069393396
0.012523229 -0.076684333 0.069593847
0.013388898 -0.07641276 0.069635421
0.014497292 -0.076431923 0.069727793
0.01524858 -0.076102898 0.069471173
-0.015778327 -0.075429417 0.069380835
-0.014738446 -0.075472668 0.069441259
-0.013618936 -0.07536 0.069536828
-0.012516592 -0.07529512 0.069672808
-0.0076629715 -0.075876296 0.069742031
-0.0064948038 -0.075766817 0.069187969
-0.0052610086 -0.075832352 0.069575772
-0.0047080833 -0.075695172 0.069601133
-0.0034232272 -0.075551935 0.069377527
-0.0024611694 -0.07563071 0.069684543
-0.0015044088 -0.07560879 0.069616668
-0.0004614972 -0.075760223 0.06959907
0.0005025884 -0.075698912 0.069715984
0.0013149575 -0.075692497 0.069612041
0.0023954187 -0.075640626 0.069528468
0.0034662629 -0.075753205 0.069539815
0.0042863339 -0.075877175 0.069707304
0.0057790247 -0.075988241 0.069681615
0.01077397 -0.075588331 0.069840237
0.012540802 -0.075529203 0.069574542
0.013349622 -0.075130276 0.069669418
0.014658898 -0.075482383 0.069214322
0.015606949 -0.075324148 0.069256596
-0.017538585 -0.07461407 0.069258019
-0.016552949 -0.074620269 0.069358222
-0.015489955 -0.074539922 0.0694419
-0.014255919 -0.074672185 0.069696724
-0.013582494 -0.074628815 0.069870964
-0.012819299 -0.074921578 0.06900008
-0.011617811 -0.074048549 0.069706127
0.009894656 -0.074025497 0.069999181
0.010837526 -0.074815847 0.069658667
0.011799112 -0.074477993 0.069772162
0.012442786 -0.074535273 0.069514491
0.013584596 -0.074568123 0.069685422
0.01420605 -0.074283138 0.069515124
0.015395152 -0.074611329 0.069391906
-0.016506935 -0.073541045 0.069704369
-0.01559031 -0.073387936 0.069510005
-0.013568975 -0.073873416 0.069822975
-0.012239762 -0.073813789 0.069951266
0.011236446 -0.073528975 0.069899432
0.012862422 -0.073006034 0.069288507
0.01316135 -0.073389821 0.069323055
0.014728181 -0.073605001 0.069517702
0.015326861 -0.07357499 0.069653064
-0.016200222 -0.072666392 0.069082767
-0.01546083 -0.072599664 0.069651462
-0.014216334 -0.072316848 0.069671698
-0.013557043 -0.072606429 0.069740355
-0.012858825 -0.07245104 0.069670476
0.011582692 -0.072210833 0.069797501
0.012387655 -0.072477154 0.069397271
0.013351305 -0.07248269 0.06958767
0.01479218 -0.072711021 0.069130376
0.015592491 -0.072628729 0.069031842
-0.016684547 -0.071965322 0.069101565
-0.015583668 -0.071737252 0.069545522
-0.014849838 -0.071335897 0.069251701
-0.013442849 -0.07161133 0.069726557
-0.012463734 -0.071442291 0.069805108
0.010532266 -0.071409844 0.069799334
0.011684095 -0.071055353 0.069789603
0.012586716 -0.07153862 0.069290213
0.013093013 -0.071624815 0.06986618
0.01435413 -0.071754649 0.069099821
-0.014413661 -0.070261858 0.069451421
-0.013484304 -0.070240699 0.06939546
-0.012666808 -0.070638508 0.069633618
-0.01052868 -0.070766658 0.06926176
-0.0099496348 -0.070366479 0.069767714
-0.0089703593 -0.070624776 0.069812365
0.0084058102 -0.070884764 0.069784649
0.0098848259 -0.070697904 0.069438629
0.010751643 -0.070346735 0.069594443
0.012526833 -0.070344076 0.069523498
0.013635844 -0.070346758 0.069710746
-0.014710527 -0.069520414 0.069027871
-0.013681315 -0.069530718 0.069444656
-0.01266593 -0.069502994 0.069394931
-0.011599589 -0.06926313 0.069213174
-0.010424262 -0.069305569 0.069487289
-0.0095032463 -0.069592893 0.069349051
0.006801358 -0.069435209 0.069799423
0.007202548 -0.06921573 0.069948107
0.0093238 -0.06950134 0.069616243
0.01054921 -0.069335721 0.069615759
0.012270768 -0.069649659 0.069401197
0.013631843 -0.069627911 0.069296695
-0.013648828 -0.068551078 0.069607824
-0.012325014 -0.068585783 0.069632046
-0.01134224 -0.068360113 0.069406316
-0.010567851 -0.068384282 0.069571979
-0.008251287 -0.068485335 0.069217198
-0.0078571169 -0.068084627 0.069568947
-0.0059634876 -0.068440996 0.069871813
0.0048105028 -0.068087086 0.069520652
0.0055054221 -0.068204194 0.069961518
0.0073703076 -0.068894424 0.069214344
0.0083959093 -0.068242639 0.069575615
0.0091489367 -0.068646908 0.069171682
0.010501804 -0.068515874 0.069341049
0.011522492 -0.068569228 0.069430329
0.012524727 -0.068959489 0.069269963
-0.01242713 -0.067648336 0.069395609
-0.011354839 -0.067563236 0.069433868
-0.01080247 -0.067520827 0.069641247
-0.0094624301 -0.067351334 0.069530934
-0.0084151765 -0.067767181 0.069749005
-0.006833503 -0.067635976 0.06987527
-0.005488459 -0.067672312 0.069451094
-0.0027983584 -0.067249522 0.069838397
-0.00026688236 -0.067199297 0.069857448
0.0002911482 -0.067600474 0.069525748
0.002266492 -0.067480087 0.06975098
0.0035632933 -0.067435928 0.069765292
0.0040008742 -0.067289919 0.069756433
0.0054809065 -0.067613766 0.069637299
0.0075367573 -0.067460842 0.069564924
0.0086591849 -0.067227766 0.06936238
0.009216994 -0.067466497 0.069256701
0.01016796 -0.06779623 0.069048896
-0.010161854 -0.066461526 0.069701925
-0.009361851 -0.066529311 0.069673926
-0.0084933499 -0.066213079 0.06922777
-0.0075647347 -0.066491976 0.069345139
-0.0064809886 -0.066274852 0.069617577
-0.0053425259 -0.066680707 0.069581933
-0.0045265523 -0.066358231 0.069600224
-0.0027870238 -0.066813499 0.069644675
-0.0007657269 -0.066513218 0.069663748
0.00099663157 -0.066186905 0.069546103
0.0023238226 -0.066407263 0.069698498
0.0034492661 -0.066277273 0.069845043
0.0044865771 -0.066429198 0.069462173
0.0055092573 -0.066607639 0.06939397
0.0062825992 -0.0662117 0.069497712
0.0075654974 -0.066434339 0.069633633
0.0086177206 -0.066325769 0.06939555
0.0093293544 -0.066290572 0.06927494
0.010562115 -0.066435754 0.069218174
-0.010527182 -0.065340698 0.069310099
-0.0094294623 -0.06582877 0.069493458
-0.008624997 -0.065443233 0.069330975
-0.0073245722 -0.065602742 0.069395453
-0.0066188122 -0.065655574 0.0694938
-0.0054239854 -0.065736651 0.069579974
-0.0047049513 -0.065473847 0.06976632
-0.0034349337 -0.065197609 0.06943275
-0.0026812258 -0.065489143 0.069675945
-0.0016617766 -0.065193474 0.069034114
-0.00024149047 -0.065770611 0.06987194
0.0018931783 -0.065535493 0.069797054
0.0024231665 -0.065387689 0.069496036
0.0033828532 -0.065245837 0.069075681
0.0044249091 -0.065733038 0.069457829
0.0057757776 -0.065617785 0.069681503
0.0068145096 -0.065891966 0.069887191
0.0071496409 -0.065349132 0.069346622
0.008451758 -0.065821819 0.069545805
-0.0084043927 -0.064619415 0.06919495
-0.0075094365 -0.064486347 0.069068134
-0.0067570582 -0.064723626 0.069564387
-0.0051797787 -0.064846918 0.069351368
-0.0045104348 -0.064416848 0.069509193
-0.0033691584 -0.064646319 0.069383219
-0.0024535707 -0.064550929 0.069473617
-0.0014968452 -0.064284891 0.069436908
-0.00059623941 -0.064624734 0.069594547
0.0006859079 -0.064566873 0.06932307
0.0016520265 -0.064536594 0.069471382
0.0024726312 -0.064618349 0.069570482
0.0037257788 -0.064537585 0.069485486
0.0044541154 -0.064680696 0.069283932
0.005558515 -0.064560205 0.069217533
0.0064762053 -0.064596884 0.069161132
0.0071916091 -0.064750202 0.069346547
0.008530153 -0.064936697 0.06921643
