# .PCD v0.7 - Point Cloud Data file format
VERSION 0.7
FIELDS x y z normal_x normal_y normal_z curvature
SIZE 4 4 4 4 4 4 4
TYPE F F F F F F F
COUNT 1 1 1 1 1 1 1
WIDTH 571
HEIGHT 1
VIEWPOINT 0 0 0 1 0 0 0
POINTS 571
DATA ascii
-0.021800056 0.0020641834 -0.020751499 -0.48920295 0.20993982 0.84652579 0.16998884
-0.021421298 0.0032575403 -0.020556547 -0.14143701 0.60011899 0.78730732 0.11971517
-0.021546129 0.0044405879 -0.020645928 0.75222737 -0.0050252266 -0.65888429 0.16367285
0.023556242 0.0040701088 -0.020185795 0.54421759 -0.81628197 -0.19367748 0.12778646
-0.022560252 0.0058200709 -0.020139743 0.96084833 -0.26943964 -0.064596526 0.089545898
0.023349628 0.0056686252 -0.020161932 0.82186502 -0.51478899 -0.24398808 0.10316612
0.023808381 0.0066759526 -0.020170828 0.80162001 -0.36851615 -0.47074538 0.1423583
-0.024067245 0.0070904791 -0.020287849 0.36982262 -0.75006539 0.54830027 0.15395579
-0.022597961 0.0084081134 -0.020474009 -0.50441331 0.092393361 0.85850489 0.14057477
0.021918725 0.0081665441 -0.020773483 -0.04142911 -0.99279928 0.11239749 0.15963139
0.024345785 0.0098221451 -0.020626163 0.095998809 -0.93328035 0.34608117 0.090719432
0.022917951 0.010504742 -0.020397397 -0.21006986 -0.81879658 0.5342685 0.12684351
-0.023354048 0.011493407 -0.020407358 0.43775344 -0.89180505 -0.11426154 0.11221219
0.023424681 0.012298327 -0.020500856 -0.32096854 -0.91984278 -0.2255404 0.10815142
0.026166573 0.013380323 -0.020460065 -0.069113508 -0.89308339 0.44455069 0.16918308
-0.023904201 0.014528066 -0.020874938 0.20668553 -0.97740203 0.04434279 0.10391281
0.024558052 0.014606642 -0.02039938 -0.23093639 -0.8354277 -0.49872744 0.10245547
0.025407219 0.014607432 -0.020342031 0.96017134 -0.25230232 -0.12005999 0.18318574
-0.024354279 0.015325465 -0.020477906 0.85125405 -0.46112701 0.25045654 0.055626877
-0.024505131 0.016152734 -0.020284085 0.050919525 -0.95863754 0.28003815 0.16956256
0.027316501 0.016540945 -0.020269204 0.089212403 -0.99469489 0.051217876 0.17677248
-0.026015695 0.01741308 -0.020256426 -0.39885187 0.045682725 0.91587681 0.18355258
0.025217608 0.017481329 -0.02060023 0.51280892 -0.36188319 0.77850342 0.081221655
-0.026492413 0.019994549 -0.02003256 0.65790218 -0.50119656 -0.56210929 0.17996949
-0.025244225 0.019470867 -0.02043972 0.12800129 -0.85558718 -0.50158387 0.075199708
-0.025647799 0.020271759 -0.02047376 -0.1690003 -0.46085092 0.87123781 0.098426387
0.02705206 0.021527778 -0.020044416 0.46396783 -0.8846578 -0.045982435 0.12282844
-0.026262863 0.023882676 -0.020413196 -0.21976934 0.10636865 0.96973556 0.13068692
-0.025548829 0.023623664 -0.020514524 -0.47299653 -0.86034185 0.18996368 0.17328933
0.025844838 0.023704173 -0.020555206 0.30297768 0.62606204 0.71850598 0.14093846
0.027322158 0.023245106 -0.020449208 -0.29310471 -0.72081417 -0.62810552 0.14213145
-0.026758844 0.027359629 -0.020370601 -0.4135997 0.025517181 0.91010112 0.094564147
0.027469575 0.027446104 -0.020617634 0.19192658 0.41147768 0.89098269 0.14280802
0.028213866 0.028830782 -0.020003924 0.097289406 -0.48447928 0.86937606 0.11335041
-0.025787901 0.029631827 -0.020457309 0.27667969 -0.81886971 -0.50289243 0.067826837
0.02652524 0.029754637 -0.020577023 0.86967623 0.11021224 0.48116165 0.15713006
0.026424367 0.030390628 -0.0205341 -0.18708047 -0.8061654 -0.56133616 0.14559303
0.026744597 0.033581797 -0.020493286 -0.17944242 0.48865169 0.85382664 0.080012724
0.027522435 0.033282649 -0.020521089 0.19508395 0.60381627 0.772883 0.11312412
0.026494164 0.036553197 -0.020486996 0.06790968 -0.22900571 0.97105336 0.098888904
-0.025731208 0.037598751 -0.020576404 -0.12303048 0.19471236 0.97311383 0.085325919
-0.024337538 0.037674084 -0.020456199 0.88046384 0.42522839 0.20967631 0.14908113
-0.010000984 0.037781715 -0.020451598 -0.42240193 -0.57551104 0.70025963 0.05199331
-0.0074875839 0.037805896 -0.020709995 -0.40322423 0.22359557 0.88736421 0.058463082
-0.0062924866 0.037837669 -0.020536866 0.98878473 -0.055636875 0.13859797 0.17290337
-0.0034317591 0.037582066 -0.020681558 0.44009784 0.34650806 0.82839966 0.044748388
0.00058741705 0.037730359 -0.020417295 0.73951626 0.29669577 0.60422456 0.089859411
0.0010518758 0.037183311 -0.02074541 0.51419544 -0.61495656 -0.59785569 0.12788455
0.010284364 0.037818883 -0.020554887 -0.28717765 0.40528575 0.86791283 0.087393038
0.014030936 0.037705384 -0.020964617 0.035707928 -0.76864409 -0.63867927 0.094203353
0.016500482 0.03764556 -0.020502822 0.6111747 -0.37843296 0.6951648 0.069302656
0.020472499 0.037339199 -0.020594342 0.78561103 0.15340507 0.59940159 0.024031846
0.027416255 0.03752283 -0.020477643 -0.2568543 -0.96568304 -0.03849734 0.1171238
-0.028090473 0.038855456 -0.020698916 0.051914942 -0.78708667 -0.61465389 0.13606095
-0.022480771 0.038497299 -0.020572444 0.90959638 0.2241127 0.34986836 0.056052662
-0.00037311367 0.038319647 -0.020563867 0.81653339 0.44976383 0.36191961 0.045964576
0.0017477655 0.038304523 -0.020341553 -0.11693795 0.035109382 0.99251842 0.036685277
0.0023226617 0.038400531 -0.020476501 -0.20407732 0.3618201 0.9096365 0.052163564
0.0034831595 0.038502105 -0.020350408 -0.51957023 0.50716662 0.68762553 0.034058183
0.0045522237 0.038431648 -0.020480378 -0.37205568 0.38603452 0.84412789 0.075396255
0.0094422 0.038388778 -0.020300448 -0.12691844 0.57372075 0.80915773 0.067808881
0.010678953 0.038261589 -0.020281456 0.10646986 -0.94330657 0.31438342 0.099253356
0.011479731 0.038546752 -0.020333139 0.85288072 -0.4254598 -0.30261934 0.098301336
-0.025813952 0.039634645 -0.020161545 0.23992652 -0.83250493 0.49937043 0.060213394
-0.02103151 0.039170999 -0.020377107 0.56256747 0.33869919 0.75418872 0.092588596
-0.016857181 0.039177883 -0.020209063 0.81978905 -0.32519847 -0.47137243 0.048939425
-0.013480492 0.039022733 -0.020249695 0.78499556 -0.39534992 -0.4769491 0.022698455
-0.010738682 0.039071269 -0.020190224 0.046295058 0.39033186 0.91950953 0.060966589
-0.0034674313 -0.022091255 -0.019407788 -0.16979204 -0.63880384 0.75040007 0.15419486
-0.0016524326 -0.021175219 -0.019226834 -0.12459976 -0.7959742 0.59236807 0.11424476
0.0030673593 -0.021444164 -0.019411627 0.63174891 -0.74801546 0.20338662 0.11605376
-0.0026611181 -0.02053272 -0.019531999 0.81256616 0.58286554 0.0020042632 0.16358486
-0.00048647009 -0.020292072 -0.019157168 0.90757889 0.36466029 0.20814289 0.15491641
-0.0053992756 -0.019145792 -0.0193264 0.98627269 0.068633124 0.15018536 0.13573235
-0.0039171027 -0.019474806 -0.019519459 0.94006604 -0.21837053 -0.26189736 0.14451629
0.0016909512 -0.019751085 -0.019505197 0.66764027 0.5512746 0.50035262 0.099378675
0.0036950603 -0.019525481 -0.019389769 0.14772929 0.13625713 0.97959685 0.13825643
-0.004585336 -0.018453702 -0.019408423 -0.07941214 -0.96528405 0.24883828 0.12110037
-0.0014779777 -0.018400557 -0.019622359 0.79624897 0.59261608 0.12162925 0.13281041
0.0082404707 -0.01846404 -0.019562876 0.64546251 0.63594908 0.42302114 0.14540121
-0.007276766 -0.017776487 -0.01936082 0.5746671 -0.76418948 0.29286885 0.19483894
-0.0054462841 -0.017667856 -0.019491777 0.87669706 -0.45449391 0.15759905 0.18821615
-0.0024086484 -0.017295938 -0.019696102 -0.63747805 -0.72297043 0.26633722 0.1138742
0.0056573227 -0.017673057 -0.019446392 -0.10302298 -0.80283839 0.587228 0.12591499
-0.0075037526 -0.016531825 -0.019512102 -0.095561244 -0.94836104 0.30245546 0.16914909
-0.0065750112 -0.016532902 -0.019566856 0.5326336 -0.59937036 -0.59754211 0.14992535
0.0048738206 -0.016131133 -0.019294348 0.46188468 -0.7134977 0.52686208 0.16723213
0.0085339295 -0.016638758 -0.019506171 -0.46743777 0.012615741 0.88393599 0.12959909
-0.012521301 -0.015676087 -0.019350069 0.46742475 -0.70206922 0.53722697 0.14643857
-0.011411923 -0.015646055 -0.019446786 0.8604216 -0.2211263 -0.45910546 0.16591448
-0.006437331 -0.015790846 -0.019712612 0.12267116 -0.80076998 0.5862757 0.097038671
0.0111753 -0.015820807 -0.019431012 0.74016011 -0.088356897 0.66660035 0.17161843
-0.013431951 -0.014442473 -0.019548988 0.04723794 -0.97044826 0.23664077 0.19111103
-0.01043791 -0.014554926 -0.019599251 -0.4512935 -0.83508444 -0.31459206 0.056457765
-0.0095253149 -0.014560494 -0.019670907 -0.12697117 -0.96414024 0.23304905 0.15288347
0.010582794 -0.014477029 -0.019567491 0.44489995 -0.14640751 0.88353205 0.16078044
-0.012275661 -0.013645262 -0.019538989 0.83604509 0.0048090611 -0.54863971 0.11634208
0.011450388 -0.013557222 -0.019617822 -0.41241971 -0.63756871 0.65070421 0.14170915
-0.015379895 -0.011338738 -0.019319596 -0.66846776 0.016089449 0.74356705 0.17049883
-0.012571666 -0.0119046 -0.019713853 0.0065973597 -0.34786922 0.93751985 0.14930895
-0.017221861 -0.010907892 -0.019290082 0.7978453 0.10308833 -0.59398288 0.15283635
0.012584102 -0.010663044 -0.019983076 -0.55544043 -0.81613821 -0.15938766 0.10871616
-0.013595778 -0.0097768623 -0.01959054 0.35477355 -0.81079203 0.46556637 0.082515106
0.013650378 -0.009772256 -0.019443683 0.76003087 0.56836134 -0.31514844 0.11880314
-0.016534889 -0.0082943505 -0.019375313 0.96734935 0.24709907 0.056368344 0.1449579
-0.018487072 -0.0053131767 -0.019580938 0.33834544 -0.29302904 0.89423507 0.1619556
-0.019428082 -0.00451627 -0.019429579 0.8409794 -0.21500354 -0.49651489 0.18004359
-0.018703066 -0.0024756924 -0.01969062 -0.54894704 -0.60275018 0.57909358 0.16278979
0.018519923 -0.0027523672 -0.019624839 -0.32892752 -0.88539332 -0.32845899 0.18537347
0.019409304 -0.0023132386 -0.019379742 0.82498455 -0.11291716 0.55376011 0.17026764
-0.019351944 -0.0013898136 -0.019479923 -0.43253329 -0.44710937 0.78294837 0.090118021
-0.018970912 -0.0015666373 -0.019796493 0.1252666 -0.93011826 0.34523654 0.10015798
0.022458285 0.00030475482 -0.019354139 0.48837709 -0.84879065 0.2025888 0.18933454
-0.023057591 0.0019883793 -0.019515032 0.12539655 0.30753919 0.94323659 0.15645027
0.021441966 0.0015535867 -0.019726504 0.38763538 -0.86813641 -0.30996439 0.10463973
-0.022443004 0.0035132878 -0.019684643 -0.46288079 -0.85429406 0.23648046 0.15989655
-0.021638358 0.0054594721 -0.019560091 0.10328484 -0.88691813 0.45023158 0.12037285
0.02247538 0.0056377789 -0.019360019 0.036970381 0.46451896 0.88479114 0.14096248
0.023184091 0.0054345112 -0.019712677 -0.078354284 -0.097183779 0.99217737 0.14151329
0.022772396 0.0078600859 -0.019651162 0.6083495 0.15016223 0.77933455 0.17225216
-0.024728585 0.0085802441 -0.019425668 -0.5049119 -0.41026217 0.75943989 0.1875305
-0.022383921 0.0084912283 -0.019830089 0.69025797 -0.5244078 -0.49853814 0.15704426
0.023409665 0.0085593825 -0.019311603 -0.32179332 -0.94642556 -0.026974946 0.14074534
0.024239535 0.0093621099 -0.019567657 -0.38664317 -0.60843647 0.6930455 0.11081053
0.025607774 0.0094256774 -0.019555822 0.24595433 -0.40269345 0.88167131 0.15499663
-0.024350151 0.010534833 -0.01933405 -0.3427974 -0.731722 -0.58912897 0.1721724
0.023929534 0.010666824 -0.019682184 -0.1726599 -0.68806422 0.70480937 0.10363729
0.023886018 0.011916745 -0.019854888 -0.44779295 -0.87777543 -0.17026965 0.11737502
-0.024589701 0.012682009 -0.019351136 0.87085205 0.37171277 0.32163087 0.082050495
0.023742063 0.012392559 -0.019311091 0.10040785 -0.907224 0.40848869 0.10426304
-0.02385479 0.01464674 -0.019547425 0.065762885 -0.96240687 0.2635304 0.045762759
0.025569685 0.016193844 -0.01907197 0.129748 -0.98415512 -0.12084733 0.090002343
-0.025255522 0.018610466 -0.01958433 0.44914043 -0.75390351 -0.47948122 0.14154693
-0.024743702 0.018436786 -0.019823538 0.13542174 -0.98924911 0.055199783 0.10430855
0.025538934 0.018620206 -0.019515177 0.34792286 -0.90563601 0.24243155 0.10080605
-0.026274648 0.019414993 -0.019625086 -0.38179216 -0.79211134 0.47622934 0.14672504
0.0264387 0.019607764 -0.019537775 0.13492711 0.64424485 0.75282347 0.097510874
-0.025721086 0.020684401 -0.01932756 0.71758485 0.3384119 -0.60872763 0.18765995
0.027302414 0.020650603 -0.019546185 0.35933062 -0.83011514 0.42636886 0.17983636
-0.025518119 0.022323854 -0.019446237 -0.34347644 -0.097079545 0.93413037 0.11676278
0.026717631 0.022145551 -0.019812306 0.52265644 -0.46209863 0.7164461 0.13655742
-0.025840089 0.025454814 -0.019189954 0.010075786 -0.97369492 0.22763261 0.084229432
-0.027114235 0.026714318 -0.019207245 -0.10787955 -0.96124572 -0.25371 0.13467433
-0.025806896 0.027491281 -0.019417614 0.28471848 0.035396527 0.95795745 0.078408256
-0.026428789 0.028614691 -0.019619977 -0.48209685 -0.6426717 -0.59544581 0.065134704
0.026622625 0.029444436 -0.01994434 0.56614053 -0.1103273 0.81689221 0.10582405
-0.025783841 0.030250158 -0.019255275 0.25682211 -0.75014836 -0.60936004 0.11894938
0.026615992 0.030681971 -0.01957915 0.22221205 0.034086395 0.97440237 0.10394416
0.027687877 0.030623872 -0.019497167 0.27243146 -0.90059197 0.33869633 0.11569549
0.026886404 0.03229969 -0.019218463 0.041471485 -0.78589916 -0.61696243 0.13009201
0.026437402 0.035464086 -0.019096751 0.62100601 -0.63854402 0.45454714 0.16044572
-0.025779918 0.036788631 -0.019639613 -0.19860592 -0.71740919 -0.66774225 0.098989271
0.026645726 0.036660172 -0.019365987 0.096357197 -0.99534333 -0.0026586996 0.17707419
-0.028102545 0.03760862 -0.019992571 -0.29210091 0.34001258 0.8939063 0.16481723
-0.026392635 0.037623171 -0.019422358 0.34634793 0.45530427 0.82020801 0.11441882
-0.02562408 0.03721942 -0.019577457 -0.29172465 -0.82564437 0.48291633 0.19172958
-0.012439397 0.037815101 -0.019839995 -0.31468219 -0.45494753 0.83306539 0.060989447
-0.0059668184 0.037699521 -0.019488834 0.44807753 -0.68231732 -0.57764149 0.17271519
-0.0039549647 0.037969928 -0.01946809 0.97829545 0.046604525 0.20190616 0.046968751
-0.0021671681 0.037663579 -0.019495387 -0.46089548 0.25662422 0.84954065 0.050386019
0.0035343277 0.037619352 -0.019503437 -0.36819202 0.30991864 0.87657571 0.040232137
0.010934466 0.037919387 -0.019977186 0.15135193 -0.97698599 0.15030284 0.11621308
0.014944775 0.037517607 -0.019521989 0.65226495 0.39286065 0.64823669 0.066348076
0.015211689 0.037915036 -0.019698307 0.64933282 0.53891826 0.53659469 0.057144184
0.018750317 0.037485719 -0.0195278 -0.2479174 0.28513491 0.92586982 0.097441204
0.019577451 0.037878867 -0.019705316 0.22088459 0.075941466 0.97233891 0.058021244
0.025631756 0.037365805 -0.019409014 0.88533348 -0.38701257 -0.25769347 0.10247134
0.02740523 0.037597556 -0.019445905 -0.01558678 -0.93708205 0.34876093 0.094368413
-0.0094718039 0.038669426 -0.019554758 0.096750267 0.37137559 0.92342818 0.046599507
-0.00048936298 0.038487341 -0.019494629 0.8012327 0.44496351 0.40004206 0.077593654
0.0045231618 0.038492035 -0.019361621 0.698026 -0.53588742 -0.47495726 0.06524229
0.0053653196 0.038525935 -0.019492431 0.75253993 -0.61030155 0.24741788 0.05268418
0.0073651006 0.038461138 -0.019661618 -0.55256629 -0.64056194 -0.53324562 0.062586851
0.0092271892 0.038622763 -0.019428663 0.12131254 0.3307161 0.93590075 0.034356173
0.015653066 0.038359351 -0.019652396 0.10037374 0.69568455 0.71130031 0.063393943
0.020395188 0.038643572 -0.01963271 0.74027002 0.65431833 0.15449202 0.1084036
0.027430495 0.038303651 -0.019623602 0.48315686 0.024857694 0.87518084 0.041343346
-0.014509285 0.03931855 -0.019239981 0.73693919 -0.23444295 -0.63400084 0.051051326
-0.01252179 0.039531153 -0.01935127 -0.15777721 0.36849758 0.91614187 0.028362278
-0.011232099 0.03925886 -0.019022625 0.4385404 0.18408446 0.87965626 0.038367383
-0.0097373193 0.039154913 -0.019434715 0.44687611 0.17402688 0.87750578 0.047252391
-0.00073233806 0.039242215 -0.019051045 -0.52196968 0.46148258 0.71734339 0.058853105
0.0022668256 0.039181888 -0.019354852 -0.25678495 0.47754329 0.84024632 0.048098169
0.0046748985 0.039568812 -0.019456318 0.79724926 -0.12802915 -0.58991712 0.061750833
0.013908735 0.039601542 -0.019012574 -0.40822378 -0.73555195 -0.54066306 0.041951653
0.020939888 0.039327934 -0.019464342 0.79458898 0.52879184 0.29834127 0.080520712
0.021470714 0.039223101 -0.019458206 0.88669288 0.46226552 0.009294074 0.086468421
0.022384897 0.039479066 -0.019389855 0.92383152 -0.077097133 -0.37495527 0.15502681
-0.00018436089 -0.02383266 -0.018691642 0.73553181 0.58650124 -0.3391301 0.11247269
0.00382837 -0.023677289 -0.018040599 0.81022888 -0.46442303 0.3575477 0.1805902
0.0020459387 -0.022420794 -0.01811325 0.91763109 0.32971999 0.22189611 0.101326
-0.0041874521 -0.021220008 -0.018867249 0.020443184 -0.83880293 0.54405129 0.12410613
-0.0024398798 -0.021571437 -0.018191906 0.081003368 -0.99582332 0.042124957 0.070179068
-0.0015829047 -0.02163122 -0.018474285 0.081080131 -0.94567871 0.31482965 0.16981182
0.00024484153 -0.021655597 -0.018490113 0.53288662 -0.68959892 0.49039289 0.12733436
0.0033051108 -0.021180917 -0.018426757 -0.22047836 -0.39342782 0.89252669 0.14607079
-0.00037311506 -0.020585699 -0.018550539 0.94401294 -0.1606295 0.28816259 0.11971713
0.0043209372 -0.020515393 -0.018597705 0.91844088 -0.083722413 0.38659668 0.13583089
0.005282558 -0.020538967 -0.018797036 -0.0037222507 -0.81455153 0.58007932 0.1176043
-0.0052646059 -0.019411836 -0.018470326 0.74799991 -0.66115588 -0.058043521 0.14875431
-0.001712203 -0.019328773 -0.018440245 0.94385254 0.19833261 0.26420924 0.12940657
0.0001821926 -0.019595547 -0.018766271 0.95820266 0.25121415 0.13689041 0.12112273
0.0033462346 -0.019606255 -0.018219378 0.90033579 0.13160965 -0.41481853 0.18103898
0.004234103 -0.019486666 -0.018597184 0.94542843 -0.057972278 0.32063109 0.17810343
0.0094927046 -0.019515999 -0.018611839 0.79006106 0.58459246 -0.18454036 0.14799243
-0.0094914604 -0.018319484 -0.018117385 -0.4359836 -0.39630929 0.80799586 0.10484967
-0.0066692852 -0.018299384 -0.018276282 -0.38125029 0.23792626 0.89333051 0.14414595
-0.0051357406 -0.018695351 -0.018884603 0.65536737 -0.73152381 -0.18805973 0.15394948
0.0073746201 -0.01825607 -0.018562239 0.3150003 0.13597393 0.93930078 0.12670197
0.0095133753 -0.018418547 -0.018362239 -0.3983115 -0.54267275 0.73949593 0.12035044
0.01058994 -0.018592004 -0.018456232 0.77367109 0.60657364 0.18303412 0.16163033
0.01220795 -0.018528277 -0.018258456 0.92558533 0.051353119 0.3750394 0.15443073
-0.0084183849 -0.017750585 -0.018369257 0.70302987 0.20238717 -0.68175399 0.16427982
0.0055341674 -0.017655315 -0.018902265 0.45843962 -0.77547878 0.43412638 0.10555831
-0.014367573 -0.016669437 -0.018044557 -0.57243955 0.51985645 0.63408375 0.18184389
-0.0095699206 -0.016379844 -0.018706288 0.062207051 -0.88038468 0.47016278 0.12856272
-0.0089092907 -0.016467091 -0.018618762 -0.17153761 -0.80003029 0.57491434 0.12039727
0.0099396622 -0.015442742 -0.018809542 -0.63792557 -0.70968199 -0.29900238 0.14724413
0.010744438 -0.015476222 -0.018655093 0.6991387 0.55907774 0.44568735 0.17832094
-0.016023744 -0.014037255 -0.018430913 0.67976791 -0.70271045 -0.21003243 0.10648464
-0.011759086 -0.014667366 -0.01867963 0.54534805 -0.79552293 0.26408094 0.18455374
-0.014470694 -0.013453091 -0.018260216 -0.69554579 -0.69586647 0.17884627 0.068713032
-0.011638416 -0.013934131 -0.018626332 0.55747664 -0.59587938 0.57805496 0.18739079
0.013421237 -0.013584058 -0.018365601 -0.12782177 -0.84044141 0.52661163 0.12497547
0.015293651 -0.013460773 -0.018388202 -0.69830996 -0.70748204 0.10877668 0.16087188
-0.016315956 -0.012356794 -0.018195514 0.65436423 -0.038340203 0.75520688 0.13088974
-0.015474034 -0.012534399 -0.018504698 0.96168059 0.21841505 0.16572644 0.11329395
0.013671889 -0.012537923 -0.018505245 -0.16390657 -0.91406447 0.37097266 0.14605826
0.017277431 -0.012485248 -0.018392716 -0.482173 -0.85538316 -0.18928483 0.17406037
-0.013390191 -0.01197508 -0.018935621 0.33717066 -0.87487525 0.34772015 0.13193229
0.017118046 -0.011319523 -0.018185137 0.47981125 -0.77067769 0.41932923 0.15786493
-0.01635346 -0.010418193 -0.018282097 -0.52593851 -0.36574006 0.76786911 0.18790776
-0.015404327 -0.010361131 -0.018604727 0.22079587 -0.77662653 0.59000027 0.13134994
0.017430566 -0.010151529 -0.018156391 0.66280174 -0.32894272 0.67267406 0.19413637
-0.019407855 -0.0086378921 -0.018227899 -0.07486169 -0.994865 -0.068112522 0.13292858
-0.016233947 -0.0082552917 -0.0185112 0.91026604 -0.36052838 -0.20355585 0.18911409
0.016313732 -0.0083487611 -0.01880724 0.90135843 0.3700726 -0.22494251 0.058865458
-0.019368771 -0.0075662429 -0.018461429 -0.023718836 -0.90866423 0.41685328 0.1959008
-0.020314079 -0.0060962699 -0.018076982 0.78140575 -0.11829558 -0.61270815 0.19104841
-0.018290477 -0.0068755988 -0.018920034 0.94738936 -0.056950442 -0.31497619 0.1770414
-0.017458426 -0.0063437819 -0.018455479 0.47611237 -0.87119305 0.11974858 0.18391886
0.017841496 -0.0061015915 -0.018945638 -0.63660538 -0.63831419 0.43276861 0.17086269
0.018523751 -0.0063426979 -0.018538477 -0.010192349 0.60431749 0.79667842 0.1543996
-0.019713052 -0.005837705 -0.01876401 -0.50178432 0.08986856 0.86031163 0.18168294
0.018850842 -0.0056495816 -0.01881348 0.99368763 0.081754357 -0.076818332 0.095424429
-0.019630566 -0.0044289483 -0.018327029 0.13875194 -0.30249619 0.94299734 0.084769323
0.020559028 -0.0049855337 -0.018799594 -0.18447293 -0.98166174 -0.048062302 0.18838175
-0.021283489 -0.0036673956 -0.018133298 -0.35868278 -0.039987762 0.93260264 0.15351196
-0.019367788 -0.0035449036 -0.018119622 -0.32999831 0.51136756 0.79347616 0.12198012
-0.018624075 -0.0036506923 -0.018675044 -0.36450869 0.061870076 0.92914236 0.13180041
0.019383576 -0.0036795109 -0.018505502 0.78754532 0.51853031 0.33301455 0.19338346
0.020464189 -0.0025278293 -0.018901452 0.10645507 -0.95984882 0.25953344 0.15460888
-0.022252778 -0.0012293383 -0.018190261 0.14016208 -0.95551938 -0.25949427 0.14774469
0.020512475 -0.0015289597 -0.018624583 0.7055583 -0.062537052 0.70588708 0.15673684
0.023270207 -0.00045832433 -0.018892543 0.38556316 -0.74597961 0.543006 0.13099003
0.020723086 0.00014839449 -0.018663354 0.47657079 -0.20002466 0.85607857 0.1836043
-0.023112213 0.0013086274 -0.018266466 -0.23266566 -0.96484822 0.12220676 0.13879539
-0.020956554 0.0015266594 -0.018391524 -0.46027145 0.33581397 0.82181454 0.096760318
0.022515206 0.0014237876 -0.018437818 -0.43644121 -0.88308328 0.17228743 0.11655846
-0.022416169 0.0023345286 -0.018466869 0.4988133 0.39287043 0.77255297 0.098150052
-0.024342233 0.0046813437 -0.018137887 0.72648728 0.30294442 -0.61679888 0.18390036
-0.023006158 0.0045368634 -0.018410478 -0.044348836 -0.98071539 0.19034332 0.18024188
-0.02256617 0.0043511447 -0.018442314 0.026548078 -0.799456 -0.60013777 0.16415921
0.022265993 0.0043795174 -0.01844053 0.0070192488 -0.72118056 0.69271153 0.082062334
0.024134293 0.0053768102 -0.018637866 0.77637976 0.082055196 0.62490112 0.17978409
0.022611635 0.0069890656 -0.018908642 0.23964363 -0.10562097 0.9650985 0.18492228
-0.025107943 0.0078784768 -0.018815113 -0.069697894 0.62323499 0.77892256 0.10815406
-0.023805141 0.0079842843 -0.018032774 -0.39034379 0.062623039 0.9185369 0.11675414
-0.023570161 0.0085925469 -0.018646356 -0.22993384 -0.9722141 -0.043934274 0.13479646
0.02321505 0.0093859807 -0.018713346 0.69241375 -0.72135431 0.014532652 0.17169484
0.02466185 0.0094306506 -0.018567184 -0.098384134 -0.8240239 -0.55794734 0.14329985
0.025460681 0.01052372 -0.018716915 0.5478251 -0.38220653 0.74418128 0.16294549
-0.026305476 0.01364636 -0.018483024 0.078404456 0.51640451 0.85274798 0.13755636
-0.025396835 0.013421452 -0.018405776 0.61602819 0.57958364 0.5334717 0.16201539
0.025380597 0.016402397 -0.018358028 -0.095511526 -0.93217856 -0.34917143 0.1570856
-0.024977816 0.017211532 -0.018302668 -0.575445 0.4434011 0.68721062 0.060236063
-0.027374368 0.018803902 -0.018223537 -0.063988984 -0.98747754 -0.14419954 0.16175941
0.02735934 0.020718254 -0.018024601 0.50322002 -0.81143808 -0.29721674 0.16173947
-0.025678916 0.021521598 -0.018627191 0.10462864 -0.62509382 0.77350545 0.069227338
0.028094731 0.02156391 -0.018466871 -0.011010363 0.19169696 0.98139238 0.14222085
-0.026122373 0.023902249 -0.018623902 0.3513442 -0.9262774 -0.13626239 0.044856355
0.02727169 0.023438189 -0.018218838 -0.050565962 -0.99209595 -0.11484163 0.17606488
0.027399296 0.024386581 -0.018755293 -0.44323957 -0.76979512 -0.45929733 0.16085209
-0.026446544 0.026456846 -0.018259235 0.24432766 0.38781792 0.88876384 0.11333135
0.027371725 0.02611015 -0.018808896 0.16068463 -0.49784169 0.85225236 0.11563127
-0.026388206 0.027617585 -0.018731704 0.16340892 -0.86283886 -0.47833738 0.1081413
0.028422931 0.027020793 -0.018933613 -0.21726324 -0.93598557 -0.27699748 0.10418774
0.028565187 0.030459724 -0.018112458 -0.068515055 -0.7956875 0.60181981 0.13003255
-0.028114717 0.032465339 -0.01824539 -0.022699764 0.40117863 0.9157185 0.1704282
-0.025826205 0.03362155 -0.018428382 0.064394936 0.23439142 0.97000718 0.12689525
-0.025820211 0.034292888 -0.018362463 -0.17324068 -0.60704613 0.77555305 0.11750703
-0.026445689 0.036576308 -0.01819893 -0.38370967 -0.92186761 -0.054102361 0.1391595
0.0273408 0.036482748 -0.018693054 0.77221388 -0.39266112 0.49950278 0.17311807
-0.026308969 0.037541408 -0.018535085 -0.52410012 -0.84243929 0.12496015 0.13923031
-0.023765489 0.038776826 -0.018708108 0.89414126 -0.3709231 0.2508536 0.080849759
-0.002396828 0.038644608 -0.018586926 0.84483749 0.071683533 0.53019899 0.043644942
0.0085048247 0.03872443 -0.018650206 0.76456583 0.17079015 0.62150598 0.0593706
0.010148315 0.038800906 -0.01843266 0.14187127 0.10464716 0.9843381 0.040636189
0.016793596 0.038619116 -0.018466411 0.13383782 -0.078302123 0.98790497 0.14599727
0.017795218 0.038806722 -0.018757951 -0.067366876 -0.82512981 -0.56091225 0.10693886
0.020894906 0.038423344 -0.018378884 -0.45931178 -0.70120311 -0.54529524 0.073506795
0.027960476 0.038345627 -0.01852579 -0.20906259 -0.81202161 -0.54489791 0.13361357
-0.025616357 0.039414082 -0.018485079 -0.16897491 0.67729872 0.71604049 0.11683761
-0.023502637 0.039405018 -0.018306704 0.75381476 0.6564278 -0.029425833 0.069628999
-0.022236049 0.039448105 -0.018782599 -0.42166787 0.62270868 0.65911311 0.096918195
-0.021618687 0.039219398 -0.018327475 -0.3346276 0.51448274 0.78951371 0.047649223
-0.01956813 0.03977016 -0.018564939 -0.01677308 0.39997789 0.91637123 0.03732973
-0.012484755 0.039574303 -0.018343041 0.41361085 0.46367514 0.78353775 0.024938293
-0.011496852 0.039577108 -0.018549202 -0.36603996 0.5982033 0.71285862 0.059034586
-0.0094364686 0.039550152 -0.018456774 -0.56647259 0.52844584 0.63233984 0.042467009
-0.0083980756 0.039553512 -0.01844674 -0.19989137 0.59176499 0.7809338 0.033407219
-0.0073022917 0.039539356 -0.018481521 0.10025275 0.091478541 0.99074769 0.047931425
-0.0014353936 0.039516274 -0.018395079 -0.065791644 0.38759449 0.91947913 0.097740851
0.0014921734 0.039621539 -0.018367434 0.56991148 0.41727346 0.70787269 0.035881069
0.0035285235 0.039625574 -0.01850874 -0.4931052 0.37846467 0.78333378 0.039974257
0.014342819 0.039341204 -0.018504608 0.029648468 -0.078644231 0.99646175 0.03444365
0.016691329 0.039381556 -0.018457098 -0.34667107 -0.54945254 0.76021117 0.074026756
0.019587323 0.039379798 -0.018579314 0.088439874 0.50855231 0.85647708 0.055738159
-0.02639751 0.040440284 -0.018548381 -0.25478873 -0.90609252 0.33775589 0.19111001
-0.015729636 0.040232286 -0.018716762 0.91482896 0.1453324 0.37678435 0.050805248
-0.014311021 0.040038291 -0.01840228 -0.33074269 0.39531842 0.85693216 0.089408457
-0.01354195 0.040008634 -0.018530482 0.0092321299 0.58525014 0.81080025 0.078774817
-0.0107108 0.040215589 -0.018202459 -0.33169222 0.51986241 0.78722501 0.073693864
-0.0045978725 0.040167656 -0.018781137 -0.22639568 0.39600527 0.88990158 0.06319683
0.00059095211 0.040126994 -0.018109482 0.87663639 -0.25746116 -0.40647551 0.10003496
0.0014893934 0.040295459 -0.01830744 0.54129273 0.49209598 0.68179452 0.049026478
0.012753021 0.040044218 -0.018637687 0.75685841 0.48139986 0.44206291 0.07517609
0.015660157 0.040145695 -0.018467216 -0.52438772 0.45277366 0.72111964 0.13985793
0.016898202 0.040187288 -0.018088602 -0.051572919 0.17715664 0.98283046 0.13066186
0.017339695 0.040082574 -0.018454898 0.30239141 0.24754876 0.92047757 0.11818451
0.02335229 0.040053971 -0.018233001 0.89994639 0.39928001 -0.17513403 0.10278866
0.024582257 0.040061943 -0.018881874 0.96022719 0.010232258 0.2790325 0.093482822
0.028458364 0.040577292 -0.018176096 0.78496331 0.26739693 -0.55886632 0.097998984
-0.026377492 0.041546848 -0.018325346 0.20360406 0.062503017 0.97705621 0.16538948
-0.0045131901 -0.025079608 -0.017087463 0.42571524 -0.90275919 -0.061582629 0.16070113
-0.0036658738 -0.025478292 -0.017016083 0.73604375 -0.60478586 0.30409491 0.17962936
0.001549304 -0.024480488 -0.01740119 0.82839227 -0.24462819 0.50390786 0.13296394
-0.0035942742 -0.023345882 -0.017414594 0.89627153 -0.16786781 -0.41050905 0.11764741
-0.00072437414 -0.023572398 -0.01760515 -0.46804848 0.12622899 0.87464094 0.10383403
0.0025169544 -0.023379549 -0.017468281 0.94448376 0.062884055 0.32248423 0.078933269
0.0032141032 -0.023442132 -0.017574251 0.83726519 -0.53187203 -0.1268826 0.11002599
0.007407241 -0.02351374 -0.017224947 0.92757112 -0.19123361 0.32100081 0.09542425
-0.0093113212 -0.022856137 -0.017120536 0.88771671 0.41160333 -0.2062564 0.11068125
0.0044754171 -0.022465032 -0.017677814 -0.24844423 -0.80191314 0.54333305 0.17019866
0.0054296236 -0.02281245 -0.017438928 -0.23623553 -0.55333251 0.79875892 0.1283938
0.0064834491 -0.022320267 -0.017318251 0.0096528716 -0.32959813 0.94407201 0.13012232
-0.01155539 -0.021018559 -0.017257288 0.91502225 0.1372256 -0.37934595 0.19511499
0.0038643759 -0.021539366 -0.017414005 0.87544698 -0.41233268 0.25213954 0.13789546
0.0043015601 -0.021537915 -0.017392995 0.97028118 -0.17153236 -0.17067795 0.14708468
0.0094675915 -0.021491161 -0.017434034 -0.54512203 -0.77031368 0.33084568 0.16030526
-0.0094363475 -0.020474743 -0.017617475 -0.26148516 -0.54707295 0.795196 0.13363694
-0.0066171456 -0.020544719 -0.017543521 -0.3607963 -0.56155753 0.74463367 0.15224129
-0.0055603236 -0.020264644 -0.017820898 0.99815124 -0.056136802 0.023296479 0.12478399
-0.0046590557 -0.020653117 -0.017866969 0.5974921 -0.550834 -0.58273929 0.11254326
-0.002631525 -0.020618333 -0.017825056 -0.25125372 -0.93452662 0.25205478 0.15938714
-0.0013843548 -0.020500479 -0.017807616 0.79865515 -0.60151827 -0.018045941 0.064848796
-0.00026688582 -0.020354152 -0.01784372 0.68311989 -0.71468377 -0.15024748 0.095545948
0.0056733713 -0.020459594 -0.017619185 -0.41287655 -0.54266006 0.73147321 0.13870429
-0.0093404436 -0.019603061 -0.017494014 0.70226628 -0.56603116 0.43177637 0.14121842
-0.00847599 -0.019777855 -0.0176952 0.6695528 -0.28651834 0.68527824 0.13486437
-0.0068393219 -0.019247975 -0.01752796 0.75413525 -0.65614903 -0.027359657 0.14199322
-0.004992716 -0.019911975 -0.017618984 -0.52089089 0.55076373 0.65217483 0.070661724
0.0085710222 -0.019660259 -0.017735373 -0.31498963 -0.64306861 0.69802886 0.1753304
0.0094384057 -0.019628357 -0.017715191 0.80061311 0.32811099 -0.50136 0.17949612
-0.013460414 -0.01869614 -0.017382467 0.79638422 -0.5660882 -0.21287635 0.18660858
-0.011323725 -0.018435743 -0.017507609 -0.68914175 -0.045697507 0.72318417 0.13826795
-0.0093077393 -0.01853116 -0.017408622 0.7741704 0.40924388 -0.48288661 0.10127956
0.0065785064 -0.018214839 -0.017929742 0.052225813 -0.81736207 0.57375246 0.18795608
-0.014801665 -0.017034844 -0.017571494 0.29378599 -0.79144603 -0.53600645 0.18939015
0.0087242285 -0.017607888 -0.017824732 -0.37707198 -0.71100122 -0.59354359 0.14467955
0.012582049 -0.017590325 -0.017202372 0.73831248 -0.67002809 0.077181935 0.11967969
0.014186795 -0.017740348 -0.017108474 -0.3517046 -0.85957086 0.37073132 0.14442961
-0.012460329 -0.016339431 -0.017414026 -0.41347483 0.26371518 0.87148881 0.16858076
-0.010963187 -0.01661494 -0.017443728 0.95204157 -0.16039859 -0.26055548 0.14227676
-0.0095228758 -0.016976042 -0.017956058 -0.0091751087 -0.88983268 0.45619488 0.15492401
0.008767263 -0.016558826 -0.0178697 -0.27560905 -0.63299298 0.72343588 0.15966648
0.012629293 -0.016426515 -0.01761492 0.78160697 -0.57410926 0.24390376 0.15955447
0.01343189 -0.016340792 -0.017214742 0.99764031 0.060325362 -0.032782115 0.15434729
-0.015790116 -0.01553758 -0.01730613 0.98434442 0.041032184 -0.17141265 0.15233676
-0.014234598 -0.015696246 -0.017374005 0.062851734 0.36909932 0.92726231 0.14525713
-0.013551533 -0.014553651 -0.017419709 -0.38326368 -0.815355 -0.43394142 0.083983451
0.012616527 -0.014476234 -0.01760269 0.87717777 0.47862366 -0.038450368 0.10956189
-0.016563211 -0.013305001 -0.01760136 0.62600315 -0.56413776 -0.53839445 0.083835922
-0.015611215 -0.013119848 -0.017466567 0.6944862 -0.39319867 0.60256428 0.17336701
-0.013324452 -0.013596251 -0.01782742 0.86418277 -0.44266313 -0.23924352 0.096347384
0.0156233 -0.013509099 -0.017537424 0.76490927 0.64164579 0.056607295 0.16841154
0.014407942 -0.012327282 -0.017596021 0.7600317 0.64963692 0.017990325 0.15984727
0.016207825 -0.01256834 -0.017616343 -0.4889338 -0.80918366 -0.32583055 0.18618658
-0.014666369 -0.011756971 -0.017943032 0.88464391 -0.2858178 -0.36839285 0.1299721
-0.018500246 -0.010557616 -0.017362181 0.65779477 -0.62920141 -0.41401887 0.16705413
-0.016567966 -0.010186457 -0.017627727 -0.20738618 -0.88957977 0.40698749 0.11131705
0.018483886 -0.0097164251 -0.017327109 -0.49775583 -0.78322381 0.37255824 0.16729963
-0.018738434 -0.0082579535 -0.01742281 0.46570364 0.38510263 0.79675347 0.06160064
-0.018521206 -0.0076376623 -0.017515888 -0.20298128 -0.87571567 -0.43808761 0.098275349
-0.017793946 -0.0075598061 -0.017559072 0.25676388 -0.68546104 0.68133354 0.16457497
-0.018284917 -0.0069302563 -0.017563734 0.16423735 -0.7475518 0.64357781 0.16767427
0.019447803 -0.0056056473 -0.017442849 -0.23767941 -0.72003764 -0.65196192 0.10286023
0.021355325 -0.0059423968 -0.01747827 0.77352673 0.28286383 0.56713712 0.10517478
0.022306122 -0.0054509416 -0.017204897 0.91813523 -0.38631251 0.088263236 0.07008376
-0.021136237 -0.0049350141 -0.017573325 0.39891353 -0.75456619 -0.52105457 0.18069193
-0.020378705 -0.004429766 -0.017162247 -0.40936852 -0.91085309 0.052575614 0.13373038
0.020442193 -0.0035431294 -0.01746597 0.33420184 -0.75555217 0.56342715 0.16368903
0.021046843 -0.0037632287 -0.017203726 -0.60330838 -0.66131437 -0.44573787 0.10878483
-0.020723587 -0.0024596569 -0.017442012 -0.66546947 0.17829643 0.72481787 0.11473643
-0.022213334 -0.0013788678 -0.017499439 -0.23133957 -0.97287226 -0.0012559197 0.13179736
0.023134196 -0.0014229026 -0.017368119 0.53149307 -0.10937056 0.83997226 0.15691325
0.022495668 -0.00026731566 -0.017604154 0.36095604 -0.37781 0.85262555 0.14811364
0.021569476 0.00036428031 -0.017489448 -0.077536106 -0.85590589 0.51128596 0.088112101
-0.022437681 0.002379965 -0.017531144 0.29593086 -0.68282712 -0.66796112 0.15366492
0.022622639 0.004367881 -0.017619116 0.56938928 0.49492332 0.65638924 0.071428955
0.023501845 0.0045455438 -0.01768849 -0.46040237 -0.82390273 0.33047533 0.10974932
0.024086386 0.0049845614 -0.017430311 0.81954187 0.42889643 -0.37999877 0.065118134
-0.023503847 0.007540511 -0.017802589 -0.37753165 -0.046908081 0.92480785 0.077801146
-0.023984807 0.010822998 -0.017610788 0.43562609 -0.87348652 -0.21737356 0.13539179
-0.024584327 0.011293176 -0.01763927 -0.44754297 -0.8934198 -0.038810905 0.12850848
0.025598696 0.012791466 -0.017496141 0.093177527 0.18269552 0.97874421 0.14175251
0.025350899 0.014415925 -0.017486753 -0.47036588 -0.82406491 0.31571019 0.12535197
-0.025319479 0.016352691 -0.017715108 -0.35194501 -0.15782501 0.9226191 0.1159451
-0.024813997 0.016156642 -0.017407868 -0.19185384 -0.29117486 0.93723488 0.10320768
0.02662186 0.016022358 -0.017186996 -0.26290992 -0.70595753 -0.6576491 0.12882654
0.025646344 0.017411347 -0.017494686 -0.37308529 -0.87021202 0.32177392 0.13760987
-0.025477812 0.020884082 -0.017689653 -0.32017437 -0.26502728 0.90953225 0.089369178
0.026593959 0.020138752 -0.017262384 0.092113435 0.51827687 0.85023779 0.13102619
-0.026479304 0.022188926 -0.017698679 0.86434329 -0.43830469 -0.24657591 0.07916829
0.027526746 0.02463772 -0.017639104 0.66141379 -0.093480915 0.74417275 0.17654353
0.027039748 0.02541329 -0.017123982 0.43818685 -0.87335134 -0.21271993 0.11050899
0.027503254 0.027227504 -0.017587397 -0.34473029 -0.80608118 -0.48103443 0.1623531
0.026240477 0.028900767 -0.017630551 -0.26198334 -0.93358499 0.2445073 0.11089479
-0.026547654 0.030630026 -0.017335963 0.96365547 0.26278558 -0.048081029 0.18192363
0.028011393 0.030470818 -0.017024484 0.61399776 0.61321288 -0.49696752 0.074188106
-0.027446007 0.031544603 -0.017477898 -0.30132475 -0.87675583 -0.37483668 0.17453407
-0.025805395 0.03157774 -0.017685659 0.13008566 -0.030968536 0.99101895 0.10355812
0.026547749 0.031676427 -0.017497037 0.086286947 -0.97196949 -0.21870025 0.11414647
0.028329199 0.032959677 -0.017880861 0.76824039 0.20551634 -0.60627538 0.12168093
-0.026865875 0.034220628 -0.017531876 -0.31678906 0.10999223 0.94209677 0.19359381
-0.026714541 0.035781391 -0.017464304 -0.26091284 -0.83098799 0.49130797 0.1270566
0.026299343 0.035300385 -0.017428135 0.10332105 0.098221034 0.98978651 0.13492121
-0.026591893 0.036373492 -0.017745625 0.9186939 0.071650051 -0.38841695 0.18799165
0.028209222 0.037279263 -0.017649883 -0.06235062 -0.99394971 0.090423152 0.14733332
-0.011602502 0.038990378 -0.017364312 -0.27451047 0.61020654 0.74316347 0.056145664
-0.0097139236 0.038974106 -0.017367136 -0.47349975 0.47949407 0.73883915 0.087751135
-0.0059359199 0.038941622 -0.017372794 -0.095166981 -0.8338955 -0.54365575 0.068966709
-0.0040465705 0.038923323 -0.017375976 0.29943773 0.51022309 0.80623156 0.068011194
-0.0021568667 0.038908064 -0.017378625 0.53192437 0.31994176 0.78402406 0.058448024
0.0054044509 0.038846076 -0.017389413 0.93029577 0.33046266 0.15919851 0.07092987
0.0091867372 0.038812459 -0.01739525 0.028168239 0.54901725 0.83533615 0.079047404
-0.021346254 0.039503444 -0.017504465 0.91651428 0.24970981 -0.31248453 0.026640721
-0.01756772 0.039507627 -0.017583761 0.89866316 -0.17937911 -0.40028453 0.066294633
-0.016497551 0.039724495 -0.017545829 0.64157653 0.21140815 0.73735088 0.054455847
-0.015480419 0.039174665 -0.017615274 0.94393718 -0.25847739 -0.20535828 0.059565239
-0.0014240254 0.039577484 -0.017413275 -0.1076813 0.29613969 0.94905531 0.059075695
0.0046119355 0.039796524 -0.017356049 0.95552498 -0.10204048 0.2766943 0.059262272
0.0076882355 0.039364606 -0.017491279 -0.41213673 0.28641969 0.86493188 0.049747061
0.018663269 0.039504759 -0.017630432 0.78757924 -0.12297516 -0.60381782 0.062814772
0.022459656 0.039651863 -0.017181497 0.9971897 -0.074910022 0.0011266423 0.052848149
0.023329102 0.039282482 -0.017634412 0.97493231 0.19117674 0.11383512 0.093226291
0.026292244 0.039436787 -0.017370913 0.7891106 -0.60570848 0.1020864 0.18914811
0.02727861 0.039655156 -0.017313926 -0.57931614 0.29345185 0.76044643 0.17203051
-0.025558628 0.040447943 -0.017629031 0.44204003 0.22597702 0.86806393 0.15049493
-0.020413056 0.040478375 -0.017420791 0.85720032 0.19684981 -0.47587565 0.058352351
-0.015527134 0.040504802 -0.017546661 -0.0036970428 0.59592503 0.8030315 0.10266434
-0.0066413046 0.040354911 -0.017462024 -0.38832867 0.58317721 0.71351612 0.044926651
-0.0055525764 0.040243886 -0.017569574 -0.019670188 0.29876357 0.95412439 0.054877933
-0.0016257134 0.040575102 -0.017230056 0.16336145 0.10811993 0.98062384 0.082693271
0.0053630569 0.040356558 -0.017458115 0.90630662 0.35579845 0.22806972 0.067094155
0.019558616 0.040181421 -0.017356748 0.88997358 -0.36984998 -0.2667546 0.024338139
0.023996521 0.040062282 -0.017547494 0.74452204 -0.36144418 0.5612886 0.037725616
-0.025617229 0.041364767 -0.017490741 -0.40563324 -0.66221523 -0.63002604 0.15934063
-0.023759769 0.041033734 -0.017172188 -0.43173888 -0.80362195 0.4096258 0.13486867
-0.020087114 0.041059203 -0.017121196 0.95827025 -0.24785045 -0.14243685 0.062137298
-0.015689181 0.041092969 -0.017008007 0.94122767 -0.09833017 -0.3231433 0.092459694
0.026568262 0.041434757 -0.017587064 -0.5504635 -0.69753897 -0.45872581 0.11967005
-0.025629207 0.042434692 -0.017917009 0.14213383 0.41241387 0.89984041 0.17078866
-0.0044734799 -0.025425933 -0.01642298 0.018948795 -0.95620519 -0.29208323 0.10716957
-0.0014605607 -0.025533553 -0.01654103 0.71846545 -0.49210748 0.4915666 0.1205252
-0.000303282 -0.025419775 -0.016581627 0.96642047 -0.12555057 0.22420633 0.1796231
0.0045030997 -0.025811948 -0.016532738 0.97218746 0.1129547 0.20516537 0.1199138
0.0070924722 -0.025777204 -0.016022343 -0.011413958 -0.8336066 0.55224073 0.09321291
0.0036099972 -0.024371639 -0.016867541 -0.41626069 -0.3973372 0.81783259 0.1229625
0.0057907612 -0.024455996 -0.016379369 0.78420925 0.41219419 -0.46380147 0.1152626
-0.0072316853 -0.023730034 -0.016064886 0.90227067 -0.36486185 -0.22974668 0.15113989
0.0063328603 -0.023682529 -0.016612213 -0.56143814 -0.38786924 0.73098886 0.11261071
-0.00065435132 -0.02208307 -0.016974516 -0.3113077 -0.48632222 0.81644243 0.072781906
0.0044850032 -0.02268644 -0.016545668 0.43975154 -0.82152069 0.36293569 0.12141755
0.0084897317 -0.022298303 -0.016488211 0.98672843 0.10423186 -0.12450995 0.15485962
-0.01018925 -0.021430004 -0.016809735 -0.37544745 -0.79392374 0.47825125 0.1365958
-0.0028195018 -0.021998886 -0.016912408 -0.23875177 -0.7320317 0.63806516 0.13140297
0.0097411629 -0.021642111 -0.016042981 0.90955687 0.19906211 0.36480224 0.094903588
-0.013359427 -0.019671634 -0.016543878 -0.12670179 -0.7546978 -0.64372194 0.115151
0.010621164 -0.019632729 -0.016598595 0.17404439 0.52992284 0.82999414 0.11139685
-0.0099430485 -0.018615559 -0.016569411 -0.29843405 -0.7179786 0.62884325 0.094961889
0.0092263212 -0.018385896 -0.016883599 0.86868 0.49344748 -0.043641701 0.1431769
0.010795601 -0.018544 -0.016741723 -0.28422472 -0.95465505 -0.088600896 0.16317445
0.012701553 -0.018493688 -0.016316012 0.8265273 -0.27066472 0.49355149 0.16634656
0.014510311 -0.017395578 -0.016133653 0.78544682 0.23572147 0.57228374 0.089756027
-0.014697456 -0.016595496 -0.016368371 0.14994785 0.34702736 0.92579031 0.10646447
0.015246585 -0.016069878 -0.016364586 0.81524342 0.43724781 -0.37972683 0.19329697
0.016109806 -0.016937964 -0.016796259 -0.68345118 -0.71874189 0.12768923 0.18163981
-0.012815564 -0.015930334 -0.016993936 0.046829686 -0.21525027 0.97543544 0.18258955
-0.016514728 -0.014637928 -0.016417222 0.018352313 -0.99168617 -0.12736422 0.17685325
0.014458761 -0.013559507 -0.016848177 0.71483314 0.6643427 0.21831697 0.091977052
0.016039785 -0.013683605 -0.016628493 0.34064388 0.54981452 0.7626701 0.14865558
-0.016546939 -0.012307541 -0.016799627 0.97980654 0.0017181369 -0.19994041 0.16005772
0.01826532 -0.012796755 -0.016661774 0.87755728 -0.37499592 0.29878289 0.19306596
-0.017319616 -0.011833308 -0.016234284 -0.21878885 -0.84922993 0.48056224 0.14686219
-0.016696721 -0.011601463 -0.016505741 -0.5954808 -0.21584325 0.77383095 0.18207887
-0.018206535 -0.01057022 -0.016618185 0.99657017 0.010323013 0.082106717 0.072989836
0.017544921 -0.010524392 -0.016690092 -0.14315201 -0.98954999 0.017270854 0.13430335
0.019183565 -0.010628667 -0.016444651 -0.45463327 -0.72004277 0.52425855 0.18373136
-0.018530015 -0.0095518995 -0.016400883 -0.055218831 -0.98419744 -0.1682447 0.082665905
-0.019418839 -0.0085079083 -0.016413098 0.24004863 -0.46973649 0.84954351 0.1568514
-0.018593477 -0.0086274846 -0.016567277 0.2814438 -0.88581824 0.36893818 0.16776721
0.019423805 -0.0074889339 -0.016584791 0.79672056 -0.59320891 0.11549696 0.12395653
-0.021438323 -0.0062780748 -0.016492451 0.35929 0.40832242 0.83915645 0.092934132
-0.020591939 -0.0065573789 -0.016635736 0.72030818 0.19447401 0.66583478 0.070271306
0.019475566 -0.0067484379 -0.016477879 -0.42148057 -0.44495514 0.79017031 0.098441467
0.021405086 -0.0054012761 -0.016689699 0.72828186 -0.67937374 -0.089760572 0.1293115
-0.020478355 -0.0045801252 -0.016476445 -0.065080844 -0.77431238 0.62944806 0.096616976
0.021796705 -0.0014972709 -0.016522955 0.61070043 -0.030866811 0.79126 0.17173842
-0.022733223 -9.1228634e-05 -0.016296258 -0.32728294 -0.44267341 0.83482105 0.099163182
0.023461984 -0.00037251413 -0.016083971 0.020192964 -0.7103774 0.70353127 0.09556751
-0.023472004 0.00071836659 -0.016683308 -0.17503123 -0.94684869 -0.2698918 0.14297049
-0.021849228 0.00027281418 -0.016567975 0.3447327 -0.91394138 -0.21417414 0.12024866
0.021721711 0.00046877004 -0.016848685 0.37757987 -0.26132411 0.88833731 0.10948706
-0.023725277 0.0023220442 -0.016811535 0.7183575 -0.69559145 0.010728685 0.14581917
-0.022663614 0.0025690894 -0.0165279 0.7830112 -0.35975221 -0.50741678 0.10489412
0.024364594 0.0043744566 -0.016285527 -0.19263497 -0.91866368 0.34488964 0.1345706
-0.023354249 0.0054141073 -0.016730556 -0.17529336 -0.97508913 0.1359174 0.085483342
0.023517588 0.0055968952 -0.016522707 -0.1113473 -0.97770619 0.17802334 0.10846185
0.025167458 0.0053869504 -0.016313475 -0.32594693 -0.84205484 -0.42976999 0.1187987
-0.023731334 0.0067492761 -0.016847061 -0.090800107 -0.80098248 0.59176213 0.16858801
-0.025899105 0.0077955499 -0.016049543 0.0037734897 -0.33445191 0.94240528 0.11912113
-0.024634818 0.0072012939 -0.016368883 0.87930191 0.12839152 -0.45863247 0.10998508
0.023593646 0.0080629494 -0.016864661 0.36722234 -0.12911601 0.92112803 0.1726367
0.025309836 0.0097250454 -0.016555443 0.78808123 -0.23129468 0.57046539 0.1299777
-0.025658922 0.01053949 -0.016522758 -0.27264589 -0.953852 -0.12581947 0.12623982
-0.024631932 0.010911032 -0.016567426 -0.61880922 -0.14780203 0.77151126 0.13223828
-0.02452009 0.011402331 -0.016580069 0.19693716 -0.94220459 -0.27104664 0.15683453
-0.025266293 0.012473185 -0.016374446 -0.33952799 -0.85201097 0.39849478 0.14582622
0.027072687 0.012804002 -0.016061714 -0.19034635 -0.90582353 -0.37848663 0.17232062
0.027097568 0.013555977 -0.01691879 0.37341943 0.15085714 0.9153142 0.13931295
0.026457535 0.015482588 -0.016432581 0.5442335 -0.38578951 0.74496734 0.1683622
-0.025801292 0.01626897 -0.016751567 0.79879749 -0.42923683 -0.4215191 0.080837153
0.025764203 0.017340766 -0.01646908 -0.55070555 -0.81194133 0.19358395 0.11721913
0.028333504 0.017672874 -0.016276307 0.59990788 0.55599165 0.57531196 0.17258228
0.025828926 0.020722989 -0.01638481 0.088221811 -0.99420512 -0.061425418 0.18086807
0.026717613 0.021677945 -0.016621854 0.96497178 0.038125686 0.25956878 0.099704653
0.026367407 0.022248767 -0.01633409 -0.36799771 -0.85887897 -0.35623673 0.12599637
-0.026387306 0.025621055 -0.016582774 -0.36898279 -0.20554289 0.90642363 0.099998042
0.026615106 0.02521047 -0.016174739 0.26826832 -0.18261784 0.94587678 0.17311388
0.027059698 0.025299713 -0.016707832 -0.037987757 0.61683673 0.78617382 0.1291661
-0.026497662 0.026334578 -0.016385902 -0.33770114 -0.74084842 -0.58060443 0.11545494
0.026497183 0.026428629 -0.016601041 0.96586519 0.23439698 0.11028377 0.11700941
-0.026309898 0.027369445 -0.016588494 0.26935697 0.33937451 0.90126115 0.17535105
-0.026488481 0.030500868 -0.016445871 0.35429102 0.63423097 0.68718916 0.077048711
0.027541304 0.031360272 -0.01670856 0.44844157 -0.84552836 0.28979653 0.17446852
-0.027202375 0.032046892 -0.016785249 0.099735193 -0.92675066 -0.3621963 0.11629084
0.027403081 0.032766383 -0.016444236 0.63453519 -0.17069998 0.75380814 0.14650559
-0.02643227 0.033495374 -0.01656056 0.47995168 0.35563689 0.80197805 0.11806582
-0.025801208 0.033666458 -0.016668424 0.17557502 0.23873502 0.95508063 0.12276474
-0.02717378 0.034621686 -0.016517743 -0.5319224 -0.6217066 -0.5749256 0.079479739
-0.025788277 0.035419039 -0.016496645 0.1734869 0.59380847 0.78568053 0.091357991
0.026244549 0.035489183 -0.016368395 0.58674818 -0.67219198 0.45153564 0.15200986
-0.025735755 0.037447769 -0.016501771 0.10029299 0.47597227 0.87372291 0.074737675
0.027179878 0.037346631 -0.01663225 -0.049781397 -0.093173958 0.99440461 0.11598552
-0.014018129 0.039550003 -0.016900685 0.32283208 0.34761876 0.88030714 0.090567395
-0.01004626 0.039952222 -0.016748309 -0.16310848 0.66665524 0.7273007 0.062291835
-0.0097699286 0.03962265 -0.016723642 0.54858977 -0.64797664 -0.52837062 0.054608755
0.0069689844 0.039907079 -0.016025718 0.79847044 -0.11126519 0.59166288 0.035193048
0.0094772214 0.039767545 -0.016780572 0.041913193 -0.82631236 -0.56165034 0.050451066
0.01089498 0.039972663 -0.016471237 0.28797927 0.060292184 0.95573682 0.088468015
