# .PCD v0.7 - Point Cloud Data file format
VERSION 0.7
FIELDS x y z
SIZE 4 4 4
TYPE F F F
COUNT 1 1 1
WIDTH 1236
HEIGHT 1
VIEWPOINT 0 0 0 1 0 0 0
POINTS 1236
DATA ascii
-0.006309323 0.027394855 0.0058204634
-0.0055589536 0.027677137 0.0056667002
-0.0045144791 0.027817236 0.0053701219
0.004718028 0.027761897 0.0052413181
0.0057351217 0.027309313 0.0055442532
0.0062619438 0.027269932 0.0053406646
-0.0052735172 0.028309336 0.0055712881
-0.0045001036 0.028504673 0.0054028668
-0.0039004777 0.028361261 0.0050011599
-0.0029069157 0.028892979 0.0050162622
0.0024432067 0.028939977 0.0052484456
0.0037219713 0.028617639 0.0050907377
0.0044824616 0.028475296 0.0056217667
0.0054853507 0.028469888 0.0055476013
0.0061191469 0.028008452 0.0054371115
-0.0050540036 0.029005244 0.0059291478
-0.004022588 0.029269578 0.0056809485
-0.0034114728 0.029606532 0.0052669197
-0.0026453671 0.02954863 0.0053570173
-0.0013658415 0.029647609 0.0052543241
0.00040288115 0.02967676 0.0051791752
0.0014861193 0.029790765 0.0055694031
0.0026530575 0.029639952 0.0055710352
0.0035595826 0.029178875 0.0054912725
0.0041230451 0.029396052 0.0055162678
-0.002387383 0.030101212 0.0051983688
-0.0015203817 0.030264121 0.0054584807
-0.00043060206 0.0303814 0.0053877286
0.00058972952 0.030315988 0.0054654689
0.0014302899 0.03039659 0.0056348233
0.0024486657 0.030025562 0.0054071248
-0.010497716 -0.043252341 0.006930477
-0.011675606 -0.042569086 0.006961877
-0.010656951 -0.042238459 0.00690145
-0.01240677 -0.041367393 0.006722948
-0.011300204 -0.041340921 0.0066150157
-0.010714371 -0.041181862 0.0068015633
-0.0094828485 -0.041177545 0.0065901452
-0.008632713 -0.041426554 0.0066378405
-0.013250316 -0.040378787 0.0066917925
-0.012343759 -0.040478859 0.0065428419
-0.011521344 -0.040560924 0.0066011338
-0.010644187 -0.040576771 0.006664448
-0.0097619649 -0.04083398 0.006559948
-0.008405529 -0.040700551 0.0066879825
-0.00764046 -0.040333863 0.0067105042
-0.014506418 -0.039600372 0.0066695646
-0.013403575 -0.03967762 0.0066886432
-0.012351654 -0.039390244 0.0066312039
-0.011621992 -0.039483827 0.0063016331
-0.010480443 -0.039407395 0.0063702064
-0.00934231 -0.039570689 0.0064461702
-0.008463149 -0.039360512 0.0064742095
-0.0076357359 -0.039535712 0.0064297528
-0.0068631261 -0.039310452 0.0066236514
-0.015394418 -0.038752131 0.0068591847
-0.014493835 -0.038654614 0.006699637
-0.013626884 -0.03855158 0.0063633109
-0.012457486 -0.038652647 0.0066082813
-0.011204042 -0.038514242 0.0064967782
-0.010580935 -0.038598333 0.00661834
-0.0094991233 -0.038576685 0.0065114405
-0.0082750889 -0.038689762 0.0068303635
-0.0075202039 -0.038536422 0.0065363189
-0.0061604311 -0.038572941 0.0066514909
-0.0057257432 -0.038220271 0.0069114505
-0.015542041 -0.037425995 0.0066047227
-0.01457338 -0.037591476 0.006691074
-0.013630113 -0.037378963 0.0064661908
-0.012492262 -0.037405849 0.0063117179
-0.011242935 -0.037732333 0.006331359
-0.010506924 -0.037655771 0.0066139507
-0.0095407916 -0.037472293 0.0064545106
-0.0084614865 -0.037560869 0.0063881138
-0.0074137896 -0.037429225 0.0065138973
-0.0065068407 -0.037572194 0.0065371082
-0.0055402345 -0.037343271 0.006634844
0.008650247 -0.037457708 0.0069372416
-0.01557871 -0.036397845 0.0066929087
-0.014508313 -0.036405213 0.0064605991
-0.013030255 -0.036453184 0.0064676488
-0.012755421 -0.036597788 0.0063675274
-0.011146058 -0.036708195 0.0062327511
-0.010764083 -0.036333248 0.0064483238
-0.0098326029 -0.036845017 0.0060417815
-0.0083665196 -0.036741812 0.0063353456
-0.0076286416 -0.036563613 0.0064549111
-0.0065305317 -0.036534362 0.0066705579
-0.0056324266 -0.036377389 0.0064259223
-0.0049862522 -0.036989801 0.0069558723
0.0049782861 -0.036123414 0.0068765087
0.0057772584 -0.036007274 0.0067583574
0.0064751394 -0.036518756 0.0067399614
0.0074886363 -0.036152422 0.0068042637
0.008284729 -0.036264129 0.0067951982
0.010172168 -0.036044344 0.0067732632
-0.016468089 -0.035331436 0.0067531108
-0.015292386 -0.035743341 0.0065991939
-0.014411104 -0.035649993 0.0065161935
-0.013535331 -0.035574164 0.006390804
-0.01272665 -0.035577185 0.0062362365
-0.01157113 -0.035535671 0.0060077682
-0.0072599002 -0.035377853 0.0061323848
-0.0066012489 -0.035436582 0.00622766
-0.0053479024 -0.035553724 0.0065302448
-0.004902978 -0.035616413 0.0062517859
0.0043568723 -0.035009924 0.0067672767
0.005475828 -0.035380296 0.0068111662
0.0066582002 -0.0351253 0.0069972035
0.0075094188 -0.035513055 0.006579326
0.0085783172 -0.035439122 0.00660617
0.0091820387 -0.035274655 0.0065842699
0.010430661 -0.035304274 0.0067536333
-0.016391763 -0.034253914 0.0067457873
-0.015714576 -0.034643542 0.0065622712
-0.014718107 -0.03454705 0.0064971955
-0.0061739706 -0.034778606 0.0063341814
-0.0053358208 -0.034578137 0.0064670448
-0.0044134604 -0.034452431 0.0065997518
-0.0033892547 -0.034297157 0.0067040091
-0.0021491516 -0.034010474 0.0067588496
-0.0014055581 -0.034130335 0.0067341123
0.00026860402 -0.034060061 0.0067352764
0.0028606094 -0.034191761 0.0067729922
0.0044676419 -0.034483902 0.0066859871
0.0054979431 -0.034874097 0.0065723155
0.0065491199 -0.034721445 0.0064948089
0.0074899513 -0.03465724 0.0065451995
0.0084775025 -0.034508035 0.0065818182
0.0095238388 -0.034679987 0.0066787191
0.01031193 -0.034391429 0.0063847476
0.011949279 -0.034673657 0.0069590835
-0.016479474 -0.033207096 0.0066154324
-0.01537909 -0.033763953 0.0064645489
-0.014639999 -0.033338044 0.0063642454
-0.013844442 -0.033984408 0.0061030407
-0.0043085832 -0.033830252 0.0062581245
-0.0033926473 -0.033740964 0.0065406524
-0.0024980789 -0.033716626 0.0066335727
-0.001409489 -0.033529032 0.0065825023
-0.00052274327 -0.033643585 0.006685989
0.00047161186 -0.033524878 0.0065330327
0.0013460914 -0.033580329 0.0064816908
0.0025638726 -0.033523019 0.0063886084
0.0034848005 -0.033562288 0.0065908348
0.0044779629 -0.033474687 0.0064320061
0.0054092281 -0.03355686 0.0065011787
0.0066078082 -0.033624299 0.0064927735
0.0075452365 -0.033510983 0.0064243288
0.0084628649 -0.033469718 0.0066737095
0.0094890231 -0.033507079 0.006463422
0.010691874 -0.033598818 0.0064499201
0.011139343 -0.033433244 0.0067555918
0.012231142 -0.033481643 0.006839395
-0.01708572 -0.032525279 0.0067256466
-0.016500214 -0.032496039 0.0065415944
-0.015750801 -0.032461662 0.0064747701
-0.01481132 -0.032521613 0.0060450435
0.0025290167 -0.032993533 0.0064183921
0.0049970066 -0.03293144 0.0062018624
0.0075268722 -0.032587238 0.006093068
0.0088988235 -0.032353014 0.0061046472
0.009585036 -0.032710709 0.0063461559
0.010469488 -0.03258552 0.0066504925
0.011477145 -0.032339729 0.006349646
0.012471592 -0.032442756 0.0063309725
-0.01740266 -0.031562723 0.0067894273
-0.016543105 -0.031388894 0.0064926152
-0.015557006 -0.03130104 0.0064111827
-0.014950734 -0.03137926 0.0062411577
0.010494277 -0.031490266 0.0063812481
0.011527954 -0.031584658 0.0065781088
0.012563542 -0.031772602 0.0065241666
0.013089334 -0.031094037 0.0067782798
-0.017353531 -0.030580977 0.0066878209
-0.0165198 -0.030495265 0.006566342
-0.015667727 -0.030255549 0.0062801088
0.011523204 -0.030808065 0.006406229
0.012518085 -0.030486889 0.0065211616
0.013193642 -0.030509986 0.0067748423
-0.017357497 -0.029316047 0.0065326337
-0.016561495 -0.029484484 0.0063339556
0.011711465 -0.029940069 0.0064025815
0.012476456 -0.029495517 0.0065288553
0.013587112 -0.029546445 0.0068609403
0.014236298 -0.029117694 0.0067716809
-0.018167838 -0.028149888 0.0067526461
-0.017452655 -0.028587066 0.0065785157
-0.016542824 -0.028562749 0.0063808956
0.012675135 -0.028674066 0.0065131946
0.013661679 -0.028666846 0.0066434499
0.014183674 -0.028858798 0.0065284441
-0.017434591 -0.027482934 0.0064320085
-0.016491516 -0.02778668 0.0065741716
-0.015948953 -0.02769753 0.0060011894
0.013805666 -0.027511025 0.0063639157
0.014557768 -0.02744237 0.0065660309
0.015201305 -0.027249381 0.0068295551
-0.018454462 -0.026179591 0.0066504381
-0.017476354 -0.026527997 0.0064561679
-0.016855625 -0.026759118 0.0064625312
0.014648283 -0.026446113 0.0066420753
0.015290582 -0.026447762 0.0066608889
-0.019295841 -0.025170617 0.0068085692
-0.018270949 -0.025461841 0.0064229011
-0.017492501 -0.025652027 0.0064204172
0.014752639 -0.025632277 0.0065349317
0.015496334 -0.025582794 0.0066326223
0.016470576 -0.025112199 0.0068095997
-0.019018309 -0.024198748 0.0067815343
-0.0187425 -0.024482939 0.0063983947
0.015538966 -0.024552073 0.0063978685
0.016198087 -0.024522478 0.0066651404
-0.019333821 -0.023793867 0.0064466461
-0.018597431 -0.023472365 0.0064856992
-0.017879678 -0.02336124 0.006490828
0.015612587 -0.023492228 0.0065277875
0.016359098 -0.023617079 0.0063040778
-0.0195194 -0.022533555 0.0065757846
-0.018549431 -0.022630915 0.0067142774
0.015841074 -0.022468893 0.0066876626
0.016465062 -0.022695208 0.0064968714
0.017180979 -0.022697764 0.006698959
-0.019557184 -0.021547522 0.0066968082
-0.018754654 -0.021461572 0.0062803086
0.015813822 -0.02160652 0.0060930029
0.016518777 -0.021495074 0.0066336975
0.017128764 -0.021610424 0.006870429
-0.019501619 -0.020536762 0.0065171542
-0.018472951 -0.020612078 0.006463699
0.015896356 -0.020174125 0.0066126883
0.016547011 -0.020568842 0.0066061462
0.017166194 -0.020606048 0.0068775956
-0.019329438 -0.01956832 0.0065734782
-0.018681373 -0.01945639 0.0065031806
0.015770007 -0.019567357 0.0060887197
0.016352134 -0.019626392 0.0065776738
-0.019260652 -0.01821243 0.006745676
-0.018533889 -0.018456127 0.0065349774
0.015800787 -0.018349536 0.0067047989
0.016336959 -0.018693944 0.0065449402
-0.019124877 -0.017579714 0.0064880811
-0.018385088 -0.017568083 0.0062005729
0.015553385 -0.017477844 0.0063381409
0.016300745 -0.017153805 0.0067521986
-0.028404761 -0.016031256 0.0069413832
-0.026154436 -0.016076297 0.006919371
-0.024395546 -0.016013451 0.0068200915
-0.019232726 -0.016513143 0.0068682148
-0.018607313 -0.016386922 0.0065373895
0.015436701 -0.016383907 0.006510545
0.016088903 -0.01650041 0.0064209341
-0.031296641 -0.015202207 0.0068816878
-0.030547509 -0.015256796 0.0067414884
-0.029477933 -0.015279715 0.0067726616
-0.028535772 -0.015217436 0.0063797771
-0.027544186 -0.015350097 0.0063983207
-0.026758822 -0.015569695 0.0065583768
-0.025676772 -0.015505116 0.0066719246
-0.024510676 -0.015609022 0.0066112056
-0.023566481 -0.015424697 0.006456431
-0.022509307 -0.015516028 0.0064444835
-0.021393673 -0.015228301 0.0067088623
-0.01911905 -0.01580761 0.0064433995
-0.01870821 -0.015002451 0.0061032451
-0.017985798 -0.015411519 0.0066759968
0.015440714 -0.015398057 0.0064312997
0.016103135 -0.015291744 0.0062110131
0.019719683 -0.015330479 0.0065129041
0.020558599 -0.015007244 0.0068143965
0.021593351 -0.015370867 0.006870829
0.022116283 -0.015141955 0.0062888856
0.023463884 -0.015071973 0.00669934
-0.031547304 -0.014232917 0.0067729303
-0.030404622 -0.014583639 0.0068275225
-0.029388253 -0.014492709 0.0065439697
-0.028493354 -0.014780747 0.0065613366
-0.027572837 -0.014690639 0.0063382569
-0.026983939 -0.014977374 0.0061913771
-0.022407239 -0.014944709 0.0069585326
-0.021657312 -0.014599741 0.0064068004
-0.020449571 -0.014263105 0.0067314086
-0.019596852 -0.014434437 0.0067117205
-0.01876099 -0.014574096 0.0064635193
0.015734842 -0.014434574 0.0065629832
0.016468728 -0.014423328 0.0066783275
0.017650845 -0.014420455 0.006893429
0.018759554 -0.014597749 0.006278058
0.019618187 -0.014738073 0.0065707406
0.020248309 -0.01471884 0.0065329038
0.021301728 -0.014670247 0.0064870305
0.022360489 -0.01446764 0.0065181544
0.023291623 -0.014560208 0.0067263506
0.024366299 -0.01426753 0.0064809718
-0.032567237 -0.013770116 0.0067519941
-0.031338695 -0.013533818 0.0065237102
-0.030681521 -0.013697695 0.0065932227
-0.029182401 -0.013611257 0.0064277947
-0.019613551 -0.013940996 0.0068989024
0.016522652 -0.013922505 0.0065122433
0.022707358 -0.013667288 0.0064223255
0.023498267 -0.01352044 0.0064373771
0.024385229 -0.013442618 0.0064264038
0.025343202 -0.013646844 0.0068069571
-0.032379087 -0.012682743 0.0066794916
-0.031539388 -0.012360039 0.0066598863
-0.030577639 -0.012554049 0.0065182657
-0.029777415 -0.012608016 0.0060776072
0.023906495 -0.012711487 0.0063436264
0.024713114 -0.012462159 0.006567643
0.025262352 -0.01267501 0.0064138896
0.026255304 -0.012278256 0.0066803284
-0.033030979 -0.011802045 0.0068808161
-0.032261211 -0.011160847 0.0067038182
-0.031499263 -0.01147776 0.0066499715
-0.030568069 -0.011520062 0.006372449
-0.029807918 -0.011666232 0.0062457039
0.024494398 -0.011279205 0.0061134007
0.025506835 -0.011559394 0.006576492
0.026248768 -0.011690996 0.0067441277
-0.03234259 -0.010584272 0.0067097726
-0.031396013 -0.010388372 0.0065732733
-0.03066323 -0.010526169 0.0065528466
-0.029835567 -0.010229386 0.0065523963
0.024670867 -0.010553311 0.0065996619
0.025474479 -0.010383993 0.0066067823
0.026317179 -0.010091476 0.0064322408
-0.032221533 -0.0099213542 0.0065999893
-0.031437058 -0.0094361771 0.0065761367
-0.030362694 -0.0096514681 0.0064096795
-0.029736711 -0.009532827 0.0063104983
0.02462619 -0.0095073888 0.006252171
0.025596682 -0.0094618266 0.0066994228
0.026386149 -0.0097257411 0.006720149
-0.032231539 -0.0088439891 0.0068044718
-0.031562556 -0.0085374601 0.0068215718
-0.030361563 -0.0083962865 0.006531884
-0.029504377 -0.0080332421 0.0068864692
-0.01848278 -0.0085547017 0.0068779858
0.023635305 -0.0082225027 0.0062141367
0.024636708 -0.0083347782 0.0065880944
0.025499126 -0.0085244328 0.0065784822
-0.030616187 -0.0075451606 0.0066649574
-0.029440431 -0.007670694 0.0065194373
-0.01930768 -0.0076294183 0.0066782441
-0.018352147 -0.0076000937 0.0068409555
-0.017147688 -0.0070990394 0.0062183086
-0.016418109 -0.0073849666 0.0066662477
-0.015421436 -0.0071793948 0.0062349448
0.023867602 -0.0074133202 0.0067035547
0.024473503 -0.0075722449 0.0064729457
0.025435561 -0.0077919154 0.0066488502
-0.030629212 -0.0068229227 0.0066391584
-0.029457025 -0.006544536 0.0065699313
-0.028619014 -0.0062307138 0.0063075419
-0.027693097 -0.0061385557 0.0066812709
-0.020196671 -0.0060488712 0.0065654442
-0.019300517 -0.0067754453 0.0065894444
-0.018307172 -0.0065454766 0.0062443949
-0.0175342 -0.0069201034 0.0065359855
-0.016296899 -0.0069776285 0.0069564614
0.022640405 -0.006095109 0.0067855762
0.023476737 -0.0065140589 0.0065700579
0.024521593 -0.00654179 0.0065407222
-0.029393055 -0.0058303731 0.0067714527
-0.02846802 -0.0055935574 0.0064697564
-0.027410705 -0.0053738491 0.0065352744
-0.021560114 -0.0052207359 0.0067341737
-0.020253485 -0.0054238001 0.0066319965
-0.019517947 -0.0055111023 0.0065986514
-0.018235737 -0.0057549635 0.0061734915
-0.016183017 -0.0054655909 0.0066826777
-0.015562788 -0.0053386786 0.0068001845
0.021776173 -0.0052034128 0.00675319
0.022558661 -0.0054507526 0.0066222525
0.02354824 -0.005723577 0.0064665219
0.024119347 -0.005818801 0.0065335855
-0.028142517 -0.0048875539 0.006258409
-0.027478814 -0.0047791391 0.0064052637
-0.026428102 -0.0044656587 0.0065287519
-0.02557279 -0.0043571335 0.0065476918
-0.024413543 -0.0043332088 0.0066573564
-0.023646822 -0.0041321581 0.0064097173
-0.022287669 -0.0043293838 0.0067234067
-0.021672361 -0.0043728971 0.0063414862
-0.020415315 -0.004539378 0.0064128311
-0.019177504 -0.004420111 0.0060922815
-0.016103432 -0.0042252243 0.0066036521
-0.015901485 -0.0044086846 0.0064218938
-0.014769153 -0.0045228205 0.0064275488
0.014006216 -0.004099004 0.0066900165
0.020648945 -0.0042638863 0.0066432282
0.021486633 -0.0044345921 0.006611546
0.022230517 -0.0046560373 0.0065914947
-0.026370615 -0.0039040111 0.0069277212
-0.024263797 -0.0039528036 0.0067160595
-0.023701575 -0.0039109117 0.0065702545
-0.022425862 -0.0037030992 0.0065063043
-0.021624343 -0.0038753308 0.0062736808
-0.016252987 -0.0036082137 0.0063736495
-0.015307266 -0.0036453861 0.0066114124
-0.014729166 -0.0033912521 0.0065203877
0.016419981 -0.0032488748 0.0065884986
0.017959127 -0.0031541619 0.0069504459
0.018544544 -0.0032669583 0.0067943223
0.019600853 -0.0034971591 0.0064920154
0.020607408 -0.0034852889 0.0064767678
0.021317571 -0.0038335035 0.0065954668
-0.015221265 -0.0023019279 0.0065955655
-0.014592544 -0.002469552 0.0066496395
-0.013899285 -0.0025509258 0.0069178198
0.012518905 -0.0022161831 0.006493303
0.01336931 -0.002395065 0.0065708207
0.01446268 -0.0024238066 0.0062827505
0.015246594 -0.0025145139 0.0065761707
0.01641218 -0.0024620513 0.0067923618
0.017501213 -0.0024292518 0.006540217
0.018771319 -0.0025407593 0.0064722844
0.01924553 -0.0026720415 0.0062366291
0.02009291 -0.0029171195 0.0065382416
-0.015151452 -0.0019070506 0.0067598447
-0.014281146 -0.001718246 0.0065635345
-0.013782528 -0.0012558281 0.0064139599
0.011694253 -0.0011142951 0.0065820771
0.012632582 -0.0013988232 0.0066366098
0.013294503 -0.0016483947 0.0062556821
0.014505004 -0.0015469143 0.0065469765
0.01546767 -0.0015130001 0.0064877304
0.016342435 -0.0016345803 0.0062986584
0.017026581 -0.0018609032 0.0060629342
0.018072732 -0.0019695163 0.0065560229
-0.014294257 -0.00055929873 0.0065377848
-0.013786227 -0.00040879822 0.0065814788
0.011408268 -0.00061346759 0.0065180417
0.012328791 -0.00050809409 0.006432984
0.013493419 -0.00053671119 0.0061663361
0.015686922 -0.00083625026 0.0060591297
-0.014232411 8.0640428e-05 0.006911777
-0.01358954 0.00050217268 0.0065374114
-0.012367877 0.00057169306 0.0066105681
-0.011706432 0.00075910607 0.0069094095
0.010566478 0.00060005096 0.0066993088
0.011323621 0.00050750445 0.006530486
0.012191884 0.00016689859 0.0062943161
-0.012499449 0.0013833923 0.0065955496
-0.011375335 0.0014923626 0.0063845329
-0.010546215 0.0015731588 0.0066014933
-0.009625202 0.0016586104 0.0068922606
-0.0081093237 0.0019777752 0.0069885906
0.008992332 0.0018500667 0.0069727758
0.0094620045 0.0016831479 0.0066547128
0.010545922 0.0013441533 0.0065003708
0.011254569 0.0013853181 0.0065212329
-0.011269365 0.0021242928 0.0064437771
-0.010255197 0.0024412686 0.0064596143
-0.0097200098 0.0023893879 0.0063441172
-0.008414533 0.0026888899 0.0063884826
-0.0075459098 0.0024985108 0.0065514059
-0.0062588374 0.002537824 0.0065791388
-0.0056561176 0.0026527974 0.0069598584
-0.0042836429 0.0026819718 0.00694138
-0.0034360976 0.002867213 0.0064203534
-6.0098711e-05 0.0029474348 0.006999298
0.00038280443 0.0028493349 0.0064105233
0.0013155205 0.0028169067 0.0066120243
0.0028374989 0.0026008945 0.0069299676
0.0034554279 0.0027726602 0.0068634776
0.00433029 0.002769219 0.0061793281
0.0053495741 0.0027740006 0.0064167655
0.0067524957 0.0023155063 0.0068006814
0.0073427111 0.0027862359 0.0067175762
0.0085078469 0.0025001268 0.0066910773
0.0092065977 0.0025924086 0.0067906277
0.010209234 0.0020983987 0.0065859682
-0.0093042823 0.0030285269 0.006531023
-0.0083037186 0.0030291621 0.006051511
-0.0063874219 0.0033270065 0.0063287709
-0.0054428559 0.0033159654 0.006506253
-0.0044197957 0.0034789301 0.0065111234
-0.0034619858 0.0034266768 0.0065940563
-0.0025749095 0.0034652636 0.0067509734
-0.001406349 0.0035730633 0.0064795231
-0.00056615722 0.0033611623 0.0065531
0.00037557539 0.0033153337 0.00669104
0.0013359027 0.003334665 0.0064251288
0.0024583989 0.0033515403 0.0064478698
0.0036351262 0.00325011 0.0062049655
0.0045150411 0.0032801006 0.0064801043
0.0054453551 0.003226348 0.0067926976
0.0064220582 0.0032666121 0.0065609436
0.0072641545 0.003167493 0.0066451337
0.0085296109 0.0031519968 0.0065269619
-0.0016125807 0.0077306777 0.0061414978
-0.00030787825 0.0076791379 0.0063991277
0.00026225136 0.0073813498 0.0060856249
0.0014412592 0.0077966987 0.0062504178
-0.0046925675 0.0088568944 0.0060478579
-0.003359426 0.0088142287 0.0065448117
-0.0023661815 0.008152172 0.0064379722
-0.0015286341 0.0085832663 0.0063301278
-0.00034722354 0.0086047808 0.0067300024
0.00061041239 0.0086524263 0.0064808144
0.0016506067 0.008583894 0.0063599176
0.0024231253 0.0087198708 0.0065150717
0.0036313287 0.0087261368 0.0062242672
0.0040023746 0.0085916836 0.0061816876
-0.0041737901 0.0096509503 0.0062734778
-0.0033449389 0.0094649913 0.0064809802
-0.0024553621 0.0095249666 0.006546055
-0.0014487286 0.0094270222 0.0066137835
-0.00048612527 0.009580926 0.0064790673
0.00051778241 0.0093901074 0.0065689865
0.0013715555 0.0095398873 0.0062658843
0.0024143788 0.0092796534 0.006473063
0.003723566 0.0092796721 0.0063008079
0.0049661389 0.0097505981 0.0061757481
-0.0042492994 0.010662275 0.0061828494
-0.0035814792 0.010586237 0.006546122
-0.0026252123 0.010324334 0.0066584963
-0.0015315156 0.010627666 0.0064709717
-0.00062900432 0.010432678 0.0065222769
0.00052634132 0.010705514 0.0064695873
0.0014239193 0.010517482 0.0066345651
0.0024787362 0.010766114 0.0065778284
0.0034277097 0.010685181 0.006337604
0.0045452127 0.010453558 0.0061690477
-0.0053199166 0.011425533 0.006067737
-0.0043325247 0.011290709 0.0061771302
-0.0034286333 0.011433456 0.0064094048
-0.0025446936 0.01125921 0.0063670375
-0.0014413963 0.011355852 0.0065557123
-0.00047230671 0.011531247 0.0064937468
0.00042538921 0.011369712 0.0064706351
0.0016092869 0.011578346 0.0063639334
0.0023494496 0.011219551 0.0062477863
0.0034388527 0.01187869 0.0063536949
-0.00416592 0.012362351 0.006229335
-0.0035930329 0.012740132 0.006030743
-0.0023823208 0.012453439 0.0067332308
-0.0014494527 0.012588842 0.006432151
-0.00040682312 0.012829021 0.0067765038
0.0004154444 0.012567834 0.006483648
0.0014351632 0.012531266 0.0064969906
0.0025279345 0.012641971 0.006397693
0.0034036168 0.012656223 0.0063004592
0.0043410468 0.012297291 0.0061152643
-0.0042973948 0.013499192 0.006268668
-0.0035445795 0.013504433 0.0062478762
-0.0024147348 0.013382326 0.006561873
-0.0015315019 0.013391427 0.0064508989
-0.00056820468 0.013487977 0.0062918658
0.00066749274 0.013452424 0.0067261634
0.0015736284 0.013405666 0.006276764
0.002482051 0.013642026 0.0062507251
0.0032888683 0.01318586 0.0064258347
-0.0042055706 0.014594687 0.0061386321
-0.0032616847 0.014576389 0.0061400132
-0.0023182621 0.01485197 0.0064753573
-0.0016211974 0.014601648 0.0063498677
-0.00036953896 0.014656259 0.0067497566
0.000396524 0.014612148 0.0063839974
0.0016557511 0.014437146 0.0064416835
0.0025071106 0.01470156 0.006390044
0.0034804449 0.01443887 0.006196748
-0.0045776251 0.015170115 0.0062673055
-0.0035765336 0.015490406 0.0063914172
-0.002518784 0.015215543 0.0062433989
-0.0013351396 0.015595734 0.0064469045
-0.000550317 0.015323241 0.0063483468
0.00055323035 0.015609423 0.0066526229
0.0015075187 0.015366129 0.0064383922
0.0024162387 0.01579218 0.0063545634
0.0032538334 0.015498819 0.0068057803
-0.0061569693 0.016434584 0.0061716549
-0.0053262278 0.016251259 0.0062516504
-0.0044492977 0.016715666 0.0065631038
-0.0034345577 0.01651299 0.0063840495
-0.0023687854 0.016752925 0.006594921
-0.0013789029 0.016353752 0.0066013685
-0.00058194599 0.016873661 0.0068306951
0.00069345371 0.016782898 0.0066790096
0.0012604482 0.016562186 0.0065296493
0.0024626034 0.016461456 0.0066384883
0.0035569989 0.016327003 0.0064832731
0.0045336266 0.016293092 0.0061687292
0.0053164787 0.016484374 0.0064291246
-0.0072043855 0.017811498 0.0061375382
-0.0065362342 0.017505284 0.0064790319
-0.0055280696 0.017640689 0.0066718655
-0.0042647757 0.017364061 0.0065314709
-0.0034665053 0.017427249 0.0066708149
-0.0025369111 0.017531967 0.0068863593
-0.0014055226 0.017308408 0.0069119716
-0.0005108015 0.017364882 0.0068832114
0.00062887237 0.017355956 0.0066827051
0.001469172 0.017161436 0.0066576554
0.0024318481 0.01735373 0.0064660236
0.0036854334 0.017416907 0.0063995202
0.0042901277 0.017665297 0.0064854659
0.0054193032 0.017555665 0.0066656102
0.0074274251 0.017252209 0.0061185323
-0.0081900014 0.018828271 0.0062693572
-0.0074567012 0.018650323 0.0063088392
-0.0062731309 0.018567285 0.0065228525
-0.0056285653 0.018564504 0.0065315343
-0.004589125 0.018591484 0.0065474156
-0.0035512699 0.018428607 0.0067557762
0.0013774645 0.018745735 0.0069494313
0.002909733 0.018722806 0.0064573921
0.0034455128 0.018716844 0.0065408787
0.0045248284 0.018419642 0.006505433
0.005410051 0.018536543 0.0064210813
0.0066734958 0.018748499 0.0064729964
-0.0072214785 0.019936848 0.0060697747
-0.0064363847 0.019188812 0.0066833114
-0.0052991454 0.01937406 0.0064786426
-0.0045129121 0.019528516 0.0064574541
-0.0035855868 0.019379493 0.0067553422
0.0029111155 0.019623097 0.0068351841
0.003464174 0.019226503 0.0067176004
0.0044339024 0.019759698 0.0065454883
0.0055545229 0.019513402 0.0067566573
0.00609079 0.019614549 0.0065110587
-0.0061085448 0.02057402 0.0060801292
-0.0054569263 0.020316558 0.0065895258
-0.0046802941 0.020600213 0.0064599081
-0.0035628872 0.020212179 0.0069280202
0.0035102349 0.020114664 0.0067141154
0.0046144566 0.020512821 0.0065637943
0.0053242417 0.020494044 0.0062861661
0.0062960265 0.02001119 0.0060130619
-0.0062794266 0.021377381 0.0065290877
-0.0055427025 0.021566041 0.0064243251
-0.0044857408 0.021245768 0.0065543428
0.0055920868 0.021610811 0.0066208355
0.0061334912 0.021597056 0.0064062239
-0.0071621556 0.022451142 0.0065337084
-0.0063421451 0.02264639 0.0065223859
-0.005537183 0.022246797 0.0065726796
-0.0049890941 0.02210605 0.0060846023
0.0056919879 0.022574188 0.006686619
0.0069808359 0.022619894 0.0065108677
-0.0063809934 0.023554333 0.0066399206
-0.0057588965 0.023410896 0.0065448694
0.006724685 0.023607681 0.0066337716
0.0076476038 0.023757551 0.0068374621
-0.0067358278 0.024601435 0.006457048
-0.0057868958 0.024349691 0.0067188516
0.0061884299 0.024540799 0.006663227
0.0075526191 0.024806688 0.0061903223
-0.0072013084 0.025529576 0.0063387575
-0.0065231137 0.025327327 0.0065052146
-0.0056979079 0.02564585 0.0064102104
0.0059126178 0.025856422 0.0066377083
0.0065963441 0.025445107 0.0064643836
0.0070908223 0.025442488 0.0066710487
-0.0067965435 0.02652359 0.0061909929
-0.0056003761 0.026456799 0.0066373162
0.0058271098 0.026406744 0.0065073143
0.0063418052 0.026565939 0.0065849521
-0.0063476395 0.027398249 0.0065943184
-0.0058591627 0.027111182 0.0068276301
-0.0046138191 0.027256906 0.0065953257
0.0049573649 0.027994636 0.0060364436
0.0055233249 0.02751166 0.0065702247
0.0064138067 0.027502518 0.0065769097
0.0072916243 0.027313611 0.0067768563
-0.0052122092 0.028342798 0.0065127015
-0.0045417869 0.028441751 0.0065226071
-0.0032575345 0.028776923 0.0062966705
-0.0029983728 0.028625131 0.0065726559
0.0039266255 0.028892312 0.0063015618
0.0044437922 0.028687749 0.0064458521
0.0054591843 0.028424276 0.0064834608
0.0062815878 0.028456036 0.0066457512
-0.0045057633 0.029467797 0.0064116754
-0.003418691 0.029594783 0.0064463895
-0.0024625827 0.029564949 0.0066200807
-0.0014080526 0.02962097 0.0067352555
0.00032800238 0.02969555 0.0062475237
0.0017498813 0.029719587 0.0065604886
0.0024205304 0.02978747 0.0067436732
0.0034985091 0.029560149 0.0064841458
0.0044350075 0.029596429 0.0066471943
-0.0032939783 0.03016776 0.0065976297
-0.0024712398 0.030458581 0.0067976736
-0.0014747743 0.03036442 0.0066535599
-0.00051186112 0.030458136 0.0066422154
0.00040447863 0.030420469 0.0064663896
0.0014865098 0.030559724 0.0065107308
0.0023941027 0.030280776 0.0066081481
0.0034377433 0.030182591 0.0066418676
0.0040292908 0.030160584 0.0063180858
-0.010272861 -0.045169216 0.0077186152
-0.0099233482 -0.045350272 0.0077702906
-0.013283868 -0.044078022 0.0078180879
-0.012112864 -0.044302184 0.0076049953
-0.01140143 -0.044411302 0.0079124458
-0.010626216 -0.044518765 0.0078302538
-0.0093443971 -0.044634193 0.0078697074
-0.0082158744 -0.044424877 0.0078337388
-0.012648958 -0.043297574 0.007730328
-0.011413517 -0.04367378 0.0077315737
-0.010554388 -0.043404713 0.0075297984
-0.0096225012 -0.043446492 0.0076115127
-0.0083939219 -0.043536328 0.0077436646
-0.0077246847 -0.043804288 0.0078924531
-0.014293011 -0.042194188 0.0078623975
-0.013493212 -0.042331934 0.0076367431
-0.012404193 -0.042428043 0.0075590978
-0.011494634 -0.042511545 0.0073876507
-0.010367198 -0.042635832 0.0075510317
-0.0094469907 -0.042459913 0.0074589751
-0.0085234633 -0.042688385 0.0075970981
-0.0076344386 -0.042471062 0.0077142883
-0.0064049205 -0.04223929 0.007804295
-0.014484713 -0.04133743 0.0079630204
-0.013217232 -0.041462705 0.0074916738
-0.012622688 -0.041362867 0.0074981353
-0.011465341 -0.04160469 0.0073054507
-0.0104076 -0.041383211 0.0073788334
-0.0098016951 -0.041562684 0.0071122404
-0.008519928 -0.041375075 0.0075517264
-0.0074576894 -0.041563313 0.0074782064
-0.0067727356 -0.041355651 0.007599832
-0.0058743767 -0.041777644 0.0079042353
-0.015128999 -0.040483646 0.0076575321
-0.014471848 -0.040706888 0.0072930511
-0.013529835 -0.040475141 0.0075021242
-0.012673721 -0.040543552 0.0074467994
-0.011472523 -0.040545415 0.0073840544
-0.010626799 -0.04069085 0.0074563827
-0.0093103554 -0.04048159 0.007404069
-0.0085584139 -0.040568259 0.007439367
-0.0074930564 -0.040583681 0.007749984
-0.0064323768 -0.040572356 0.0075650187
-0.0058495523 -0.040346242 0.0076138461
-0.015522969 -0.03919391 0.0075649247
-0.014653761 -0.039516516 0.007596211
-0.013612692 -0.03927739 0.007393145
-0.01248654 -0.039543469 0.0073148506
-0.011605878 -0.039626591 0.007356524
-0.010856832 -0.039554834 0.0071720271
-0.0092381593 -0.03928322 0.0075570242
-0.0083578005 -0.039363615 0.007213043
-0.0075842636 -0.039213471 0.0074876864
-0.0064595961 -0.039394915 0.0076145888
-0.0056979056 -0.039375316 0.007390894
-0.0047790413 -0.039408419 0.0078501385
0.0050589703 -0.039219409 0.0079994164
0.0066887867 -0.039218593 0.0078115314
0.0074689002 -0.039340217 0.0079464102
0.0087444745 -0.039447695 0.0078485804
-0.016146842 -0.038322382 0.0079806708
-0.015397145 -0.038486555 0.0074983579
-0.013777884 -0.038578562 0.0072352048
-0.012795521 -0.038759969 0.0075489935
-0.0093241064 -0.038938891 0.0071367868
-0.0087288544 -0.038486224 0.0071618315
-0.0078744888 -0.038906217 0.0073897801
-0.0064780987 -0.038589034 0.0075375391
-0.0054973513 -0.038663443 0.0075057559
-0.004612769 -0.038372107 0.0078194076
0.0053738756 -0.038547732 0.0078072408
0.0066557103 -0.038284231 0.0076272907
0.0073998165 -0.038395111 0.0077345297
0.0082497215 -0.038355883 0.0077790301
0.0093728192 -0.038729444 0.007807849
0.010098767 -0.038374454 0.0079733701
-0.016361609 -0.0372531 0.0076462734
-0.015534154 -0.037448157 0.0073728436
-0.014599443 -0.037575018 0.0073157167
-0.01329186 -0.037570901 0.0073047332
-0.0064571472 -0.037383012 0.0073059052
-0.0053915977 -0.037467726 0.0074711535
-0.004669501 -0.037632182 0.0074395481
0.0046032742 -0.037130266 0.0077026309
0.0056472369 -0.037328392 0.0076361937
0.0064331689 -0.037303068 0.0078307232
0.0075790421 -0.037465047 0.0075493087
0.0086159566 -0.037313528 0.0073787882
0.009429127 -0.037346482 0.0076351599
0.010350608 -0.037393648 0.0076729534
0.011380151 -0.03703995 0.0076926174
-0.016410384 -0.036453076 0.0075905584
-0.015631473 -0.036516152 0.0075286804
-0.014623962 -0.036530055 0.0072757266
-0.013675496 -0.036400229 0.0071581993
-0.0066051586 -0.036719717 0.0071505597
-0.0055894814 -0.036583096 0.0072740987
-0.0044513186 -0.036599044 0.0076845516
-0.0038793641 -0.036218293 0.0075479401
0.0047778096 -0.036615796 0.0074352901
0.0056750365 -0.03660344 0.0074841604
0.0065331389 -0.036591597 0.0075547346
0.007646827 -0.036633771 0.0071782824
0.008415971 -0.036500756 0.0075984462
0.0096665081 -0.036638148 0.0073919892
0.011233765 -0.036442328 0.007844355
0.012256799 -0.03648366 0.0079149716
-0.016529787 -0.035517108 0.0076131946
-0.015606117 -0.03539402 0.0076587545
-0.013978848 -0.035972852 0.0070095342
-0.0052883578 -0.035508446 0.0073114107
-0.0044255126 -0.035598062 0.0075690784
-0.003983113 -0.03511636 0.0072785262
0.0029301709 -0.035075963 0.0078313574
0.0038682197 -0.035232969 0.007599025
0.0044702585 -0.035651449 0.0076735229
0.005359441 -0.035390574 0.0072924835
0.0063892975 -0.035658535 0.007596361
0.0075257458 -0.035554279 0.0074610352
0.0094891591 -0.035515599 0.0076204403
0.010561083 -0.035301164 0.0074987528
0.011538174 -0.035434972 0.0074970722
0.012096132 -0.035201635 0.0075268019
-0.017196123 -0.034378484 0.0077158576
-0.01676512 -0.034448516 0.007584522
-0.015518382 -0.034672219 0.0074714082
-0.014867382 -0.034580007 0.0071882056
-0.0054702871 -0.034637686 0.0071422704
-0.0045825765 -0.034729466 0.0076901056
-0.0036828825 -0.034369942 0.0075776945
0.0028317752 -0.034382544 0.0073842639
0.0034205392 -0.034391291 0.0076711839
0.0047305091 -0.034519169 0.0075518154
0.0055942126 -0.034734003 0.0074513829
0.0066102906 -0.034648776 0.0072370879
0.0079824096 -0.034113944 0.0070396792
0.0085578309 -0.034492347 0.0076144468
0.009389584 -0.034641042 0.0074645532
0.010399617 -0.0343353 0.0074344836
0.011640447 -0.03449649 0.0071883481
0.012459234 -0.034333155 0.0076767835
0.013378367 -0.034468204 0.0078589283
-0.01702518 -0.03325969 0.0077332594
-0.016298119 -0.033699792 0.0074846116
-0.015649939 -0.033607166 0.0072669717
-0.003319975 -0.033701126 0.0073655806
-0.0022210395 -0.033659715 0.0075937719
-0.0015452275 -0.033768598 0.0073127314
-0.00038416544 -0.033523515 0.0076336781
0.00043876065 -0.033478763 0.0074251024
0.0014609147 -0.033617757 0.0076153427
0.0024311275 -0.033521969 0.0073846858
0.0033504129 -0.033640303 0.0075410241
0.004497278 -0.033771288 0.0072659566
0.0054449686 -0.033641499 0.0072068358
0.0066292966 -0.033610921 0.0070764245
0.0076656626 -0.033834506 0.0072235265
0.0085483762 -0.033854116 0.0071603381
0.0097945109 -0.033432819 0.0071160519
0.01047184 -0.03354723 0.0072390614
0.011558112 -0.033542253 0.0075156949
0.012678839 -0.033478882 0.0077419579
-0.017265631 -0.032620676 0.0076448084
-0.016458655 -0.032674395 0.0075343461
0.00917143 -0.032963492 0.0070966091
0.010351128 -0.032731824 0.007206731
0.011481005 -0.032193214 0.0075531485
0.012494472 -0.032441866 0.0074108839
0.013312327 -0.03268528 0.0076581435
-0.017325351 -0.031543016 0.0076821819
-0.01641104 -0.031575043 0.0075854673
-0.015585539 -0.031465929 0.0073209554
0.011329609 -0.031265516 0.0071658012
0.012643605 -0.031484667 0.0075401054
0.013556579 -0.031423207 0.007563238
0.014091117 -0.031358384 0.0076190275
-0.017361149 -0.030534972 0.0078398762
-0.016643682 -0.030720251 0.0073490255
-0.015974075 -0.030950682 0.0070603238
0.012450655 -0.030522155 0.0073827459
0.013213425 -0.030478273 0.0074434159
0.014265518 -0.030625487 0.007849698
-0.01804696 -0.029157517 0.0078337556
-0.017484138 -0.029461931 0.0075376062
-0.0165639 -0.029583884 0.0074016973
0.012795916 -0.029411141 0.0072431061
0.013416919 -0.029622303 0.0075380243
0.014366679 -0.029423691 0.0075884569
-0.017500397 -0.028588891 0.0075313239
-0.016632954 -0.028744727 0.007529282
0.013692144 -0.02854502 0.0074399128
0.01458584 -0.028446008 0.00731018
0.015037552 -0.028679311 0.007890855
-0.01824763 -0.027370989 0.0076013207
-0.017472949 -0.027484247 0.0077479701
-0.016604824 -0.027166972 0.0073291007
0.013685947 -0.027694836 0.0074606701
0.014529979 -0.027469968 0.0078194235
-0.018327143 -0.026538702 0.007551502
-0.017469089 -0.026409652 0.0074126641
-0.01679088 -0.026856715 0.00701648
0.013863235 -0.026754061 0.0071204565
0.014748114 -0.02673691 0.0076580434
0.015348052 -0.026458142 0.0074712634
-0.018565042 -0.025435368 0.0077364999
-0.017617164 -0.025556171 0.0075674169
0.014721853 -0.025541348 0.0074904426
0.015536268 -0.025471944 0.0076506892
0.016311675 -0.025302507 0.0073359772
-0.019377768 -0.0243864 0.0073840381
-0.018645726 -0.024518296 0.0073883929
-0.017776575 -0.024734125 0.0071687368
0.015524833 -0.024722792 0.0073904195
0.016448731 -0.024389105 0.0074897232
-0.019312952 -0.023348581 0.0076284758
-0.018537587 -0.02350831 0.0077235512
0.015628833 -0.023438504 0.0077681257
0.016368844 -0.023485128 0.0074729007
-0.020060094 -0.022301462 0.0077338573
-0.019473402 -0.022311067 0.0076804869
-0.018359011 -0.022721509 0.007237081
0.015875699 -0.02271723 0.0076862262
0.016435556 -0.022589782 0.0074124164
-0.019407498 -0.021354988 0.0074549885
-0.018794389 -0.021784341 0.0074963146
0.015809491 -0.021936916 0.0076783816
0.016441476 -0.021467224 0.0076060384
0.017166313 -0.02121732 0.0074113314
-0.019236106 -0.020352986 0.0077001061
-0.018560398 -0.020473083 0.0072864676
0.015764525 -0.020742841 0.0070419814
0.016837513 -0.020197563 0.0078470847
0.01700067 -0.020702811 0.0074420022
-0.019427326 -0.019425141 0.0075217895
-0.018594272 -0.019651039 0.0075235912
0.015942369 -0.01957833 0.0075086597
0.016487647 -0.019474994 0.0074827992
0.017161578 -0.019617381 0.007106978
-0.019167596 -0.018267741 0.0078552226
-0.018635228 -0.018380728 0.0075171441
0.016446566 -0.018388355 0.0076334118
0.017086171 -0.018540772 0.0075405557
-0.019434951 -0.017379146 0.007329829
-0.018357962 -0.017366715 0.0073868362
-0.017997369 -0.017177349 0.0076065571
0.015935773 -0.017494844 0.0078983
0.01624427 -0.017581131 0.0072875582
-0.030092714 -0.016062438 0.0078777745
-0.029974964 -0.016402204 0.0076010497
-0.028411545 -0.016113047 0.0077743111
-0.027606623 -0.01624102 0.007819606
-0.025536209 -0.016201999 0.0073366947
-0.024993986 -0.016051682 0.0070825825
-0.023289938 -0.016002893 0.0070344582
-0.019272784 -0.016569711 0.0075709322
-0.018536383 -0.016472295 0.0076501523
0.015921995 -0.016328115 0.0076382533
0.016416403 -0.016471284 0.0075627309
0.020550305 -0.016100768 0.0079920636
-0.032245599 -0.015343733 0.0076041538
-0.031554885 -0.015373201 0.0075719692
-0.030496124 -0.015461926 0.0076094256
-0.029588973 -0.01547514 0.0074573811
-0.028716749 -0.015370044 0.0073761125
-0.027521998 -0.015654296 0.0074777403
-0.026641794 -0.015651464 0.0073678857
-0.025467465 -0.015708806 0.0071014017
-0.024586344 -0.015570129 0.0073944093
-0.023532126 -0.015357519 0.0075695766
-0.022485506 -0.015295277 0.0072335424
-0.021681624 -0.015252941 0.0072992397
-0.020953858 -0.015174499 0.0074864724
-0.01924447 -0.015353411 0.0072298865
-0.018439209 -0.015360221 0.0076167006
0.015740888 -0.015428434 0.0072601871
0.016328154 -0.015620582 0.0072961184
0.018701965 -0.015489757 0.0070429593
0.019317888 -0.015285004 0.0075031798
0.020422492 -0.015345047 0.0073846001
0.02158739 -0.015475318 0.0074725705
0.022342026 -0.015377368 0.007476972
0.023406532 -0.015592791 0.0074551795
0.024393033 -0.015107753 0.0074364017
-0.033379965 -0.01428579 0.0076845456
-0.032497857 -0.014330037 0.0077123456
-0.031385452 -0.014312702 0.007563231
-0.030366255 -0.014500887 0.0073703052
-0.02969547 -0.01429406 0.0074866167
-0.028599309 -0.014839999 0.0071978457
-0.027639152 -0.014783995 0.0072888015
-0.022365751 -0.014488069 0.0079159169
-0.021583684 -0.014225096 0.0074119652
-0.020674653 -0.014224436 0.0077112522
-0.019464299 -0.014304435 0.0077501507
-0.018689193 -0.014438201 0.0073857908
0.015758151 -0.014619171 0.0076119243
0.016632088 -0.014311027 0.0075396267
0.017406803 -0.014311679 0.0073403278
0.018279234 -0.014371117 0.0078861294
0.019337863 -0.01488886 0.0075889644
0.020598026 -0.014976751 0.0070689549
0.021433335 -0.014805085 0.0072540781
0.022569397 -0.014561381 0.0072823889
0.023814101 -0.014393713 0.007492241
0.024666827 -0.014622661 0.0073738154
0.025317276 -0.014303642 0.0075089312
-0.032547094 -0.013583225 0.0074983439
-0.031536911 -0.013703748 0.0074586594
-0.030608838 -0.013455592 0.0072687315
-0.0295783 -0.013654383 0.0072142989
-0.021081137 -0.013748815 0.0079817297
-0.020318927 -0.013690029 0.0072763711
-0.01967001 -0.013666891 0.007626269
0.023871245 -0.013315373 0.0071903002
0.024682673 -0.013376245 0.0074422979
0.025593854 -0.013361384 0.007523695
0.026099307 -0.013446047 0.0075865858
-0.033270769 -0.012470414 0.0075963885
-0.032563437 -0.01258768 0.0074833268
-0.031417418 -0.012508214 0.0074982443
-0.030483808 -0.012583479 0.0072500505
0.02461578 -0.012801793 0.0075329747
0.025361117 -0.012552327 0.0075316578
0.026578298 -0.012460597 0.0074200053
-0.033902086 -0.011159893 0.0076549212
-0.032537837 -0.011513611 0.0076506399
-0.031600121 -0.011669991 0.0075198226
0.024926502 -0.011718022 0.0075279977
0.02573547 -0.011395681 0.0074333716
0.02638202 -0.011749341 0.0075346543
0.027145313 -0.011773725 0.0076772138
-0.033256259 -0.010552582 0.0075678974
-0.032554045 -0.010705443 0.0073918425
-0.031437926 -0.010506544 0.007401769
-0.03034577 -0.010374526 0.0072994293
0.024896737 -0.010653754 0.0073335534
0.025699949 -0.010760308 0.007763511
0.026511237 -0.010360326 0.0075494321
0.027863037 -0.010142301 0.0079847779
-0.033197634 -0.0092550628 0.0079983752
-0.032436974 -0.009588562 0.0077383383
-0.031417016 -0.0096550137 0.0075758449
-0.030856596 -0.0092988666 0.0070991134
0.025688255 -0.0094627254 0.0076115276
0.026252231 -0.0093855737 0.0073906933
0.027347242 -0.0093794335 0.0078404164
-0.032109022 -0.0086010192 0.007452189
-0.031304896 -0.0084118946 0.0075048716
-0.030278213 -0.0080021843 0.0076587065
-0.019191066 -0.0083625223 0.0075185811
-0.018336225 -0.0083367657 0.0073517798
-0.017520055 -0.0085754804 0.0078190044
-0.01673631 -0.0084429439 0.0071118893
0.024530232 -0.0082201967 0.0072212704
0.025475591 -0.0085196812 0.0077074259
0.026441149 -0.0086575532 0.0074409829
-0.032503583 -0.0078196293 0.0078412425
-0.031590622 -0.0076446659 0.0076300032
-0.030488249 -0.0075144791 0.0073946351
-0.029616831 -0.0077622165 0.0071192263
-0.028998554 -0.0072107483 0.0077056549
-0.020338302 -0.0073487791 0.0077172066
-0.019747835 -0.0073392503 0.0075406255
-0.017809719 -0.007465885 0.007733963
-0.016378071 -0.007491061 0.0074202484
0.023539701 -0.0074689188 0.0070499191
0.024640607 -0.0075843059 0.007531418
0.02551692 -0.0076139048 0.0074045341
0.026459768 -0.0076301959 0.007590781
-0.030410467 -0.0067955963 0.007308735
-0.029361811 -0.0064824242 0.0075572841
-0.028526453 -0.0061959857 0.0072588595
-0.027765736 -0.0063895583 0.0071527977
-0.020014765 -0.0061311373 0.0072791157
-0.019614212 -0.0063445158 0.0072243474
-0.017016536 -0.0067563369 0.0077705192
-0.016553676 -0.0064966986 0.0074529699
-0.01533852 -0.0063250549 0.0070851482
0.023620848 -0.0063910196 0.0070570526
0.024407802 -0.0064512389 0.0074015707
0.025312919 -0.0066984794 0.0072042402
0.026050663 -0.0066006859 0.0078155622
-0.030139836 -0.0059169196 0.0073965406
-0.02938408 -0.0056388569 0.0074635367
-0.028546138 -0.0054538478 0.0073810448
-0.027753748 -0.0050976593 0.007377564
-0.026717791 -0.0051740971 0.0075865048
-0.025749769 -0.005153954 0.0071323267
-0.023032738 -0.0051824725 0.0074902968
-0.02286624 -0.0051527354 0.0076249363
-0.021627873 -0.0052286237 0.0074495682
-0.020691091 -0.0054466599 0.007288218
-0.019760525 -0.0057778857 0.0073838769
-0.018288611 -0.0055478811 0.007138852
-0.016278654 -0.0054607 0.0073161218
-0.015595291 -0.0053573963 0.0072226734
0.013392187 -0.0058543384 0.0079308404
0.014703314 -0.0053226235 0.0077571156
0.022440974 -0.005451302 0.0071380921
0.023380307 -0.0057576653 0.0073118755
0.024358263 -0.0056520374 0.0075814142
-0.028400257 -0.0047529233 0.0077419518
-0.027329743 -0.0045471038 0.0074999859
-0.026606977 -0.0044441912 0.0074284528
-0.025379498 -0.0042980961 0.0074709188
-0.024659472 -0.0043298393 0.0074451631
-0.023578726 -0.004370281 0.0076262401
-0.022418948 -0.0047068992 0.0074506984
-0.021658037 -0.0047040121 0.0071195266
-0.02036947 -0.004750507 0.0072041829
-0.016487107 -0.004110516 0.0074741999
-0.015544428 -0.004728592 0.00752017
-0.014893542 -0.0044987034 0.0070182495
0.013228716 -0.004380499 0.0073795537
0.014435863 -0.0043615527 0.0075190528
0.015492052 -0.0043265121 0.0075817136
0.019992653 -0.0043141907 0.0077215405
0.020641118 -0.0043246304 0.007353744
0.021704635 -0.0045104553 0.0073519838
0.02248284 -0.0046018786 0.0074556544
0.023522694 -0.0048208525 0.0073308074
-0.025992371 -0.0037621949 0.0076852911
-0.024291199 -0.003741038 0.0073272167
-0.023785342 -0.0039460887 0.007314879
-0.022649862 -0.0039991997 0.0073188138
-0.016111126 -0.0037664769 0.0077159209
-0.015479117 -0.0035725534 0.0074474905
-0.014535962 -0.0033528176 0.0074473945
0.012529834 -0.0037308307 0.0074648401
0.013450894 -0.0034741599 0.0074988483
0.014465233 -0.0034945109 0.0076668384
0.015588216 -0.0032676104 0.0072026053
0.016484883 -0.0031593933 0.0073898002
0.017439373 -0.0034855814 0.007481555
0.018572761 -0.0035639505 0.0076147923
0.019420104 -0.0034959514 0.0075431243
0.02042377 -0.003742402 0.0077285026
-0.015492324 -0.0025275485 0.0074287634
-0.014370093 -0.0026671574 0.007386704
0.011804468 -0.0023841502 0.0075531094
0.012740563 -0.0023526496 0.007488742
0.013528883 -0.0022763368 0.0071315146
0.014481573 -0.0025146629 0.0075459518
0.015587268 -0.0023837853 0.0072823386
0.016430957 -0.0025860169 0.0077158138
0.017397458 -0.0025898824 0.0073191109
0.018226434 -0.0027041654 0.0074497778
-0.01452836 -0.001631776 0.0076992344
-0.013492937 -0.0011001229 0.0079868585
0.011491773 -0.0015430395 0.007308729
0.012293393 -0.0015202875 0.0076060919
0.013485825 -0.0016673737 0.0072451895
0.014119118 -0.001716323 0.0072205593
0.015237826 -0.0019120437 0.0070921676
-0.014364596 -0.00045161697 0.0075661587
-0.013418941 -0.00032537192 0.00754363
-0.012983935 -0.00068994239 0.0071839727
0.010708481 -0.00047047026 0.0076297745
0.011528133 -0.00045899022 0.0074963844
0.01217245 -0.00034444872 0.0073971623
-0.014288852 0.00023907842 0.0072708628
-0.013656467 0.00035234573 0.0073347641
-0.012554422 0.00070886913 0.0073117339
-0.011734796 0.00073987735 0.007343675
0.010520543 0.00048396163 0.0074443817
0.01118168 0.00079029799 0.007188566
-0.012317772 0.0012884473 0.0074108825
-0.011684582 0.0014407635 0.0075002522
-0.010445297 0.0015810989 0.0072792061
-0.0097450912 0.0017192968 0.0073504229
-0.0081309155 0.0019886494 0.0074415994
-0.0077442778 0.0018129559 0.007726511
0.0088728545 0.0019172844 0.0077609513
0.0094781788 0.0016258142 0.0075803357
0.010645434 0.0015135537 0.0073038274
0.011209386 0.001297253 0.0072352421
-0.011279661 0.0021897703 0.0070228414
-0.010088987 0.0024553579 0.0072448319
-0.0095905783 0.0021763293 0.0074861944
-0.0084416922 0.0023511564 0.0074376413
-0.0077117863 0.0024133655 0.0075401464
-0.0064194114 0.002710493 0.0073554181
-0.005356539 0.0026256952 0.0074786814
-0.0041890964 0.0027540356 0.0078248233
-0.0035289361 0.0027261837 0.0074736932
-0.0027610441 0.0027872317 0.007476219
-0.0013838931 0.0027785583 0.0072774501
-0.00055644504 0.0028719711 0.0070440602
0.00037835451 0.0026325495 0.007475426
0.0014495627 0.0026123354 0.0076473169
0.0024335205 0.002527751 0.0075784214
0.0031312387 0.0027301311 0.0074940859
0.0043555875 0.0026314899 0.007408259
0.0053586802 0.0026607846 0.0076430934
0.0066599078 0.0025959571 0.0075497092
0.0076690838 0.0026484607 0.0072826101
0.0085820165 0.0026122308 0.00727935
0.0095264707 0.0023546813 0.0071069142
0.010336772 0.0022718846 0.0074379491
-0.0067159967 0.0032412417 0.0072037694
-0.0052060271 0.0032259121 0.0072175576
-0.0045593353 0.0031851316 0.007555007
-0.0033568584 0.0034151946 0.0074246163
-0.002293525 0.0034465108 0.0073010437
-0.0015265365 0.0033660552 0.0072813123
-0.00080082414 0.0034725382 0.007310695
0.00052630168 0.0031954478 0.0073200534
0.0014202103 0.0034554321 0.0071571758
0.0026829916 0.0031730451 0.0073010256
0.0033456434 0.0030124097 0.0071352893
0.004103377 0.003160391 0.0072570266
0.0054806075 0.003221472 0.0075320639
0.0064704902 0.0032083599 0.0074290633
0.0074295751 0.0032901708 0.0070551792
0.00088856602 0.0089480467 0.0070989998
0.0016275831 0.0088233817 0.0070615327
-0.0012710574 0.0093644001 0.0072381352
-0.00024818818 0.0094462698 0.0071849898
0.0009527487 0.0091205239 0.0070319418
0.0016096539 0.0093389973 0.0071259406
-0.0023561118 0.0100985 0.0071666418
-0.0014054866 0.010578169 0.0072348639
-0.00034835539 0.010372406 0.0071642734
0.0007340773 0.010786369 0.0071825921
0.0014066263 0.010859557 0.0071098534
-0.001293938 0.011620259 0.007215918
0.0013635755 0.01107667 0.0071274391
-0.00036792317 0.012062278 0.0070997295
0.0013818577 0.012970272 0.0070267469
-0.00060359039 0.013196928 0.0072281221
0.00097559439 0.013453815 0.007128296
-0.0013833465 0.014558138 0.007109534
-0.0042071911 0.015928563 0.0070128618
-0.0038124006 0.015734706 0.007036001
-0.0014171846 0.015652992 0.0070122136
-0.00055784686 0.015900213 0.0074470029
0.0012772705 0.015744559 0.0072990083
-0.0043150722 0.016786719 0.007423446
-0.0035733967 0.016477816 0.0071555907
-0.0024737972 0.016521072 0.0073059574
-0.0014654736 0.016650314 0.0073736529
-0.00048910646 0.016585935 0.0074355709
0.0006161714 0.016513765 0.0072605107
