# .PCD v0.7 - Point Cloud Data file format
VERSION 0.7
FIELDS x y z normal_x normal_y normal_z curvature
SIZE 4 4 4 4 4 4 4
TYPE F F F F F F F
COUNT 1 1 1 1 1 1 1
WIDTH 569
HEIGHT 1
VIEWPOINT 0 0 0 1 0 0 0
POINTS 569
DATA ascii
-0.0062756804 -0.011291248 0.023594908 0.87506038 0.32521823 0.35847253 0.061932351
-0.0053678681 -0.011483571 0.02352198 0.91749835 -0.24741496 0.31142026 0.056238852
-0.0014678664 -0.011451591 0.023680441 0.28155354 -0.95952958 0.0055220248 0.092811301
0.0024710428 -0.011419854 0.023475867 0.79450673 0.57368731 0.19910277 0.11492877
0.035422072 -0.011525087 0.023658916 0.23102915 -0.72786635 0.64562851 0.11071737
-0.041626763 -0.010614661 0.023465734 0.9679262 -0.085917778 0.23608713 0.1102546
-0.02872129 -0.010131053 0.023729028 -0.39488113 -0.40235856 0.82593977 0.13831778
0.0024680397 -0.010383556 0.023518389 0.015111906 -0.99986941 0.0057301936 0.085870713
0.021137701 -0.010864139 0.023019388 0.23576191 -0.94118041 -0.24206543 0.072038092
0.034489442 -0.010437607 0.023623897 -0.36251602 -0.90250444 0.23252508 0.047390338
0.033770856 -0.0093254102 0.023127625 0.31134549 -0.93908358 -0.14555417 0.09135218
-0.029138405 -0.0086060781 0.023636639 -0.49089181 0.53817779 0.6851204 0.061662324
0.035274968 -0.0087877326 0.023456851 0.46094275 -0.69936591 -0.54627752 0.1033449
-0.028224425 -0.0076731956 0.02379513 -0.3533704 -0.91140497 -0.21087995 0.067599393
-0.0030840796 -0.00765095 0.023115404 0.91290015 -0.14363626 -0.38207585 0.050190687
-0.027434362 -0.0069477325 0.023827571 0.21528319 0.68225539 0.6986993 0.021920042
-0.026766084 -0.006730062 0.023542134 -0.45264825 -0.88305062 0.12381865 0.060745418
0.034664255 -0.0068125753 0.023870997 0.22415584 -0.84130514 -0.49189422 0.12364055
-0.02648413 -0.0055254125 0.023359142 -0.33527559 -0.84193921 0.42276305 0.10097746
0.023352053 -0.0046812915 0.023355102 0.68095112 0.39163029 0.61881441 0.11448751
0.027519194 -0.0043489058 0.023511872 -0.41168734 0.61839837 0.66940045 0.075599805
0.028432673 -0.0046478463 0.02359804 -0.60636449 0.1994433 0.76976913 0.031583916
0.029579258 -0.0045975694 0.023474321 0.15402228 0.43663478 0.88635606 0.051532205
0.031317011 -0.004867157 0.023591284 -0.22438207 0.11440121 0.96776295 0.060171697
-0.035538759 -0.0035250576 0.023339504 0.23619398 -0.66581762 0.70774227 0.12456069
-0.034461208 -0.0034221944 0.023522554 0.40703335 -0.17019422 0.89741725 0.022404175
-0.032362632 -0.0026718217 0.023256883 0.99637097 0.076174013 -0.037976995 0.043868512
-0.028369097 -0.0017063054 0.023425091 0.89582193 -0.10866486 0.43092355 0.05938993
-0.011427452 -0.063320875 0.02486264 -0.57474744 0.33537602 0.74645042 0.058377381
0.0083409604 -0.063216448 0.024854068 -0.10098103 0.242908 0.96477902 0.019353261
-0.012404954 -0.062499065 0.024510691 -0.27127454 0.45119771 0.85019451 0.094234332
-0.0066368366 -0.062317792 0.024308542 0.12008071 0.43940464 0.89022702 0.02662068
-0.0056659635 -0.062161524 0.02459909 0.42162552 0.32957488 0.84475583 0.049098104
0.0032155225 -0.062048443 0.024447953 0.68567687 -0.63317716 0.35907361 0.092289768
0.0045217802 -0.06242409 0.024538921 0.93532467 -0.18931629 0.29887649 0.048360903
0.0065865084 -0.062551335 0.024697496 -0.40265876 0.30646771 0.86252159 0.015617361
0.0076084277 -0.062549554 0.024347616 -0.093104579 0.24664114 0.96462405 0.011310162
0.0084795142 -0.062654421 0.024649577 -0.10098103 0.24290803 0.96477902 0.019353259
0.010396814 -0.062606916 0.024437396 -0.40097967 -0.0092991022 0.91603976 0.037696443
-0.0075224382 -0.061712749 0.024899021 0.92316771 -0.072962746 -0.3774094 0.037143022
-0.0044576973 -0.061239481 0.024409071 0.77660412 0.60522246 0.17490552 0.064282522
0.0027912757 -0.061416954 0.024440736 0.26947913 -0.82274365 0.50047368 0.056055598
0.014358109 -0.061251264 0.024729062 0.70545071 0.43999475 -0.55564719 0.02819743
-0.018371711 -0.060511589 0.024365976 0.71102792 -0.2501063 -0.65718037 0.12213807
-0.017813457 -0.060580414 0.024567166 0.17513308 -0.56806451 0.80413377 0.075423837
-0.0037401151 -0.060652565 0.024088623 -0.19502978 0.37706921 0.90541828 0.047905441
0.013746898 -0.060784891 0.024541907 -0.62250108 -0.73489726 -0.26910663 0.031123903
0.015482123 -0.060367085 0.024513496 0.81117338 0.46535921 -0.35417297 0.055550896
-0.019351691 -0.059721828 0.024468042 -0.59886521 -0.0037548037 0.80084109 0.1230887
-0.0044077318 -0.059529349 0.024492854 -0.18917997 0.34802601 0.91819865 0.048652127
0.0014644258 -0.059471577 0.02447073 0.52223104 -0.36877179 0.76894873 0.13444296
-0.0029768664 -0.0586267 0.024287416 -0.58759999 -0.3909691 0.70842743 0.09693481
-0.0029466283 -0.057397168 0.024733204 -0.15856002 0.45341054 0.87708467 0.049001627
0.00067420834 -0.057637233 0.024398705 0.54539335 -0.81834686 -0.18125856 0.083372019
0.0017085876 -0.057433009 0.024496129 -0.26558116 -0.8813256 0.39080927 0.076464906
0.015852351 -0.05650584 0.024217894 0.14474584 -0.26026481 0.95462608 0.065823831
-0.00010834076 -0.055298127 0.024647236 0.26422638 -0.81500041 -0.51571178 0.060322866
0.017616574 -0.055250075 0.024423826 -0.12170307 -0.96331918 -0.23917465 0.08326377
-0.019940969 -0.053002007 0.024282966 -0.25451621 0.36638895 0.89497519 0.10964859
-0.020742537 -0.052389894 0.024506636 0.53507268 -0.82516164 -0.18112314 0.12310737
0.00029336102 -0.052023262 0.024682451 -0.038335942 0.29174599 0.95572728 0.05775696
-0.019723395 -0.051603913 0.024500649 0.79546177 0.44897225 -0.40701899 0.09358602
-0.0045412686 -0.051612008 0.024014141 -0.23693559 0.089350134 0.96740794 0.13763715
-0.00035586976 -0.051386371 0.024328161 0.33369237 0.54248923 0.77094412 0.054900326
0.017224748 -0.050393526 0.024615046 -0.14001238 -0.30692557 0.94137836 0.11322086
-0.019497035 -0.0494336 0.02433522 0.075518526 -0.78207886 0.61858666 0.11584866
-0.018894505 -0.049981907 0.024804663 -0.52054781 0.16697116 0.83734739 0.075813249
-0.0042689475 -0.04931657 0.024601148 -0.54530519 0.3419995 0.76529634 0.10403918
0.00029047998 -0.047172956 0.024195751 -0.040175721 0.51275915 0.85759193 0.10261902
-0.00010195188 -0.046762519 0.024897983 -0.33643663 -0.25506002 0.90650696 0.085084409
0.016513294 -0.046482861 0.024583092 0.32147127 0.161497 0.93304604 0.035594326
-0.017939016 -0.04515782 0.02471366 0.87955391 0.47575009 -0.0068446589 0.13034484
0.014548618 -0.045076944 0.024876662 -0.013168123 0.046772689 0.99881876 0.12936929
-0.0052537234 -0.044414937 0.0247541 0.012515966 -0.88545775 0.46455145 0.014437418
0.016006451 -0.044485889 0.024341054 0.098864444 0.18499888 0.9777531 0.06052722
-0.016893543 -0.043320764 0.024661969 0.69986796 0.44767216 0.55657381 0.028313044
-0.00613828 -0.043350436 0.024993796 0.54099584 -0.83281189 -0.11725122 0.021289751
-0.0053290213 -0.043532856 0.024354992 0.070940755 -0.99335915 0.09058205 0.044423785
-0.00021883391 -0.043520451 0.024637491 -0.35303548 -0.76634169 -0.53673673 0.061657749
-0.0048496476 -0.04269005 0.024573823 -0.5335412 0.32539853 0.78067255 0.051316891
-0.00044033746 -0.0425492 0.024002977 -0.38056156 -0.66279912 -0.64488 0.0536002
0.00040011332 -0.042639587 0.024490537 -0.52413779 -0.85030729 0.047508985 0.081887297
-0.017152071 -0.04186919 0.024720978 0.60346979 0.147053 0.78370893 0.050687876
0.013839017 -0.041679658 0.024594339 0.77666706 -0.041657623 -0.62853229 0.12046862
0.01540345 -0.041901268 0.024498198 -0.10732304 0.68150181 0.72390401 0.13578831
-0.013510747 -0.040747635 0.02462393 0.046801835 -0.75504947 0.65399528 0.077100612
0.013671413 -0.040364522 0.024443602 -0.41889486 0.44424957 0.79194033 0.13279358
-0.013617338 -0.038523663 0.024633186 0.62320811 0.24427451 0.74292773 0.088359118
0.00071590091 -0.038806327 0.024343379 0.52738088 0.26308188 0.80787206 0.057098709
0.0015892945 -0.038352862 0.024662811 0.74557739 -0.0093411077 0.66635358 0.094559833
0.0024573912 -0.038477715 0.024794064 0.95137489 -0.21186306 -0.22360663 0.1382221
-0.01611745 -0.037959076 0.024016343 -0.41596884 -0.71582049 -0.56086618 0.08595328
-0.014452432 -0.037580367 0.024401 0.43717206 -0.89319009 0.10531919 0.064385526
-0.010536668 -0.037576061 0.024720868 0.37753996 -0.36411637 0.85140043 0.09585046
-0.0093809757 -0.0374032 0.024643196 0.96930283 -0.078322157 0.23306169 0.10518368
0.0034439899 -0.03789616 0.024806637 0.76547408 -0.16795295 0.62116122 0.084974423
0.014107221 -0.037627596 0.024638003 -0.40303469 0.038197901 0.91438723 0.099978559
-0.01265812 -0.036551014 0.024707744 0.93446285 -0.031703498 0.35464647 0.12388572
0.011810219 -0.036417477 0.024760235 -0.16897114 -0.16979966 0.97088462 0.052509524
-0.015307517 -0.035668429 0.024128422 0.84270144 0.38623136 0.37507272 0.051637463
-0.014360221 -0.035691272 0.024413738 0.99662369 0.080855012 0.014272409 0.080454908
-0.013522149 -0.035324994 0.024505056 0.8989628 -0.078532159 -0.43092766 0.064622559
-0.0065904022 -0.035763107 0.024157293 -0.61017895 -0.75640899 0.23564206 0.091384068
0.0025116699 -0.03535619 0.024356918 0.76889747 -0.079442121 0.63441759 0.090997875
0.011745271 -0.035604224 0.024630807 0.70628256 -0.32463548 -0.62910795 0.13052012
0.0054876301 -0.034856617 0.024690108 0.97641426 0.14618002 0.15889195 0.10758501
0.0085157193 -0.034168288 0.024871133 0.90390867 0.16271925 -0.39556494 0.080745593
0.010526508 -0.034569994 0.024690101 0.96515977 0.079994299 -0.24913372 0.11594736
0.011677385 -0.034674533 0.024637392 0.88458395 -0.14060263 0.44468206 0.12206069
-0.014483364 -0.033880569 0.024133617 0.96999609 -0.0050199227 0.24306856 0.0385589
-0.01349296 -0.033428378 0.024233857 0.72390276 0.68769425 -0.055148523 0.057377458
-0.0094410274 -0.033555515 0.024486978 0.85008985 0.098794796 -0.51728791 0.035457414
0.0018586797 -0.033905998 0.024179244 0.21548602 -0.8628633 0.45720083 0.061399795
0.0065362295 -0.033580258 0.024828216 0.91529006 0.40017208 0.045896735 0.06583108
0.012677444 -0.033490658 0.024304526 0.86878306 -0.28396377 -0.40568534 0.12037423
-0.0085618123 -0.032469437 0.024358619 0.88001555 -0.2745488 -0.38755095 0.11161827
0.0043264376 -0.03251981 0.024616204 0.31502864 -0.72870493 -0.60806739 0.12679209
0.0074519166 -0.032323275 0.024670729 0.50554866 -0.82997727 0.23570794 0.036725532
0.0085165575 -0.032712605 0.024861941 0.13460536 -0.99060023 -0.024343139 0.076223642
0.0095926654 -0.032657679 0.024608083 0.91975576 0.043560222 -0.3900663 0.13890432
-0.011418733 -0.03135781 0.024215408 0.85066664 -0.47594139 0.22326215 0.11009394
0.0057119303 -0.031461991 0.024604486 0.85782766 0.49796373 0.12713663 0.07764174
0.0095324721 -0.031536244 0.024508428 0.72818631 -0.10562218 0.67719173 0.052793041
0.01034261 -0.031402417 0.024542119 0.99422044 0.10680601 -0.010874332 0.062030435
-0.0087239593 -0.030902058 0.024210963 0.65889317 -0.73232025 0.17195025 0.075421765
0.0084782075 -0.03061666 0.024426144 -0.64355767 -0.69158334 -0.32794222 0.13445392
0.0074665253 -0.028191306 0.024443299 0.50301474 -0.70282036 0.50301069 0.072669864
0.0084016407 -0.028476706 0.02449166 0.51971287 -0.67787713 0.51998186 0.096305944
0.0036350577 -0.027996615 0.024031635 0.96623945 0.1596542 0.20221727 0.097912669
0.0082951151 -0.026302809 0.024290087 0.23863789 -0.9100678 0.33886361 0.04675103
0.0094059557 -0.026598945 0.024128942 0.69069564 0.59195614 -0.41536427 0.078561082
0.0057861884 -0.025403356 0.024441579 0.98046583 0.19476134 0.027471619 0.041841671
0.0063223355 -0.023466991 0.024434451 -0.038573418 -0.99298406 -0.11178005 0.10391038
0.0086443517 -0.023148313 0.024408543 0.97351396 0.13029593 -0.18786563 0.13005877
-0.0064366767 -0.022523345 0.024143104 0.98721367 0.13915409 -0.07775142 0.092262432
0.00052298192 -0.022430038 0.024304666 -0.31369236 -0.94876665 0.037934698 0.066211343
0.0015586456 -0.022667577 0.024363695 0.25312412 0.59130526 0.76569331 0.040388115
0.02871934 -0.02223736 0.024651693 0.91654712 -0.17765202 -0.35830316 0.036459588
-0.0097287353 -0.021794632 0.024020107 0.60463089 0.48086971 0.63496912 0.13784499
-0.0073489742 -0.021482334 0.024426065 0.98603493 -0.16208278 0.038267054 0.052189633
-0.0064010248 -0.021198642 0.024319407 0.72735125 0.53820062 -0.42579368 0.05685227
-0.0045618368 -0.021346848 0.024584886 -0.63299888 -0.75360358 -0.17718367 0.05707705
-0.0015362734 -0.021500448 0.024543896 0.0084098317 -0.9798016 -0.19979502 0.065718204
0.0035564278 -0.02133362 0.024504183 0.018111251 -0.061085768 0.9979682 0.063426293
0.0044436362 -0.021616593 0.024528291 -0.21541099 -0.97281343 -0.085042663 0.087798975
0.0055583431 -0.021367593 0.02433278 0.69334453 -0.66317034 -0.28191894 0.073141523
0.026993379 -0.021133559 0.024458852 -0.25392908 0.10046742 0.96199083 0.045465771
0.031290811 -0.021860966 0.024813138 0.97027361 -0.038174376 0.23898068 0.01132695
0.035155404 -0.021055106 0.024682311 0.078507364 -0.089400873 0.99289685 0.12600332
-0.03649028 -0.020392826 0.024490107 -0.079356514 -0.92558026 -0.37014022 0.042970274
-0.032652482 -0.020333905 0.024001732 0.24923337 -0.69952196 -0.66973996 0.064707391
-0.0081663998 -0.020500481 0.024220049 0.90613222 0.1488574 0.3959367 0.06350933
-0.0053029736 -0.020321814 0.024495356 0.69771498 0.63623101 0.32924756 0.053766578
-0.0024262264 -0.020519733 0.024789633 -0.5197556 -0.78597242 -0.33481562 0.076625101
0.0073863589 -0.020328999 0.024223465 0.79277092 -0.54061741 -0.28150856 0.089198858
-0.039132107 -0.019246871 0.024700968 0.95772856 -0.25246578 0.13790239 0.12574807
-0.035563871 -0.019620469 0.024698384 0.93325031 0.1113831 0.34152257 0.041132353
-0.034588307 -0.019534586 0.024577565 0.71105415 0.66609561 0.22520813 0.067199998
-0.032906331 -0.019492913 0.024409568 -0.48157787 0.60568655 0.63342446 0.050408974
-0.0083224643 -0.019596685 0.024327289 0.091095775 -0.99523437 -0.034785967 0.043777417
-0.0034050054 -0.019498443 0.024691805 -0.010946752 -0.82554811 -0.56422567 0.05619454
-0.0006304289 -0.019513361 0.024608187 0.8544904 0.51799273 -0.039112601 0.037143752
0.00034222842 -0.019667571 0.024710365 0.82425171 0.56402713 0.04982464 0.026774421
0.0053933379 -0.019323105 0.024356363 -0.69275188 -0.0024124912 0.72117203 0.074786916
-0.0075265467 -0.018319165 0.024458358 -0.56213224 -0.66676676 0.48931521 0.038487241
-0.0042865695 -0.018469945 0.024605408 0.88303751 0.4218497 0.20563953 0.051223785
-0.0037392846 -0.018737381 0.024749735 0.98558629 -0.16535236 0.035752714 0.048308767
-0.0010818294 -0.018622804 0.024653045 0.81657702 -0.56270033 -0.12872547 0.10158877
0.0018120848 -0.018351976 0.024591846 0.79354334 0.60838574 0.012482026 0.10210294
0.0025624945 -0.018483082 0.024626799 0.53572321 -0.83354425 -0.13492431 0.069098197
0.0062411926 -0.018399278 0.024597669 0.8241455 0.47999135 -0.30065355 0.047681138
-0.030887056 -0.017334087 0.024341263 0.83837396 -0.14522547 -0.52539378 0.067386098
-0.0015341276 -0.017327167 0.024855552 -0.17410047 -0.88523364 0.4313356 0.055185691
-0.00070607738 -0.017570963 0.024730066 0.90286189 -0.41663119 0.10610761 0.096524224
0.0013071034 -0.017664807 0.024479607 0.93340838 0.30561244 -0.18801557 0.043030426
0.002533885 -0.017525552 0.024404846 -0.45575139 -0.84263283 0.28681114 0.10994688
0.0036643471 -0.017548624 0.02460645 0.85803384 -0.077854022 -0.50765795 0.045730758
-0.039417293 -0.016738977 0.024786334 -0.3291837 -0.59695292 0.73163199 0.11228114
-0.0042310688 -0.01635273 0.024513727 -0.4628658 -0.69821829 -0.54611945 0.041635331
-0.0023323139 -0.016649004 0.024837703 -0.18195482 -0.93080693 0.31700274 0.10214163
0.0025537242 -0.016628522 0.024527054 0.87816846 0.10704216 0.46622109 0.051062595
0.036354635 -0.016288798 0.024482789 0.59004956 -0.55502158 0.58633828 0.061113141
-0.040409409 -0.015537857 0.024463886 -0.50061607 -0.72029346 -0.4801676 0.08208058
-0.0048810528 -0.015546639 0.024633162 0.87839764 -0.1184885 0.46300977 0.0768843
-0.0014291727 -0.015383177 0.024554491 -0.083782956 -0.99634588 0.016595263 0.11205392
0.00038766745 -0.01548398 0.024455421 0.31658182 -0.94622362 -0.066609681 0.062225938
0.022885857 -0.015101013 0.024496943 0.027979115 -0.74315864 -0.66852993 0.078206293
-0.033195898 -0.014108974 0.024822876 0.33751807 -0.82982612 -0.4443762 0.10524548
-0.031199876 -0.014440474 0.024297744 -0.35808438 0.48270011 0.79923475 0.14009449
-0.006493073 -0.01435685 0.024499919 0.81300211 -0.54254192 0.21136642 0.070607856
-0.0044814013 -0.014354913 0.024651254 0.71748585 0.69060069 -0.091020487 0.10294744
0.036242966 -0.014405325 0.024471262 0.35969463 -0.49041188 0.79379839 0.038450353
-0.041664362 -0.013756054 0.024575807 0.54254997 0.10207251 0.833799 0.082485899
-0.040632658 -0.013640212 0.024319844 0.47678035 0.32616454 0.81627029 0.11556916
-0.004640602 -0.013529251 0.024522383 0.57533985 -0.16819251 0.80043441 0.058490466
-0.0015850185 -0.013444342 0.02442289 -0.34624499 -0.87162763 0.34695765 0.084528796
-0.00047314347 -0.013260424 0.024541952 0.79086137 -0.59188759 0.1555869 0.090194635
0.0014752565 -0.013672166 0.024350269 -0.56371492 -0.78460491 -0.25810996 0.13532218
0.0045622662 -0.013117899 0.024515104 0.9632448 0.13881288 -0.22997941 0.1147899
-0.00066315907 -0.012564143 0.024591891 0.90045857 0.29016694 0.32400233 0.05672197
0.0041931993 -0.012555455 0.024273792 0.73430878 -0.23223016 -0.63785553 0.11371508
-0.0055525801 -0.011923072 0.024187427 0.90595394 -0.41302678 0.093039423 0.063899308
0.0001556279 -0.011628204 0.02429424 0.97243851 0.22217937 -0.070708118 0.10487074
0.0014781527 -0.011484049 0.024284102 0.6197806 -0.78210098 -0.064731464 0.11931913
0.022521058 -0.011493893 0.02466774 0.079961307 -0.95651346 -0.28051409 0.10760163
-0.030648654 -0.01021862 0.024439732 0.91614246 0.40076083 -0.0085823946 0.065902196
0.0013321186 -0.010558773 0.024222709 0.042553723 -0.99613315 -0.076862663 0.13210067
0.022314012 -0.010455877 0.024788734 -0.12407511 -0.002964664 0.99226838 0.12042773
0.034778595 -0.010353095 0.024449062 0.14753258 -0.95987141 0.23849736 0.10926825
-0.040725749 -0.0093719382 0.024660375 0.5871954 0.03229557 0.8088007 0.055647772
-0.041460678 -0.0084882425 0.024397548 0.28288496 -0.9070906 0.31170937 0.097494483
-0.028692927 -0.0082957903 0.024448115 0.74716312 -0.41448653 -0.51956528 0.12871093
0.033923443 -0.0082914028 0.024784146 0.27360007 -0.79058778 -0.54782653 0.10258872
0.034633223 -0.0086799515 0.024336327 0.50371802 -0.6701079 -0.54518217 0.081277065
-0.02955047 -0.0078579504 0.024737407 -0.42971241 0.17128153 0.886572 0.03330683
0.033612873 -0.0075166035 0.024454229 0.71328646 -0.58511382 -0.38582939 0.077520445
0.03420385 -0.0074864086 0.024425393 0.59473783 -0.7615509 -0.25754061 0.077130198
-0.028219474 -0.0068964977 0.024797549 0.20752901 0.50349593 0.83870357 0.046624567
-0.027352005 -0.0063586831 0.024417927 -0.054249354 0.25089118 0.96649402 0.07138858
-0.025737736 -0.0055697216 0.024562778 -0.34071186 -0.45807272 0.82102674 0.093827501
0.021341026 -0.0059408247 0.024450095 -0.14133215 -0.86093497 -0.48868826 0.12607279
0.022200644 -0.005902308 0.02420724 0.75837123 0.65182251 -0.00073019078 0.11248031
-0.040221732 -0.0045441529 0.024775118 0.63650602 0.53843755 -0.55221832 0.10859842
0.0264083 -0.0043706275 0.024253573 -0.11084963 -0.74918532 -0.65301889 0.050975688
0.027531747 -0.0043282704 0.024404133 0.17572732 -0.044329669 0.98344028 0.051855072
0.031426162 -0.0046722498 0.024683652 -0.51816517 0.33977705 0.78489256 0.018444574
-0.035270877 -0.0036680331 0.024521122 0.93510932 0.28770232 -0.20687641 0.036830723
-0.032457475 -0.0033666692 0.024562202 -0.53064644 -0.64986211 0.54414487 0.069163278
0.024607966 -0.0038444041 0.024449643 0.18393028 -0.0010008843 0.98293877 0.034839083
0.025521707 -0.0037126089 0.024407189 0.10530846 0.018089036 0.99427509 0.033118267
-0.031580988 -0.0023977119 0.024454754 -0.22910509 -0.43917164 0.86869973 0.036470402
-0.027594039 -0.0025107637 0.024441343 0.47818083 -0.63733566 0.60427338 0.080811113
-0.01557945 -0.062388539 0.025385179 -0.33540398 0.26999921 0.90255445 0.021947296
-0.013440061 -0.062296432 0.025406323 0.36751953 0.033443104 0.92941433 0.060011711
-0.012507362 -0.062454972 0.025440557 0.83308971 -0.28524339 -0.47391742 0.095214061
-0.0076521151 -0.062343597 0.025331486 0.67104185 -0.45140797 -0.58816129 0.038065586
0.0064663705 -0.062310822 0.025568429 0.21033162 0.15282543 0.96561122 0.016788028
0.012359733 -0.062313471 0.025464473 -0.50433522 0.050541434 0.86202753 0.023409644
-0.012471536 -0.061671179 0.0255489 0.39427862 -0.00032161776 0.91899091 0.056531951
-0.010366499 -0.061717253 0.025471423 -0.3454181 0.36586434 0.86419302 0.032498207
-0.0094714267 -0.061645474 0.025551511 -0.099127054 0.18222769 0.97824687 0.037216224
0.0063046324 -0.061842993 0.025712525 -0.21995893 0.37633607 0.89999402 0.021353044
0.00849758 -0.061777119 0.02569462 -0.20010692 0.59806162 0.77606666 0.013907978
0.0094988123 -0.061787132 0.025578832 -0.18821982 0.66150302 0.72593874 0.010349544
0.014497936 -0.061222307 0.02537889 -0.55698794 -0.46447024 0.68849963 0.034260746
-0.018563576 -0.060601376 0.025492808 -0.13250165 0.24017672 0.96164358 0.07426431
-0.0038646571 -0.060354646 0.025607299 -0.19206558 -0.84360337 -0.50144213 0.052352384
-0.019571353 -0.059417348 0.025534002 0.89597899 -0.41572395 0.15618975 0.061928488
-0.0039003519 -0.059413724 0.02537103 0.092635967 0.53503305 0.83973694 0.053320747
-0.021048753 -0.058151063 0.025416479 0.15561588 -0.70207345 0.69489306 0.069356129
-0.020417478 -0.058389571 0.025500266 0.40255004 -0.86241221 0.30691797 0.1046579
0.016758425 -0.057529654 0.025547972 0.63982993 0.60338539 0.47596622 0.097653076
-0.02064543 -0.056627471 0.025442649 0.078976229 -0.77882147 -0.62225378 0.10103504
-0.019814573 -0.056648687 0.025253899 0.38946503 -0.65670079 -0.64580268 0.13465652
0.016655048 -0.056643624 0.025409844 0.7551828 0.28859255 0.58856893 0.035667207
0.017455405 -0.056561179 0.025527781 0.18640606 0.067751341 0.98013395 0.088392496
-0.022100197 -0.055232521 0.025374213 -0.31961572 0.4164758 0.85111326 0.094579592
-8.5969456e-05 -0.055036068 0.025564907 0.11385118 -0.98239779 -0.14809643 0.015315543
0.016692042 -0.055444021 0.02519621 -0.28316548 -0.95515776 -0.086549923 0.093850307
0.00031658454 -0.054464862 0.025715301 -0.13934337 -0.4843711 0.86369449 0.044504389
0.017432272 -0.053613607 0.02534407 -0.46569264 -0.73740375 -0.48925039 0.136011
0.01819245 -0.053996012 0.0259903 0.45569199 -0.80844486 -0.37250751 0.10277981
-0.00054757833 -0.052072056 0.02579733 -0.15975006 -0.097988419 0.9822821 0.029878411
0.016625954 -0.052404877 0.025338452 -0.050350025 -0.62972057 0.77518827 0.082546413
0.017501207 -0.052631561 0.025607923 0.12564963 0.34675971 0.92949986 0.1241916
-0.021359669 -0.051620286 0.02547079 -0.47336751 -0.34279397 0.81142795 0.059904367
-0.019521499 -0.051337983 0.0256301 0.19291462 -0.76166254 -0.61859053 0.069553345
0.016464563 -0.051513158 0.025432441 -0.52706885 -0.71222836 -0.46360457 0.13365334
-0.020788087 -0.050513908 0.025523368 -0.65866917 -0.66633576 0.34950191 0.12680699
0.00038341805 -0.050443597 0.025313778 -0.12883441 -0.9819513 0.13846782 0.060151987
-0.00053429283 -0.049495295 0.025732737 0.1761144 -0.74639863 -0.64177316 0.050481688
0.0010763519 -0.049256146 0.025359938 -0.009743209 0.64136332 0.76717544 0.10844643
-0.0039055562 -0.048074428 0.025344485 -0.096124597 0.63772887 0.76423955 0.10872704
0.015663916 -0.048448611 0.02502262 -0.24177873 -0.48809677 0.83863258 0.11730809
0.015502506 -0.047456272 0.025354801 -0.081834011 -0.51116741 0.85557646 0.044296447
0.016400542 -0.047615141 0.025773618 0.011701558 -0.47548503 0.879646 0.074465267
-0.0045691263 -0.046630744 0.025942475 0.38326728 -0.92203951 0.054308478 0.033366401
-0.00050487748 -0.046355832 0.025464138 -0.30413505 -0.91992015 0.2474851 0.084296659
-0.0004216705 -0.04570682 0.025559176 0.24315612 0.45064256 0.85895067 0.075421773
-0.019093342 -0.044947185 0.02592371 -0.54794204 -0.66432565 0.5083611 0.032924142
-0.018420523 -0.044432245 0.025581211 -0.31351885 -0.12836005 0.94086647 0.095973045
-0.00557672 -0.044455662 0.025512328 0.11106634 -0.78745973 0.60627681 0.047914222
-0.0045995046 -0.044727825 0.025484588 0.35872656 -0.83061361 -0.42590633 0.022051942
-0.0001908429 -0.044267513 0.025016794 0.76078135 0.29495534 0.57811171 0.096585736
0.015415137 -0.044569343 0.025443887 0.85888493 -0.39863393 0.3215704 0.11769959
0.00041834803 -0.043485172 0.025487138 0.64880508 -0.68622166 0.32886443 0.12334459
-0.0073091947 -0.042376257 0.025498509 0.7044462 -0.69651181 0.13648008 0.092936084
-0.0055136257 -0.042776365 0.025239646 0.87145299 -0.2356288 -0.43017286 0.049708348
0.00066912634 -0.042419553 0.025622297 -0.61968154 -0.7510255 -0.22793727 0.063466541
-0.011664219 -0.041131869 0.025568301 0.30874279 -0.64204758 0.70174974 0.062389597
-0.0065261843 -0.041570406 0.025485644 0.42686498 -0.89660507 -0.1178378 0.013398132
-0.010529543 -0.040165845 0.025695546 0.98821026 -0.13859969 0.065043129 0.10052393
-0.015429221 -0.0399746 0.025369313 0.35174182 -0.65285152 0.67086709 0.10040267
-0.013442661 -0.03931861 0.025560139 0.8931458 -0.17264517 0.41531238 0.10132913
-0.012754223 -0.039542865 0.025482079 0.97243202 0.11121634 -0.20495589 0.087861158
-0.0066897213 -0.039562311 0.025224708 0.71625668 -0.3608771 -0.59728056 0.032186091
0.0051864758 -0.03953578 0.025767036 0.97078627 -0.17662306 0.16241397 0.1098986
-0.012582126 -0.038323734 0.025420874 0.46563971 -0.77110767 -0.43424961 0.11556343
-0.011520202 -0.038483556 0.025538968 0.42112151 -0.70040035 -0.57627767 0.077682883
0.011707205 -0.038319539 0.025414258 0.79911715 0.32032302 -0.50872868 0.13395754
-0.013490202 -0.037514556 0.025168318 0.94193763 -0.33453399 0.028990855 0.068352848
-0.0094708875 -0.037385814 0.025278701 0.26308003 -0.68286777 0.68152809 0.079268932
0.0053135953 -0.037303668 0.025706431 0.81122935 -0.57684821 0.09567178 0.069708019
0.012579547 -0.037481215 0.025725791 0.22747134 -0.96857673 -0.10057859 0.10404396
-0.01332478 -0.03625562 0.025197342 0.86053246 0.41214439 0.29936761 0.1205079
-0.01288085 -0.036556028 0.025267677 0.50588351 -0.5363307 0.67559689 0.043684054
-0.011485642 -0.036550466 0.02546367 -0.15380295 -0.97545135 0.15760459 0.066242218
-0.0094242813 -0.036453992 0.025517268 -0.29128122 -0.95575297 0.041126866 0.10610291
0.0027102192 -0.036385261 0.025384972 0.58270705 -0.78668815 0.20389786 0.068568043
0.0077655385 -0.036602765 0.025767127 -0.23612888 -0.93938106 -0.24860899 0.12155886
0.008471352 -0.036380216 0.025862351 -0.42394295 -0.80605769 -0.41296878 0.041410297
-0.012503767 -0.035343669 0.02529799 0.94631064 -0.23082595 0.22630852 0.10556091
-0.0085234288 -0.035584249 0.025247496 0.93539667 -0.28807679 -0.2050484 0.099989109
0.0043004639 -0.0354486 0.02557569 0.82836169 0.29409122 0.47678858 0.079310372
-0.013452288 -0.034953371 0.025143916 0.92561746 -0.10444079 0.36376429 0.071060807
-0.012718372 -0.034293026 0.025066609 0.96598077 -0.24008133 0.09613584 0.08353246
-0.011333177 -0.034601647 0.025258489 0.93982381 -0.10072266 -0.32647544 0.087058485
-0.010861555 -0.034706332 0.025172519 0.74431187 0.086165085 -0.66225028 0.064366251
-0.009546943 -0.034522984 0.025301641 0.99605817 -0.011127644 -0.088001132 0.12626512
0.006413688 -0.033661056 0.025702788 -0.69427997 -0.702586 -0.1560393 0.074510582
0.008442278 -0.032520678 0.025390962 0.60484141 -0.61889273 0.50113744 0.03894376
0.004827546 -0.031517264 0.025311014 0.93743688 0.34307256 -0.059272297 0.079963475
0.005143092 -0.030830864 0.025364682 0.96296501 0.25827217 -0.077419668 0.10159039
0.0080870437 -0.02889004 0.025060156 -0.4597308 -0.88052839 0.11540107 0.12200744
-0.0037740371 -0.022262596 0.025078509 -0.34723702 -0.80881506 -0.47459945 0.050078392
0.030756703 -0.022166314 0.025469592 0.78688353 0.11291219 -0.60668373 0.0090926792
-0.0044862749 -0.021177081 0.025212159 -0.53853941 -0.79792649 -0.27071872 0.072264358
-0.002495365 -0.021486385 0.025250429 -0.29997665 -0.88846493 -0.34733856 0.10207497
0.0031343615 -0.021506213 0.025130969 0.029233074 -0.799779 -0.59958231 0.13519686
0.028565293 -0.021547757 0.025303407 -0.43598956 0.038492206 0.8991282 0.066379718
0.031445317 -0.021863826 0.025848867 -0.3199119 -0.13895349 0.93720239 0.0048399484
0.033421911 -0.021727795 0.025638128 -0.57831478 -0.28526497 0.764314 0.021265965
-0.0065339599 -0.020422962 0.025084566 0.97851151 -0.085022636 0.18784659 0.032720428
0.00053221988 -0.020363042 0.025459832 -0.22977066 -0.96743965 0.10614124 0.044088632
0.0025764322 -0.020482255 0.025374638 -0.2220185 -0.96562195 0.13521104 0.11311956
0.0031485604 -0.020031633 0.025419282 0.86000764 0.12120218 0.49567822 0.11305149
0.026737157 -0.020594545 0.025544807 -0.026992045 0.62986368 0.77623659 0.12374823
-0.034459874 -0.019355442 0.025544159 -0.05337185 -0.80965126 -0.58447957 0.069400132
-0.032724425 -0.019565504 0.025126146 0.57426244 -0.62305558 -0.53105974 0.060994416
-0.005838763 -0.019398563 0.025207561 -0.57047457 -0.82130748 0.0035768575 0.037638251
-0.0032990663 -0.019561404 0.025415923 0.88489199 0.4042089 0.23147634 0.05562773
-0.0025898479 -0.019560486 0.025465751 0.38970184 -0.81667382 -0.4256483 0.052533872
0.003454532 -0.019317636 0.025270326 0.50165951 -0.81516731 -0.28955159 0.089915685
-0.036714952 -0.018686419 0.025415763 0.57299131 0.29389313 0.76505417 0.10017191
-0.034477606 -0.018694144 0.025620464 0.31826034 0.53528446 0.78241986 0.12707505
-0.033463579 -0.018207118 0.025565531 -0.28887513 -0.72375548 -0.62668109 0.091117278
-0.0056235795 -0.018485017 0.025149377 0.90143919 0.17722273 0.39496765 0.12587823
0.0043756193 -0.018435612 0.025133543 -0.6246556 -0.78061634 0.021057077 0.092025809
-0.039498113 -0.017572911 0.025420528 0.68503153 0.40813199 -0.60345674 0.078680806
-0.038461838 -0.017450677 0.025492325 0.72618276 -0.43673968 0.53095871 0.12497747
-0.0045445655 -0.017575406 0.025365509 0.91576016 0.32705215 0.23328145 0.077724367
-0.0025466294 -0.017538015 0.025435206 0.66988903 -0.73531473 -0.10276651 0.10302703
-0.00055233733 -0.017584115 0.025516136 0.47516236 -0.82252431 -0.31252941 0.13189377
0.0015434226 -0.017641621 0.025349572 0.49945065 -0.8416813 -0.2052357 0.086884759
0.0046768244 -0.017060149 0.02521896 -0.63840735 -0.74403244 0.19710864 0.090502828
0.023930291 -0.017692447 0.025103506 0.62753969 -0.10971926 0.7708149 0.077247083
0.025233144 -0.017731415 0.025609253 0.18929105 0.38344002 0.90395939 0.051349513
0.035626527 -0.017612014 0.025472557 0.054956779 0.49629104 0.86641496 0.058454849
0.036410738 -0.017433189 0.02541293 0.17042866 0.60577804 0.77716601 0.04853607
-0.039517257 -0.016488003 0.025586918 0.94329256 -0.1668717 -0.28697211 0.074386567
-0.031785373 -0.016315149 0.025514936 -0.17514886 -0.63885081 0.74912781 0.088154897
-0.031884316 -0.015407872 0.025956696 0.00072977529 -0.81009996 0.58629119 0.13481653
-0.006072395 -0.01534707 0.025015583 0.92230034 0.38418815 0.041972186 0.089539796
-0.0043670842 -0.015453552 0.025387436 0.9483968 0.30062306 0.10084278 0.054209523
-0.0028255843 -0.015734766 0.025309421 -0.61510086 -0.17465821 0.76885992 0.049916927
0.0012337707 -0.015614696 0.025283126 -0.0051270961 -0.99998659 0.00070929248 0.065939538
0.036440056 -0.015514683 0.025420383 -0.33462358 -0.50077391 0.79828101 0.065208726
-0.039542384 -0.014444959 0.025644004 0.099467807 -0.81702352 -0.5679602 0.091061711
-0.00053882063 -0.01442837 0.025219051 0.1123492 -0.99358869 0.012617026 0.054656178
0.0023185671 -0.014574719 0.025200961 0.11254159 -0.99318165 -0.030407386 0.12110138
0.022507293 -0.014101923 0.025460441 -0.097537011 -0.98356521 -0.15194096 0.13339931
0.023442874 -0.014361071 0.025587637 -0.022175606 0.65575129 0.75465125 0.13747051
0.036410224 -0.014526111 0.025411503 0.15528895 0.11713867 0.98089957 0.044260971
-0.038907912 -0.01365542 0.02593581 0.55450165 -0.62015516 0.5549193 0.1135685
-0.0034791536 -0.013259674 0.02521834 0.99293536 -0.0088504162 0.11832591 0.093178496
-0.0022134066 -0.013622981 0.025403813 0.97559601 -0.21915185 -0.013596612 0.084858917
-0.00022219954 -0.013812055 0.025272302 -0.16645557 -0.97046316 0.1746247 0.049936615
0.0013888913 -0.013976409 0.025208605 0.94769543 -0.26219729 0.18200508 0.063437045
0.03637898 -0.013629715 0.025492245 -0.045150004 -0.021880282 0.99874055 0.035612658
-0.041398909 -0.01244856 0.025441423 0.40554765 -0.74719834 0.5265224 0.09241081
-0.032401286 -0.012772284 0.025454771 0.3550548 0.17460155 0.91839558 0.081746891
0.02247406 -0.012373614 0.025423059 0.13655379 -0.87698156 -0.46071297 0.060165059
0.034924246 -0.010872955 0.025410865 -0.47884896 -0.2735379 0.8341946 0.096987873
0.035514679 -0.010571644 0.025550531 -0.52642983 -0.75421071 0.39247656 0.13102837
-0.030846586 -0.0090207281 0.025410207 0.22378701 0.26944202 0.93665385 0.051106192
0.021564748 -0.0096389214 0.025707219 -0.47566336 -0.39822996 0.7843197 0.13090266
-0.031226981 -0.0089707281 0.0256024 0.27684021 0.33891886 0.89916265 0.056345198
-0.029456625 -0.0083907889 0.025584918 -0.015233777 -0.29310378 0.95595926 0.1344811
-0.02859156 -0.0072833188 0.025471725 -0.42501709 -0.66935736 0.60936117 0.096489362
-0.02844156 -0.0067261751 0.025631756 0.83177841 0.52010715 -0.19399273 0.047289602
0.033522632 -0.00647282 0.025497859 -0.55228335 -0.78319138 -0.28564724 0.12034079
-0.040396165 -0.0057135792 0.025271922 0.3605364 -0.75782889 0.54379117 0.12436606
0.021452572 -0.0053769192 0.025563752 -0.14004861 -0.72218692 -0.67737168 0.13654217
0.033694472 -0.0057683429 0.025654726 0.67039335 -0.61010969 -0.4223021 0.089724049
-0.039329939 -0.0045123491 0.025315093 -0.5571726 -0.39780968 0.72890759 0.048201866
-0.035422228 -0.0045420593 0.025555046 0.72950506 0.43564481 -0.52729124 0.055382084
0.024396298 -0.0043326318 0.025356239 0.10627366 0.071947344 0.99173051 0.033903029
-0.03416954 -0.0036963762 0.025581216 -0.67441684 -0.73525363 -0.067557327 0.042792588
-0.02586961 -0.003144806 0.025180217 -0.10927359 -0.8707214 -0.47948256 0.13936922
0.022617655 -0.0037224782 0.025668092 0.77412146 0.2425753 -0.58471632 0.050888024
0.023594461 -0.003711404 0.025618521 0.81236196 -0.25390327 -0.52497727 0.036532648
0.025461605 -0.0035637426 0.025572397 0.33096045 0.26809761 0.90475899 0.040377434
0.026394265 -0.0036933501 0.025547257 0.96119922 -0.13431227 0.24094895 0.013114953
0.028371392 -0.0038976481 0.025807375 -0.68009096 0.078020208 0.72896445 0.021988539
0.029743519 -0.00374984 0.025901293 -0.61903203 0.24183361 0.74720538 0.016514231
-0.033184193 -0.0029721046 0.025599435 0.73283273 0.39142182 -0.55654752 0.054542497
-0.015814256 -0.062214673 0.026440976 0.9837997 -0.10679093 0.14399236 0.026553882
-0.014537368 -0.062223122 0.026324011 -0.58597165 0.28482831 0.75862378 0.026164878
-0.016363582 -0.061390609 0.026476016 0.20797087 0.44253972 0.87229973 0.023942061
-0.011487456 -0.061486732 0.026494762 -0.15387882 0.69600171 0.70135796 0.038614523
-0.010470711 -0.061349086 0.026371008 -0.2564857 0.62928909 0.73362821 0.042035148
-0.0086726062 -0.06145123 0.026473692 -0.13013214 0.45093146 0.88302124 0.030153397
0.0045211096 -0.061387207 0.026465792 0.068197548 0.64977652 0.75705981 0.019317083
0.0053905607 -0.061385024 0.026566755 0.11572181 0.5311175 0.83935851 0.029765122
0.0083997669 -0.061628699 0.026379649 -0.068110794 0.51463389 0.85470045 0.011946763
-0.016473878 -0.060495511 0.026734678 0.2642307 0.40235052 0.8765251 0.031355869
-0.010848101 -0.060748089 0.026624693 -0.35807872 0.30691227 0.88180751 0.054125637
-0.004639958 -0.060533933 0.026652083 0.76403576 0.63775539 0.097557135 0.073092885
0.0033733335 -0.060786366 0.026437517 0.90997922 0.071438707 0.40845346 0.06872011
0.012579408 -0.06084073 0.026485438 -0.14878167 0.57522953 0.80434763 0.020101655
0.015513235 -0.060412176 0.026518675 -0.29084858 -0.6376397 0.71331817 0.066447139
0.016300993 -0.060118809 0.026464097 -0.28961095 -0.47060674 0.83345962 0.068746261
-0.0039034765 -0.059624087 0.026396241 -0.37996295 -0.81982046 0.42839527 0.069542035
0.0016362313 -0.059426494 0.026642267 0.21332534 -0.56833684 0.79466057 0.037002668
-0.020566691 -0.058624052 0.026661051 0.21724017 -0.0070885392 0.97609246 0.042564347
-0.019736379 -0.058378838 0.026243621 0.58959651 -0.57549375 -0.5667299 0.068588026
0.015741609 -0.058547571 0.026379976 -0.42687431 -0.87948984 0.21041842 0.10895676
0.016567405 -0.058466312 0.026433729 0.99526906 0.00070003484 0.09715414 0.079340734
-0.019918799 -0.057822146 0.026714785 0.35454416 -0.063043118 0.93291157 0.043825384
-0.022350788 -0.056160521 0.026712693 0.34213179 -0.85948509 -0.37977761 0.087597176
-0.02220263 -0.0554635 0.0266583 0.072352305 0.011806115 0.99730927 0.04682029
-0.0033991418 -0.055412639 0.026603511 -0.62935078 0.32902387 0.70403194 0.092409849
-0.022382926 -0.054312002 0.026736835 -0.24678785 0.34043744 0.90730262 0.079878196
-0.00018507335 -0.054420631 0.026841685 -0.069812298 -0.00714962 0.99753451 0.028399063
-0.02225765 -0.053562112 0.026679201 -0.14828865 0.45710596 0.87696326 0.11480184
0.00012489283 -0.053582996 0.026266636 -0.31908223 -0.4138597 0.8525883 0.095667742
-0.021552568 -0.052382849 0.026402591 -0.23852077 0.39426965 0.88750172 0.067841716
0.016649386 -0.052286863 0.026536014 0.14264314 -0.70055509 -0.69919628 0.11729385
-0.00023348366 -0.051702306 0.026477704 0.43480214 -0.80293775 -0.40772316 0.11558163
0.018299943 -0.051999368 0.026736293 0.21891339 0.58178043 0.78333169 0.058827635
-0.019837694 -0.05002822 0.026354479 0.060075276 0.66287172 0.74631894 0.103371
0.016573709 -0.049455896 0.026412612 0.41236985 0.35021648 0.84101105 0.082951218
0.00047963485 -0.048100263 0.026388094 0.55145961 0.53357774 0.64123875 0.10388066
-0.018777626 -0.047142368 0.026274836 -0.29806283 -0.81217998 0.50151992 0.078846984
-0.0050111311 -0.047535542 0.026993711 0.40643483 -0.89855051 -0.16558312 0.024518194
-0.0053462619 -0.046589799 0.026410177 0.69649082 -0.6240378 0.35422787 0.086314656
0.0006730358 -0.046199962 0.026621386 -0.67703855 -0.73559844 0.022664323 0.1173673
0.01559377 -0.046344787 0.026331654 -0.087737784 -0.65147388 0.75358075 0.070185125
0.016247796 -0.046859372 0.026374467 0.4600662 -0.38399968 0.80055195 0.06392923
-0.018475456 -0.045329064 0.026363999 0.46551472 -0.065985523 0.88257682 0.10230529
0.00040852261 -0.045395978 0.026695104 0.53874195 0.39552379 0.74385351 0.092342429
-0.01695309 -0.044122096 0.026583776 -0.13150848 -0.88012737 -0.45615935 0.066535711
-0.0074476148 -0.044271808 0.026871705 0.82262892 -0.38253066 -0.42065647 0.055343978
-0.0054475195 -0.044592489 0.026219273 -0.1266392 -0.83608264 0.53378677 0.014581333
-0.016612653 -0.043643206 0.026498605 0.010263238 -0.71321982 -0.70086527 0.10130733
-0.0072994647 -0.04373331 0.026819523 0.65821785 0.39318049 -0.64199561 0.032236908
-0.017476853 -0.042743761 0.02655815 0.76990891 0.58269829 0.26019812 0.11487062
0.012457113 -0.042367052 0.026514789 0.65170926 -0.38537291 0.65327078 0.11180414
-0.01456047 -0.041570485 0.026621616 0.97824115 0.16831146 0.12130766 0.060109183
0.010641867 -0.041263364 0.026834067 -0.57055026 0.28856823 0.7688958 0.11460771
-0.013312948 -0.040424801 0.026423838 0.3261109 -0.92129946 0.21179909 0.088086322
0.0018632055 -0.040204473 0.026082734 0.51318395 0.59987253 0.61383635 0.070916198
0.011551583 -0.040263444 0.026282826 -0.22173436 -0.3405979 0.91368866 0.093535043
0.012297501 -0.040317196 0.026462173 0.57521671 -0.78004336 -0.24628857 0.099431679
-0.011595568 -0.038776096 0.026234195 0.77100509 0.63681889 0.0035870643 0.11627564
0.004443197 -0.038407594 0.026589638 -0.04137513 -0.98932117 -0.13975587 0.1137713
0.0067751817 -0.038601913 0.026884438 0.70625526 -0.16903634 0.68748105 0.045799457
0.012805601 -0.038523544 0.026134662 0.713404 0.091234386 -0.69478858 0.11517566
-0.010374715 -0.037527725 0.026045436 -0.21746065 -0.89968145 0.3785291 0.046594881
-0.0083047505 -0.037430733 0.026058815 0.91427439 -0.38047004 -0.13908592 0.085290052
0.0054506185 -0.037457373 0.026589263 0.81634343 -0.4844484 -0.31447294 0.11901986
0.0065163528 -0.037530515 0.0263895 0.822586 0.39823762 0.40590534 0.10843933
0.0074238949 -0.03751858 0.026428105 0.11553955 -0.44404563 0.88852352 0.055151023
-0.010456365 -0.036245391 0.026095573 -0.63719904 -0.72271442 0.26769602 0.055827633
0.0074964147 -0.036319289 0.026504001 0.37710631 -0.91327572 0.15400778 0.070784926
0.0086904019 -0.036500141 0.026465535 -0.32727885 -0.90396041 0.27521649 0.052717187
0.0095687993 -0.036322314 0.026413068 0.24940889 -0.94459975 0.21336934 0.067216456
0.011495706 -0.036458872 0.026389949 0.88786238 -0.2460832 -0.38877159 0.085784778
0.0074330447 -0.035859205 0.026539156 -0.31147248 -0.82213533 0.47652745 0.048907537
0.0084885061 -0.034674905 0.026428729 0.8548429 0.47904381 -0.19940077 0.044018015
0.010268782 -0.034795105 0.026042817 -0.52313447 -0.62459248 -0.57984018 0.13845618
0.0049295146 -0.03370437 0.026263766 0.97740203 0.15589415 0.14276658 0.06809137
0.0054125539 -0.033310395 0.026122542 0.92100167 0.37873551 -0.091188431 0.056210384
0.0065252492 -0.033361144 0.026167747 0.61407262 -0.78481048 0.08358971 0.037428908
0.0090950076 -0.033272099 0.026208142 0.96447057 -0.057433058 -0.25787213 0.068223283
0.0068064937 -0.032571107 0.026051749 0.083495542 -0.96012247 0.26682073 0.030409407
0.02884273 -0.022380862 0.026389312 0.96429527 -0.21505177 0.15455532 0.038131956
0.029556669 -0.022226112 0.026661815 0.97356194 -0.2278581 -0.016056845 0.016278775
0.033483513 -0.022066854 0.026421633 0.78841269 0.28490305 -0.54519331 0.014213558
0.027348686 -0.02133169 0.026629433 -0.34848318 0.29782516 0.88874042 0.081057079
0.029516548 -0.02170933 0.026237683 0.92908633 0.1108024 -0.35287595 0.059164811
0.031463504 -0.021932552 0.026587401 0.4835645 0.036934685 0.87452918 0.0053870333
0.034442026 -0.021527439 0.026284514 0.661165 0.21338637 0.71925455 0.12754102
0.025994612 -0.019212903 0.026379475 0.41664428 -0.716205 -0.55987304 0.10645223
-0.0033991854 -0.018734004 0.026129682 0.21823348 -0.97059178 -0.10161591 0.074490719
-0.0021210799 -0.018156584 0.026183432 0.90851212 -0.22551027 0.35178238 0.10947455
-0.035495922 -0.017583668 0.026633767 0.18272336 -0.93279177 0.31066337 0.10385542
-0.033474453 -0.017497268 0.026206553 0.52173924 -0.81562066 -0.25010225 0.1171841
0.03561715 -0.017371574 0.026604708 -0.32423934 -0.80638367 -0.49458498 0.059589624
-0.034442581 -0.016579125 0.026531488 0.9468841 -0.294155 0.12993601 0.062887147
-0.031795003 -0.016700894 0.026054112 0.0088387104 -0.96864611 -0.24828716 0.10287806
0.03572334 -0.016628655 0.02640954 -0.33253372 -0.20170565 0.92126876 0.097541861
0.036520097 -0.016443891 0.026456326 -0.14703152 -0.69355047 0.7052443 0.073591024
-0.040281169 -0.015303179 0.026024466 0.45100203 -0.76968628 0.45186302 0.13016704
-0.037636116 -0.015250179 0.026576912 0.88536042 0.089490563 -0.45621091 0.080098093
-0.036642458 -0.015611043 0.026584903 0.37974963 -0.87111306 -0.31137165 0.11307599
0.036354326 -0.015567236 0.026306057 0.085060067 -0.85898185 -0.5048911 0.095059022
0.037047781 -0.015938193 0.026725702 -0.29858762 0.27804586 0.91298187 0.11026177
0.035774037 -0.014298658 0.026262652 -0.33293343 0.22783917 0.91501075 0.034332056
-0.033337176 -0.013637793 0.026505584 0.79014844 0.15601704 -0.59272599 0.062783159
-0.032460656 -0.013300984 0.026232496 -0.22475119 -0.19525824 0.95465237 0.068118773
-0.03300358 -0.012705497 0.026706884 0.33212146 0.58843553 0.73718309 0.097093232
-0.03146261 -0.012452172 0.026427899 -0.043836519 0.58882701 0.80706948 0.054823756
0.026024366 -0.012950853 0.026645539 0.29043078 -0.95129812 0.10335337 0.11213936
0.035568144 -0.012426236 0.026251664 -0.1442243 -0.038242828 0.98880577 0.064197652
-0.040478364 -0.011420858 0.026660921 -0.48500308 -0.87407112 0.02778052 0.071544804
0.025346961 -0.011735136 0.026776113 -0.30582911 0.61345327 0.7281096 0.13254501
-0.03887115 -0.010988909 0.026982639 0.22112513 -0.76557964 -0.60414547 0.13398881
-0.030635286 -0.01032142 0.026490966 0.66817492 0.51381654 0.53808439 0.089443423
0.022534605 -0.010661162 0.026589887 -0.17623682 0.40906891 0.89532298 0.097550064
-0.032065235 -0.0099243261 0.026850678 0.33100119 0.60005546 0.72826624 0.070037201
0.034631759 -0.0095049664 0.026535844 0.33100718 -0.88594365 0.32486624 0.087457515
-0.030570799 -0.0084904758 0.026503477 0.033219602 -0.060839627 0.99759459 0.059800915
0.020819809 -0.0084894383 0.026580008 0.17721006 -0.40107787 0.89873976 0.065544799
-0.038777106 -0.0077631641 0.026782248 0.6753791 0.22420625 0.70256287 0.11077733
-0.027941907 -0.0073413849 0.026132526 -0.048863355 -0.26134476 0.96400797 0.11970834
0.021263521 -0.007538754 0.026190573 -0.13310815 0.11212082 0.98473918 0.1174299
0.033706315 -0.0073168036 0.026491506 0.6548779 -0.64560241 0.3928518 0.11003565
-0.027399698 -0.0064638094 0.026387619 0.022463849 -0.87888181 -0.47651035 0.056376033
0.021363387 -0.0063204556 0.026582137 0.95501667 0.28157783 0.093043722 0.081482343
0.032873698 -0.0062965322 0.026780749 0.64260936 -0.72950345 -0.23426042 0.061158776
-0.038414851 -0.0053473637 0.026480898 0.86279392 0.50524253 0.017793037 0.068915471
-0.034473527 -0.0052701272 0.026426546 -0.58068788 -0.35759985 0.73138487 0.020703809
-0.027586835 -0.0054546166 0.026547395 -0.33637777 -0.27375442 0.90105963 0.046390988
0.032637391 -0.0053551872 0.026457008 0.35351136 -0.59777695 0.71950847 0.074186318
0.033303939 -0.0056972797 0.02643737 0.57801586 -0.28259122 0.76553243 0.071439452
-0.038446326 -0.0046372954 0.026432483 0.9259848 0.37669241 -0.025591193 0.04007585
-0.034690794 -0.0046908068 0.026590517 -0.48265952 -0.25690296 0.83728164 0.012638864
-0.033566814 -0.0044605127 0.026526805 0.93196112 0.36147878 -0.02795637 0.026355224
-0.026626259 -0.00446158 0.026516557 0.024831381 -0.95117104 -0.30766404 0.064481147
0.021760706 -0.0044705169 0.026526701 -0.065219924 0.094660312 0.99337089 0.086579077
0.02356953 -0.0042503928 0.026353141 0.83386153 -0.26758555 -0.48277617 0.056487806
0.029564669 -0.0043312879 0.026595071 -0.400121 0.015219734 0.91633594 0.042622484
0.030471781 -0.0045573683 0.026732247 -0.15818317 0.17156565 0.97239047 0.022678632
0.03159095 -0.0045652897 0.02644638 0.45533344 -0.05703406 0.88849235 0.022118609
-0.029578319 -0.002441359 0.026634414 -0.6907624 -0.20184486 0.6943385 0.05072204
-0.028739056 -0.001794939 0.026142115 -0.43169534 0.064783953 0.89969009 0.072794199
-0.027677096 -0.0019713396 0.026493374 0.99840802 -0.023209749 0.051406909 0.12918778
-0.015379823 -0.061096817 0.027606687 0.7308926 0.065966271 0.67929703 0.045318294
-0.010496035 -0.061346196 0.02724807 -0.038242277 0.033180811 0.99871743 0.058212217
-0.0098774992 -0.061223656 0.027318491 -0.39565322 0.32747194 0.85803306 0.07975734
-0.0085198367 -0.061244477 0.027426494 0.036377162 0.36117461 0.93178838 0.031758312
0.014741451 -0.061115529 0.027385602 -0.55261219 0.12244087 0.82439548 0.075052284
-0.0174175 -0.060501136 0.027469551 -0.07860826 -0.73202479 -0.67672765 0.073944673
-0.0084928684 -0.060576778 0.027542315 -0.073188834 0.45406628 0.8879568 0.026998766
-0.0076300437 -0.060564857 0.027404409 0.15476213 0.69378763 0.70335448 0.025596267
-0.0055198758 -0.060303301 0.027402984 0.94567823 -0.32257193 -0.040496632 0.04040733
0.0025517014 -0.060409695 0.027473768 0.66990018 -0.42109221 0.61148596 0.10677832
0.0055171181 -0.060656469 0.027662937 0.3449325 0.3325991 0.87772399 0.022542676
0.010540967 -0.060660847 0.027530968 0.6907838 -0.53743976 -0.48371089 0.022259641
0.015394147 -0.060353998 0.027604476 -0.6206457 0.043736193 0.78287047 0.076252073
-0.020115811 -0.059372094 0.027686711 0.43501547 -0.055160541 0.89873189 0.10174594
-0.019451786 -0.059412863 0.027535884 0.53754294 0.27559945 0.79692686 0.083695553
-0.016671445 -0.059616402 0.027618747 -0.027952848 0.48436767 0.87441784 0.067283571
-0.0099027148 -0.059566896 0.027972968 0.82897508 -0.491162 -0.26750731 0.055912443
-0.0082738157 -0.059826754 0.027834455 0.069487564 0.56310272 0.82346028 0.018836971
-0.0065112552 -0.059716597 0.027748035 0.97563338 0.20182523 -0.086058632 0.051801108
-0.004455247 -0.059592843 0.027249342 -0.62009567 -0.75771791 -0.20333445 0.11364935
0.016444471 -0.059412926 0.027625287 -0.58045709 -0.74429208 0.3303012 0.092521548
