# .PCD v0.7 - Point Cloud Data file format
VERSION 0.7
FIELDS x y z normal_x normal_y normal_z curvature
SIZE 4 4 4 4 4 4 4
TYPE F F F F F F F
COUNT 1 1 1 1 1 1 1
WIDTH 584
HEIGHT 1
VIEWPOINT 0 0 0 1 0 0 0
POINTS 584
DATA ascii
-0.061167777 0.043590952 0.018496158 -0.21571526 0.10186058 0.97112888 0.19501853
-0.060398951 0.043486949 0.018523136 0.90983999 0.22660632 0.34762147 0.27150232
-0.059365354 0.043438941 0.018499 -0.27366993 -0.61671424 0.73808426 0.17601453
-0.058672018 0.043356009 0.018333364 -0.16602355 -0.65923691 0.73337775 0.17686781
-0.057788357 0.043444514 0.018271906 0.13207048 -0.91253364 0.38709146 0.19342364
-0.05670128 0.043254536 0.018250909 -0.10387561 0.6774615 0.72818673 0.21741745
-0.052568231 0.043425065 0.018419057 -0.059495006 -0.83266664 -0.55056936 0.17522024
-0.040110968 0.043396343 0.018465586 -0.21679987 -0.29414427 0.93084747 0.23015127
-0.03969577 0.043467961 0.018658249 0.69243807 0.60284728 -0.39636448 0.19438082
-0.03872133 0.043152191 0.018629475 -0.17647019 -0.31185475 0.93359786 0.19501102
0.00073655276 0.043469436 0.018509522 0.88809347 -0.35136947 0.29636052 0.21567062
0.0025529207 0.043549296 0.018563088 0.82520002 0.06227969 0.5613966 0.23386985
0.0094672041 0.043501392 0.018463867 0.78168273 0.32617298 -0.53158563 0.26615155
0.010289226 0.043361533 0.018513778 -0.2102199 -0.56050175 0.80102766 0.24164128
0.011454014 0.043442074 0.01856987 0.81306219 0.08696226 -0.57564515 0.3847
-0.059452541 0.044343334 0.018542405 0.5259003 0.20411117 0.82569212 0.25193569
-0.058534056 0.044648416 0.018314322 -0.024973635 -0.073062003 0.9970147 0.32367846
-0.039254516 0.044416368 0.018470824 0.20467003 0.68512452 0.69908124 0.19011542
0.0035147632 0.044047557 0.018399222 -0.14289051 -0.74016201 0.65707117 0.17843816
0.0095647043 0.044548545 0.018606979 -0.017523453 -0.86867386 0.49507442 0.18748294
0.010409957 0.04449188 0.018671528 0.99370313 0.11201664 0.0025336735 0.26082397
-0.060484841 0.045415506 0.018531412 -0.035620514 -0.99772084 -0.057307702 0.17107794
-0.052127149 0.045577466 0.018267043 -0.40557125 -0.66173494 0.63057017 0.20951331
-0.051598769 0.045240615 0.018742915 -0.31512114 -0.63887376 0.70181119 0.1715517
0.00061516609 0.045286655 0.018426606 -0.16827284 -0.70915681 0.68467575 0.1893342
0.0012907865 0.045006838 0.018460684 0.21906024 -0.40874019 0.88597071 0.18888007
-0.050243452 0.046265315 0.018914446 0.23692714 -0.30951208 0.92090607 0.22080122
-0.048362773 0.046378534 0.018574987 0.7340216 0.65291315 -0.18686031 0.1920906
-0.0085718529 0.046550989 0.018871736 0.64241552 -0.32108307 0.69585055 0.17963558
-0.0075788111 0.04639728 0.018451821 0.91304225 -0.10778351 0.39336574 0.33828932
0.0076985173 0.046436723 0.018200388 -0.43697423 -0.26331681 0.86006844 0.23686311
0.009545208 0.046563912 0.018702805 0.4304373 -0.33815193 0.83688533 0.17919967
-0.047501404 0.047719877 0.018597098 0.71736383 0.59282863 -0.36598283 0.17824742
-0.046498127 0.047577418 0.018481648 0.81070101 0.58493537 -0.024788646 0.18910487
-0.0086416705 0.047538102 0.018381821 0.16217741 0.27981308 0.94625741 0.17203106
0.00691038 0.047197599 0.018522367 0.86370999 -0.14346646 0.48313802 0.17004979
0.0084759267 0.047349047 0.018651271 0.99812323 -0.060041491 0.012045984 0.18451658
0.0093306135 0.047416542 0.018458718 -0.41994774 -0.3365151 0.84285319 0.23658299
-0.057697296 0.048557151 0.018480923 0.052058801 -0.53297192 0.84452993 0.18436937
-0.056447536 0.048580319 0.01840812 0.78722185 0.30203697 0.53763884 0.22548424
-0.047646508 0.048489749 0.018451579 0.84066761 0.32881433 -0.43030107 0.17386265
-0.045622788 0.04853005 0.018806476 -0.43813396 -0.89167929 -0.11378323 0.18452853
-0.0075019384 0.048502941 0.018385502 0.52800244 -0.31300241 0.78945732 0.18824267
0.0077204066 0.048546251 0.018238155 0.25178367 -0.83072132 0.49649486 0.20865037
0.0092651984 0.048634652 0.018544916 -0.21627992 -0.37728646 0.90048754 0.27120405
-0.05615025 0.049169745 0.018063301 0.78812927 -0.21115981 0.57815552 0.20295753
-0.055673677 0.049448088 0.018574513 -0.24145137 -0.96819764 0.065532915 0.20139822
0.0075816819 0.049291167 0.018544754 0.82264125 0.20264636 -0.53122109 0.3506296
-0.040546749 0.050411567 0.018509375 0.65490401 0.41493312 -0.63161004 0.22542773
0.0065636057 0.050792836 0.018044427 0.8340109 -0.51076204 -0.20868146 0.20759591
0.0075756661 0.050664093 0.018612234 0.75899798 -0.64399421 -0.095882788 0.20661756
-0.056775559 0.051221158 0.018563747 -0.41138199 -0.89252478 -0.1848359 0.18095435
-0.041375324 0.051469292 0.01848959 0.61719453 -0.20163187 0.76053631 0.17052692
-0.04094141 0.0513754 0.018387601 -0.13814265 0.051149257 0.98909068 0.18019512
-0.0076249088 0.052571561 0.018994506 0.29275995 -0.098994739 0.95104772 0.21126813
-0.053655136 0.053891324 0.018331069 0.34252706 0.31863707 0.88382441 0.19515812
-0.052989829 0.05379653 0.018951064 -0.29645193 -0.50300497 0.81185114 0.23129146
-0.0092637762 0.053803395 0.018839939 -0.6318168 -0.3119821 0.7095595 0.29632619
-0.053510308 0.054576386 0.018663449 0.35054722 -0.56672585 0.7456128 0.2511988
-0.007745944 0.054420203 0.018366424 0.88654143 0.36785296 0.28058612 0.24927706
-0.053376131 0.05530981 0.018520573 0.03080908 -0.43119141 0.90173429 0.18620907
-0.052635558 0.055601664 0.018406961 0.038839933 -0.67322999 0.73841238 0.19050127
-0.0092956489 0.055507034 0.018538982 0.92405695 0.24888399 -0.2901302 0.2232604
-0.010660427 0.056012634 0.018835753 0.93841332 0.29474771 0.18028907 0.25446558
-0.039135061 0.057556663 0.018724039 0.91885269 0.22431521 0.32464209 0.28622362
-0.037444301 0.057717003 0.01888665 -0.65200281 -0.7204861 -0.23620334 0.19451672
-0.010644896 0.057424568 0.018742139 0.99297434 0.090636462 -0.076072246 0.30657071
-0.0069750836 0.0578539 0.018721322 0.63128281 0.36200371 0.68588299 0.18618324
-0.050237015 0.058466386 0.018498197 0.15843023 0.22477704 0.96144432 0.17736594
-0.01053027 0.058418933 0.018773066 0.89117759 0.16254568 0.42353442 0.26884389
-0.0067552514 0.058488533 0.018361762 0.1681504 0.30069476 0.93878013 0.18453625
-0.036487836 0.059600286 0.018821836 0.86243284 -0.22650233 -0.45266566 0.19314179
-0.010313119 0.059844285 0.018033762 0.93336815 0.33449396 -0.13014482 0.2210061
-0.0065751444 0.059577677 0.018472908 0.84354025 0.35117984 0.40634063 0.19319683
-0.037175719 0.060821764 0.018793879 0.79387468 0.054307174 0.60565156 0.28769198
-0.03662559 0.060431018 0.018417107 0.85718578 0.22890358 0.46134126 0.22191894
-0.012721089 0.060600217 0.018378288 0.65681338 -0.40003234 0.63919508 0.19278133
-0.010657514 0.06019637 0.018468671 0.26699987 -0.11655881 0.95662177 0.17461611
-0.0064999079 0.06038487 0.018193007 0.82120585 0.56979549 -0.030887341 0.18898903
-0.040430527 0.061618615 0.018260406 0.79722309 -0.10818468 0.59391189 0.18538983
-0.035463531 0.061506201 0.018587964 0.80196929 0.13896152 0.58097762 0.1916891
-0.013227336 0.061802655 0.018861778 0.099742405 -0.30056086 0.94853288 0.18162289
-0.012360758 0.061503749 0.01874234 0.7801044 0.40579459 -0.47620144 0.27560073
-0.011357111 0.06128525 0.01850846 0.43921191 -0.790968 0.42598426 0.17304128
-0.01085462 0.061184734 0.018241592 0.97386348 0.036992621 -0.22410145 0.30019167
-0.043306582 0.062575132 0.018075123 0.67502224 0.19350004 0.71197098 0.21919702
-0.041511931 0.062672041 0.018415205 0.78449261 0.5826214 0.21242309 0.18695201
-0.036612716 0.06247421 0.018139413 0.62774336 0.17766638 0.75787389 0.18167806
-0.013062856 0.062443104 0.018899746 0.69613254 0.060058273 0.7153967 0.22386579
-0.012365377 0.062420309 0.018686872 0.99652272 0.055435751 0.062203854 0.2350525
-0.03540175 0.063499153 0.018672798 0.90390033 0.42587665 -0.039917774 0.20008034
-0.034448653 0.063613966 0.018616129 0.67003888 0.13673815 0.7296235 0.19827393
-0.035281219 0.064347357 0.018286157 0.30627468 0.38046566 0.87260616 0.17576987
-0.034597307 0.064702347 0.018525109 -0.6388042 -0.35268319 0.68377173 0.20220374
-0.033863496 0.064453401 0.018412098 -0.63230532 -0.67875439 -0.37347344 0.21078077
-0.01412818 0.06599991 0.0188307 0.53804469 -0.61563432 0.57576239 0.19666433
-0.01326541 0.06541042 0.018651862 0.81128746 -0.11219673 0.57378095 0.17804229
-0.01342006 0.066658378 0.018496942 0.94360059 0.16930489 0.28452376 0.30258468
-0.012818632 0.066507861 0.018515024 -0.45386437 -0.35174075 0.81870967 0.20568946
-0.012996447 0.067019105 0.018019482 0.97425872 -0.22158314 0.041484218 0.30709398
-0.033458475 0.068748847 0.018550111 0.96856523 0.24371767 0.049831249 0.19890988
-0.029852781 0.086571552 0.018072234 0.89221668 0.019071102 0.45120469 0.23732042
-0.028359076 0.086534217 0.018303182 0.94943666 0.046643678 -0.31047446 0.21353896
-0.025805108 0.0864847 0.01811735 -0.51563585 -0.31249174 0.79778975 0.25452355
-0.019166591 0.086638846 0.018484714 0.10314822 0.54236269 0.83378839 0.21467005
-0.028403549 0.087514989 0.018318871 0.6630891 -0.14556065 0.73425138 0.17703119
-0.027655618 0.087672286 0.018379727 -0.099691525 -0.36649388 0.92506421 0.27585143
-0.026177973 0.087379277 0.018433476 0.55342841 -0.26547039 0.78945708 0.18545896
-0.025499519 0.087657884 0.018373922 0.06783428 -0.8828187 0.46479005 0.19611795
-0.024483655 0.087524779 0.018412085 0.87344593 -0.088860996 -0.47874418 0.2592741
-0.023616752 0.087577917 0.018385829 0.94494182 0.29345965 0.14479798 0.1854822
-0.021624984 0.087534852 0.018430328 0.91280031 -0.010040523 0.40828264 0.25435978
-0.020637695 0.087296911 0.018619152 0.98656821 0.073783174 0.14573666 0.17117129
-0.019420274 0.08758077 0.018441759 -0.24306661 -0.38955081 0.8883518 0.28998911
-0.018631143 0.08759664 0.018483827 -0.35134292 -0.61727095 0.7039423 0.21969588
-0.024645653 0.08832334 0.018617999 -0.35857508 0.11180326 0.92678148 0.26344332
-0.022334723 0.0885363 0.01847516 0.66080481 0.49398279 -0.56508231 0.17116705
-0.021506999 0.088238038 0.018501744 0.38061222 -0.27231419 0.88373035 0.41405538
-0.027605021 0.089535385 0.018582119 0.95278066 0.19887114 -0.22947618 0.25856116
-0.01932732 0.089675412 0.018308163 0.84567147 0.075492829 0.5283376 0.26083827
-0.017889714 0.089372076 0.018117594 0.24182954 0.033969592 0.969724 0.30495173
-0.016903415 0.089022301 0.01837117 0.04203156 -0.72049093 0.69218951 0.19584063
-0.030297207 0.090763375 0.018644806 0.98710501 0.095232531 0.12866364 0.30388021
-0.030636057 0.091900982 0.018700268 -0.5497942 -0.66704041 -0.50277579 0.19560996
-0.029370461 0.092105851 0.018606324 0.70283765 -0.47278666 -0.53149962 0.18324497
-0.031358227 0.094664194 0.018390657 -0.44069076 -0.84125614 0.31317684 0.18757813
-0.018362889 0.09660314 0.018585261 -0.38098317 -0.4680984 0.79733032 0.24156024
-0.029844135 0.097861283 0.01858701 0.68703735 0.63448459 -0.35413119 0.22539014
-0.017558074 0.097248822 0.018861504 0.89887065 -0.046901945 0.43569696 0.19294609
-0.030539401 0.09846817 0.018668775 0.73538119 0.026827468 0.67712241 0.17421578
-0.03058511 0.099283136 0.018638743 -0.62267756 -0.75796616 0.19431922 0.18704602
-0.031523824 0.023772283 0.019656194 0.22151046 -0.59865254 0.76977152 0.17472801
-0.019185565 0.023967704 0.019845847 0.98431987 -0.14522542 -0.10011952 0.17014901
-0.036624391 0.024451051 0.019773588 0.0066850819 -0.89135808 0.45325062 0.1847074
-0.034383927 0.024405938 0.019630764 0.90139294 0.38253963 0.20286527 0.23326579
-0.031441499 0.024413506 0.01937048 0.2484234 -0.71392667 0.65467131 0.18968707
-0.030556286 0.024570866 0.019734925 0.70738339 -0.054430787 0.70473123 0.17781386
-0.01645923 0.024432302 0.019622399 0.45539925 -0.26361847 0.85036278 0.26962873
-0.015331874 0.024348099 0.019403258 0.44139922 0.34791136 0.82711816 0.26184565
-0.035362389 0.025648097 0.019440399 0.07347925 -0.84079033 0.53635091 0.18525842
-0.016496358 0.025540004 0.01925279 -0.56261355 -0.029803794 0.82618266 0.17925069
-0.015563545 0.025585096 0.019694133 0.68906969 -0.43015933 0.58322036 0.26185629
-0.036232285 0.026270971 0.01936572 0.6076808 -0.6265521 0.48801291 0.20692012
-0.02935997 0.026523145 0.019416513 0.52402151 0.43596286 0.73166776 0.19040018
-0.020145234 0.026630953 0.019690171 0.23525354 -0.44262999 0.86529446 0.20335273
-0.019465022 0.026243472 0.019688074 0.63540453 -0.32854125 0.69880027 0.3552227
-0.017329728 0.026582977 0.01966678 -0.52379102 -0.72522932 0.44686171 0.22563848
-0.015433732 0.026653081 0.019214734 0.19075909 -0.52201939 0.83132821 0.17949119
-0.014587955 0.026516972 0.019502485 -0.054405134 -0.88725775 0.45805424 0.24184418
-0.036186505 0.027668342 0.019656563 -0.095728256 -0.42836094 0.89852273 0.20413134
-0.035642598 0.027633751 0.019356126 0.724608 0.15018409 0.67259789 0.27196062
-0.033538315 0.027623096 0.019214677 0.54785568 -0.62174511 0.55972058 0.19259298
-0.020532917 0.027547639 0.019438718 -0.15601581 -0.76960522 0.6191662 0.24681288
-0.019778023 0.027875539 0.019652829 -0.36500055 -0.46171394 0.80845207 0.26674914
-0.01848718 0.027562957 0.019352654 0.68048382 -0.31084448 0.66356426 0.24001744
-0.017674576 0.027429432 0.01942493 0.56712294 -0.23920114 0.78813344 0.21019512
-0.036386695 0.028543951 0.019614035 -0.13892624 0.48212793 0.86501569 0.24164543
-0.035538949 0.028500939 0.019306824 0.41937143 0.28563711 0.86170709 0.28433219
-0.034789484 0.028558649 0.019383838 0.49797598 0.5078277 0.70294446 0.22638404
-0.032712653 0.028653523 0.019067427 -0.423769 -0.82980376 0.3631053 0.21191508
-0.021533785 0.028743524 0.019865163 0.96671629 -0.088417321 0.24008746 0.24347283
-0.019636134 0.028466361 0.019287873 0.88678735 0.29962021 0.35190314 0.19168606
-0.018469334 0.02813676 0.019583587 0.9380511 -0.026660584 0.34546968 0.21069425
-0.017702196 0.028041618 0.019593416 -0.061850626 -0.81186777 0.58055586 0.21741773
-0.010258089 0.028481273 0.019440491 0.57387406 -0.37252098 0.72931236 0.18808387
-0.037177101 0.029615873 0.019581921 -0.096461207 -0.38701704 0.91701305 0.19420163
-0.036377911 0.029742485 0.019404739 0.4183614 -0.075956866 0.90509903 0.34616601
-0.035587776 0.029807728 0.019245004 -0.58306676 -0.73988301 -0.33556855 0.19184303
-0.034743067 0.029453257 0.01947251 -0.26270196 -0.78579718 0.55992007 0.17139322
-0.021422116 0.02955012 0.019537628 0.75431997 0.22482309 0.61681116 0.26860833
-0.010388239 0.029275365 0.019768616 0.83764464 0.15276094 -0.52441919 0.21744683
-0.033177316 0.030123159 0.019067653 -0.54105121 -0.81754655 0.19718304 0.18072265
-0.021535728 0.030366287 0.019689176 0.84008014 -0.40169528 0.36456329 0.23601256
-0.036419921 0.031603202 0.019439075 0.51727009 0.35778329 0.77744639 0.29187804
-0.03661095 0.032405287 0.019512491 0.22603297 0.14116664 0.96383667 0.24919209
-0.021676308 0.032379929 0.019208619 0.80294269 0.56229365 -0.19775966 0.23039488
-0.012216847 0.032307237 0.019130539 0.53848296 -0.73889059 0.40506402 0.1753158
-0.037802387 0.033246569 0.019972341 -0.1900816 -0.72614181 -0.66074729 0.20544893
-0.03827611 0.035263516 0.019561496 0.027603822 -0.949458 -0.31267816 0.17708033
-0.037759058 0.035266157 0.019510793 0.71401101 0.68441409 0.1475316 0.24485609
-0.036753707 0.035589777 0.019410256 -0.37652481 -0.90521359 -0.19702113 0.18769053
-0.039063923 0.037409052 0.01965435 0.19728856 0.56919116 0.79818463 0.19691506
-0.038629223 0.037308343 0.01954722 0.19728854 0.5691911 0.79818469 0.19691506
-0.057624623 0.038602252 0.019525794 -0.049452197 0.066980161 0.99652797 0.27354124
-0.058366429 0.039466538 0.019566458 0.63066608 0.15952842 0.75948077 0.20924491
-0.037976969 0.03981914 0.019422004 -0.52849215 -0.6989193 -0.48187953 0.22034431
0.0045416495 0.039295346 0.019342287 0.82238364 -0.45227641 0.34515375 0.17103535
0.0064742547 0.039589565 0.019392321 0.81827563 -0.34745562 0.45792967 0.21064502
0.014430073 0.039626349 0.019850293 0.77248001 -0.62539965 0.11022647 0.17905796
-0.061760813 0.040679131 0.019485198 -0.077389948 -0.8870821 -0.45507818 0.22214836
-0.060916163 0.040635396 0.019457389 -0.23526569 -0.78232127 -0.5767352 0.25121075
-0.038502179 0.040454105 0.019524934 0.91814697 0.36930177 0.14360486 0.29283997
0.0052237026 0.040547587 0.01946977 -0.48428079 -0.061769836 0.87272942 0.18548328
0.0062701041 0.040257931 0.019528177 0.7675277 0.39991799 -0.50096589 0.17735338
0.012471602 0.040740725 0.019269457 0.96798527 -0.18409106 -0.17063135 0.17761585
-0.061472438 0.04136353 0.019438529 0.46207595 -0.35838357 0.81120098 0.27404442
-0.060432233 0.041207783 0.019318275 0.22542737 -0.52109528 0.82319033 0.17208275
-0.056051679 0.041500606 0.01907853 0.31553194 -0.66084421 0.68097323 0.21890144
-0.039545648 0.041592732 0.019502897 0.25203353 0.54443038 0.80004668 0.17376591
0.0024000683 0.041588712 0.019631591 0.60358304 -0.63272542 0.48512477 0.19054513
0.012710936 0.041640889 0.019405328 0.9732337 -0.11093278 -0.20127146 0.22167371
0.013473076 0.041369345 0.019712353 0.14837158 -0.68945926 0.70896524 0.20166168
-0.062329859 0.042344593 0.019641478 -0.15601222 -0.94666737 0.28192398 0.17109746
-0.061475318 0.042638291 0.019232482 -0.48047319 -0.74622893 -0.46074709 0.26079062
-0.060346924 0.042717107 0.019404616 0.14270934 -0.54905659 0.8235113 0.20091891
-0.059805356 0.042462677 0.019025639 0.74328065 0.666556 0.056895323 0.17107666
-0.04034777 0.042947482 0.019313125 0.0799831 -0.20498753 0.97549105 0.19557974
-0.039439328 0.042561218 0.019174643 0.69329995 0.58144879 -0.42573744 0.25424916
-0.038582478 0.042332169 0.019303696 0.19887061 0.35535246 0.91333181 0.20898581
0.0042208284 0.042595848 0.019378465 0.92306238 -0.29118264 -0.25133356 0.17576496
0.010107067 0.042663492 0.019309111 0.84735537 -0.47446132 0.23848565 0.18670052
0.012659914 0.04267421 0.019663321 0.78625661 -0.26620075 -0.5576179 0.28893727
-0.060783789 0.043346509 0.019779027 -0.25946099 0.33577845 0.90550148 0.18377271
-0.040232241 0.04341846 0.019429645 0.03921935 0.069954656 0.99677885 0.30793557
-0.039389726 0.043338433 0.019446133 0.77193975 0.63011593 0.084040999 0.18705523
-0.038583942 0.043644384 0.019300448 0.63744777 0.16382073 0.75287658 0.24117629
0.0015397463 0.043243013 0.019449901 0.86899132 0.24893385 0.42765188 0.18741448
0.010482073 0.043538939 0.019375721 0.85123956 -0.49586856 0.17177187 0.18187414
0.011684417 0.043264985 0.01941653 -0.35126838 0.53181189 0.77057546 0.19596004
-0.058358148 0.0447613 0.019025914 -0.51787567 -0.81861717 0.24833599 0.20192032
-0.040079556 0.044323139 0.019233037 0.87078619 0.18133371 0.45700043 0.17799053
-0.039474797 0.044366207 0.019289302 0.96329349 -0.017692015 0.26786694 0.17605697
-0.038843818 0.044383906 0.019473832 0.0012525623 -0.25811222 0.9661141 0.19679286
-0.001215525 0.044980664 0.019640794 -0.15039474 -0.37643406 0.91415471 0.17919928
0.0015014906 0.044270866 0.019297959 0.53221667 -0.6210947 0.57531452 0.18063007
-0.061403435 0.045539808 0.019432187 -0.3514182 -0.93590385 -0.024276426 0.20050013
-0.04859899 0.045435224 0.019083494 -0.54281086 -0.64654106 0.53604209 0.1796349
-0.0075236917 0.045483638 0.019534102 -0.39200327 -0.85537755 0.33861873 0.22106841
-0.060703188 0.046635848 0.01951935 0.6794396 0.58108395 0.44799918 0.19899333
-0.048277497 0.046503328 0.019316809 -0.089441843 -0.99475217 0.049681798 0.17074475
-0.061199561 0.047336485 0.01985516 -0.55187553 -0.83385605 0.010836892 0.21208818
-0.048651088 0.047451854 0.019673148 0.74422038 0.5849461 -0.32245019 0.19797131
-0.0086324597 0.047225446 0.019139245 -0.10810451 -0.52050245 0.84698921 0.20063867
-0.003510105 0.047327723 0.019809315 -0.1778724 -0.6538499 0.73541939 0.19842823
0.0085767079 0.047659226 0.019564595 0.22290577 -0.18727738 0.95668185 0.20561272
-0.060353089 0.048247542 0.019644191 0.50762218 0.60438931 0.61403036 0.24287593
-0.0455711 0.048680931 0.019571505 -0.38977867 -0.77391291 0.4991307 0.227218
-0.0084097264 0.048922766 0.019713018 0.27438882 -0.31764689 0.90764046 0.22560199
-0.0070009222 0.048610169 0.019166468 0.57848614 0.060049716 0.81347883 0.17059034
0.0083988197 0.048294879 0.01946879 -0.41109073 -0.3864623 0.82562172 0.27026689
-0.055929873 0.049868852 0.019337779 -0.61827862 -0.78592229 -0.0075983782 0.27009949
-0.040473569 0.050677378 0.019230399 0.78331977 0.5234856 0.33522072 0.25211293
-0.0075051133 0.050573025 0.019611996 0.97414571 -0.11049571 0.19705527 0.25521463
-0.041907564 0.051772401 0.01973059 -0.66265398 -0.21351863 0.71784365 0.19066472
-0.040547241 0.051352952 0.019574221 0.29644772 -0.86425352 0.40642905 0.19419497
-0.0083014602 0.051398829 0.01959352 -0.56696123 -0.45458618 0.68695444 0.19588582
-0.00718241 0.051173929 0.019303305 -0.60852534 -0.29728583 0.73574328 0.23801103
-0.0069119418 0.051043682 0.019148925 0.34326071 -0.37742463 0.86007142 0.23777263
-0.0075668059 0.052540746 0.019770233 0.80157423 0.5213936 -0.29262179 0.21302393
-0.0055564987 0.05201178 0.019777881 0.61999834 -0.058076002 0.7824508 0.19322228
-0.0095236069 0.053884137 0.019569697 -0.46935731 0.35954806 0.80649173 0.19663371
-0.0084357215 0.053719971 0.019485883 0.32449514 -0.21266788 0.92166984 0.25300643
-0.0072463746 0.053776603 0.019627377 0.044254232 -0.14062311 0.98907363 0.276016
-0.040317126 0.054915369 0.019498345 0.57569206 -0.69137412 0.43655539 0.22110233
-0.039459374 0.054659083 0.019927952 0.52214658 -0.7908265 0.3193059 0.1842466
-0.0058960468 0.054688446 0.019322034 0.85893589 0.062140204 0.50829893 0.27211165
-0.039697651 0.055404171 0.019614832 0.68145746 -0.17173541 0.71142292 0.23624524
-0.0097921975 0.055937108 0.019609069 0.75215173 -0.3496128 -0.55860406 0.21337396
-0.0083012469 0.055527333 0.019640824 0.99173498 0.099973589 -0.080416851 0.25515169
-0.0054310476 0.055395324 0.019692991 -0.085657112 -0.17460413 0.98090577 0.19757511
-0.010653079 0.056456052 0.019533899 -0.62333721 0.1259591 0.77174163 0.17261818
-0.0096966894 0.056543283 0.019376775 0.96259689 0.21628428 -0.16318159 0.17026052
-0.0084207067 0.056493409 0.019590683 0.98823702 -0.069005243 0.13647653 0.19626305
-0.00033969179 0.056411862 0.019641262 0.8134976 0.52485174 -0.25050384 0.17787966
-0.038870029 0.057092406 0.019529874 0.58815747 0.096839182 0.80292773 0.22500916
-0.010340617 0.057643402 0.019251905 0.88802582 0.16812602 -0.42795292 0.22183982
-0.042430136 0.058529627 0.019665429 0.97589236 0.13572867 0.17091492 0.20099074
-0.037649687 0.058162056 0.019586608 0.79689121 0.34761515 0.49409324 0.1786471
-0.036142223 0.058701653 0.019897098 0.93815142 0.24423751 0.2453976 0.28298494
-0.035980847 0.058877796 0.019360825 0.63276649 -0.48486006 0.60375267 0.17319816
-0.0083491094 0.058283262 0.019296207 0.96917957 0.20791994 0.13213708 0.17139196
-0.037416875 0.059494808 0.019637782 -0.45310503 -0.82675606 0.33342206 0.28099912
-0.036864709 0.060571756 0.019098978 -0.10058923 -0.57395214 0.81268728 0.18881583
-0.034863219 0.060744137 0.019934677 -0.023108438 0.018085739 0.99956936 0.17010391
-0.035527773 0.061520793 0.01926362 0.96935272 0.19910973 0.14391202 0.23324615
-0.034579359 0.063401699 0.019135593 0.34809709 0.084221259 0.9336676 0.18984802
-0.035346672 0.064312547 0.019518901 -0.12725109 -0.10867616 0.98589885 0.19509773
-0.033676837 0.064983852 0.019862669 -0.49157241 -0.63925773 0.59135956 0.22742975
-0.034536935 0.065433025 0.019458322 0.97319353 0.18423457 0.13766609 0.25291735
-0.033545844 0.065824658 0.019494385 -0.48147503 -0.63493991 -0.60417974 0.19665366
-0.013809911 0.065550432 0.019172791 0.24010643 -0.2321977 0.94256729 0.1744456
-0.012991589 0.065611981 0.019118907 0.95764947 0.28492314 0.04154807 0.27149802
-0.013728462 0.06639035 0.01937945 0.81564587 -0.19662039 0.54411596 0.21366094
-0.034255959 0.06722977 0.019708658 0.66261977 0.56255448 -0.49443647 0.17922984
-0.032844301 0.067708179 0.019985653 0.91736287 0.37055865 -0.145367 0.30364656
-0.014526455 0.067707658 0.019626569 0.99694347 -0.078124993 -0.00039634755 0.2447741
-0.033175249 0.069318093 0.019772949 0.91987836 0.37649533 0.10988679 0.21314302
-0.021560945 0.070281893 0.019495351 0.8311733 -0.34884453 0.43296465 0.19268636
-0.024549041 0.087928697 0.01912304 0.92859006 0.35767493 -0.098940022 0.18504722
-0.027754435 0.088073432 0.019005489 0.13825916 -0.57808125 0.80418062 0.23422045
-0.026601393 0.088882431 0.019268803 0.89200205 -0.045575392 -0.44972792 0.17353424
-0.02220365 0.088110253 0.019366667 0.53718919 0.53330082 0.65346622 0.21556629
-0.020704417 0.088690005 0.019229727 -0.28660107 -0.88859034 0.35814375 0.17379117
-0.028115319 0.089741081 0.019182796 0.62527484 0.51691318 -0.58466417 0.28392506
-0.028241307 0.090598539 0.019402696 -0.60028905 -0.7289452 0.32907754 0.19169924
-0.019665422 0.09067677 0.019070154 0.91123867 0.30571884 0.27600732 0.22367224
-0.030370349 0.09170524 0.019358594 -0.39795595 -0.51598501 0.75854498 0.23209198
-0.028538095 0.09120816 0.019614235 0.9705776 -0.17988957 -0.16005872 0.1734637
-0.031110261 0.092852831 0.019659832 -0.3283726 -0.72411746 0.60648602 0.19966444
-0.03140869 0.093292564 0.019617144 -0.21739188 -0.97289753 0.078810968 0.17757823
-0.031393349 0.094678812 0.019626232 0.93497449 -0.34247947 -0.092360735 0.18040913
-0.0176856 0.096279606 0.019681085 -0.29079783 -0.37076396 0.88202643 0.20115703
-0.016822433 0.096733667 0.019176805 -0.3751469 -0.50484753 0.77742761 0.34168506
-0.017687073 0.097483136 0.019211864 0.90244824 -0.27520508 0.33143532 0.24931984
-0.016527003 0.097178057 0.019974716 -0.36681357 -0.089643322 0.92596537 0.23355889
-0.017826224 0.098169036 0.019247698 0.81650132 -0.26223865 0.51435059 0.19499636
-0.030523112 0.099227563 0.01932543 0.90227944 0.19118333 -0.38644624 0.21534452
-0.029523462 0.099499635 0.019594969 0.71342933 0.68622559 0.14182007 0.18735471
-0.018382482 0.10013248 0.019613795 0.91279322 -0.4084197 0.0013682336 0.20001566
-0.014641211 0.018238682 0.020887112 -0.33272877 -0.70233005 0.62930453 0.17724606
-0.032578718 0.019730149 0.020773657 0.82075781 -0.26918828 0.50387919 0.17976892
-0.034513693 0.021531656 0.020416126 0.7886467 -0.38664079 0.47806412 0.24190511
-0.016551912 0.021655349 0.02057923 0.78009719 0.27605933 0.56146204 0.18263322
-0.011308387 0.021681054 0.020859202 -0.60368621 -0.79637873 -0.036658783 0.19294451
-0.01076497 0.021480475 0.020827649 0.86527801 0.48287109 0.1346457 0.17879961
-0.034516096 0.022538263 0.020411242 -0.57591319 -0.65172994 -0.49353015 0.21156268
-0.01746494 0.022308523 0.020497903 0.67826486 0.2143161 0.70286942 0.17318937
-0.011434951 0.022824841 0.020307671 -0.52836287 -0.82380891 -0.20535682 0.19406125
-0.036708575 0.023556042 0.020640317 0.8584497 0.41359571 0.30331951 0.29588261
-0.035664152 0.023661323 0.020676127 0.53163141 -0.18488266 0.8265509 0.2466982
-0.034489863 0.023645205 0.020524282 0.95655966 0.1095683 0.27016363 0.23555742
-0.018580927 0.023473082 0.020754747 0.59338927 0.23682737 0.76928663 0.19263506
-0.017414898 0.023469251 0.020336408 -0.094266191 -0.93731719 0.33548513 0.1764403
-0.015560897 0.023509452 0.020575348 0.70996356 -0.64431119 0.28427953 0.24303631
-0.012636276 0.023690633 0.020552671 -0.52949435 -0.8396185 0.12114598 0.18265776
-0.011786174 0.023765583 0.020312214 -0.12194742 -0.60082424 0.7900247 0.21093814
-0.010685555 0.023852635 0.02054942 -0.18739995 -0.78852946 0.58574957 0.17836083
-0.037526149 0.024581229 0.020729493 0.7194916 0.69296634 -0.046145469 0.20077947
-0.036726121 0.024333656 0.020472443 0.56338352 -0.27257484 0.77993727 0.2562516
-0.035521016 0.024338523 0.020377086 0.34414828 -0.27844486 0.89667743 0.18222807
-0.033386819 0.024460796 0.020389304 0.6473484 0.50474888 0.57111168 0.1734557
-0.031491742 0.024302801 0.020570688 -0.24590783 -0.71995419 -0.64899558 0.18373998
-0.021225784 0.024981491 0.020567875 0.63752067 0.14849268 0.75598764 0.28267762
-0.016183354 0.02458591 0.02027088 -0.41784716 -0.38666382 0.82212824 0.21979198
-0.015841357 0.024464294 0.020297891 -0.41784722 -0.38666373 0.82212818 0.21979195
-0.012667775 0.024746256 0.020839583 0.71389025 -0.3036046 0.63101888 0.21968535
-0.010318588 0.024249073 0.020965721 -0.57815081 -0.45696637 0.67596108 0.17736721
-0.03740336 0.025449777 0.020609396 0.62963265 0.15169244 0.7619397 0.29485977
-0.036203947 0.025718575 0.020370515 0.47804898 0.048354737 0.87700111 0.30982804
-0.035667431 0.025742915 0.02030199 0.63718075 0.30005038 0.70990878 0.20826009
-0.02153039 0.02590885 0.020639967 -0.60877794 -0.66003603 0.44016114 0.1771463
-0.019775076 0.025646288 0.02064475 0.25291133 0.64664978 0.71963871 0.17928635
-0.018329792 0.025554873 0.020333242 -0.31167316 -0.670551 0.673217 0.27249551
-0.015332954 0.025549337 0.0201886 0.7650544 -0.62548959 0.15314868 0.19307242
-0.012540184 0.025388867 0.02025154 -0.20560366 -0.84407699 0.49523851 0.22593945
-0.010500728 0.025670487 0.020608608 -0.021019591 -0.50240612 0.86437625 0.20073175
-0.037372299 0.026599282 0.020650059 -0.087565146 -0.031643245 0.99565613 0.26872423
-0.035835881 0.026798505 0.020379584 -0.088408411 -0.95442563 0.28505394 0.17149489
-0.029384993 0.026816547 0.020594012 0.55121779 -0.29926518 0.77884483 0.17270119
-0.020490818 0.026871942 0.020337462 0.85776901 0.23245725 0.45847124 0.32738307
-0.019362001 0.026344394 0.020223388 0.75627381 0.64755553 0.093390562 0.22520986
-0.017861012 0.026960775 0.020052316 0.72891164 0.4829191 -0.48525953 0.21118224
-0.0099199153 0.026480876 0.020463968 0.2027014 -0.62922531 0.75032496 0.18256721
-0.037593957 0.027379157 0.020399949 0.23535728 0.30174595 0.92388111 0.27913022
-0.03632693 0.027396003 0.020598769 0.2451891 0.03057218 0.96899319 0.3141019
-0.028567156 0.02744171 0.020610524 0.39821041 0.064727589 0.91500759 0.17831257
-0.027405338 0.027714971 0.020497581 0.83511913 0.20347047 0.51105356 0.1734011
-0.02138203 0.027859908 0.020496188 0.94830936 -0.30437085 -0.089820981 0.19301736
-0.020436008 0.027652115 0.020404506 0.64744186 -0.48395747 0.58873105 0.18240494
-0.019474957 0.027428167 0.020413291 0.72922009 0.65424728 -0.20049573 0.21039049
-0.010270869 0.027613657 0.020525001 0.78585804 0.58038002 -0.21350922 0.17684361
-0.0094776107 0.027932681 0.020752866 -0.097544 -0.91997004 0.37965801 0.18549179
-0.037589833 0.028612738 0.020725548 0.4056212 0.38770872 0.82773995 0.27451849
-0.036822151 0.028222144 0.020587699 0.81713974 -0.052293729 0.57406265 0.30679619
-0.035885286 0.028694291 0.020220688 -0.58743471 -0.79821855 0.13329552 0.17814916
-0.021214893 0.028514788 0.020600725 0.51217455 -0.31889215 0.79748672 0.2071937
-0.020615583 0.028985871 0.020381622 0.98804063 0.075872533 -0.13423558 0.18007383
-0.019461187 0.028649632 0.020044703 -0.23383281 -0.69352514 0.68142879 0.2623693
-0.011089516 0.028952621 0.020752501 0.998725 0.047116879 0.018117089 0.21706484
-0.010561476 0.028729996 0.020554354 -0.29660088 -0.55914444 0.77419984 0.26275992
-0.0281059 0.029088106 0.020403245 -0.4914397 -0.87041426 -0.029428625 0.1822594
-0.027307343 0.029536273 0.020221306 0.76847208 0.58825618 0.25180411 0.19685276
-0.011486508 0.029379586 0.020220963 0.19002853 -0.69302619 0.69541639 0.22618115
-0.010470906 0.029195949 0.020497371 0.94251472 0.33303323 -0.027476521 0.25733101
-0.0097162696 0.029858114 0.020566091 0.26486281 0.39901584 0.87785769 0.17788249
-0.038430218 0.030690104 0.020594956 0.58798099 0.30113786 0.75072926 0.39082083
-0.037641868 0.030537069 0.020451732 0.3049303 0.14680447 0.94099194 0.31083515
-0.023260698 0.030423557 0.020763684 0.81857884 0.25112697 -0.51658875 0.18236229
-0.037701022 0.031337578 0.020476019 0.95086938 0.17948027 0.25225809 0.22257465
-0.036415815 0.031605802 0.020044301 -0.41606569 0.36189824 0.83421761 0.20022346
-0.038472507 0.034518447 0.020462794 -0.36070809 -0.89250892 -0.27077189 0.20514449
-0.038604926 0.035364762 0.02043717 0.7612198 0.50048488 -0.41238269 0.17645951
-0.058744315 0.036201544 0.020762648 -0.0022309807 -0.81390899 0.58098817 0.18218534
-0.062534571 0.03859539 0.020663213 -0.50136352 -0.81932139 0.27811351 0.18163359
-0.061262097 0.038607653 0.02064958 -0.39524972 -0.86896634 -0.29778391 0.28970253
-0.059387449 0.038532678 0.020387854 0.53894824 -0.25753668 0.80200356 0.1983439
-0.06253811 0.039591514 0.020604599 0.88307601 0.18799652 0.42992336 0.27559629
-0.061567653 0.039237458 0.020447211 0.065294258 -0.02822293 0.99746692 0.18504645
-0.053411812 0.039627329 0.020807508 0.46389532 0.34322047 0.81670117 0.17544454
0.014373466 0.039329465 0.020570822 -0.36072987 -0.75974178 0.54098654 0.25490063
0.015117868 0.039164208 0.020678818 -0.066070013 -0.63962311 0.76584399 0.18918169
-0.057993323 0.040013298 0.020030452 -0.0064370288 -0.70316726 0.71099532 0.19869936
0.001681095 0.040645123 0.02092709 0.31921658 -0.49537238 0.80790287 0.18842678
0.0045799017 0.040460855 0.020465203 0.54728836 -0.72083449 0.42529175 0.18037525
-0.061622251 0.041601241 0.020332649 0.59984434 0.33897564 0.72476357 0.24091718
-0.060854562 0.041156787 0.020428337 -0.3834309 -0.89621878 -0.22309804 0.2059457
-0.0093161222 0.041873258 0.020348659 0.71766382 0.59332711 -0.36458409 0.2078706
-0.0085031716 0.041699342 0.020030946 0.968301 0.15729839 0.19403705 0.26397371
0.013483571 0.041277617 0.020559024 0.86335289 0.096586116 -0.49527061 0.29819459
-0.052599788 0.042817697 0.020605344 0.18482612 -0.69785267 0.69198334 0.23397478
-0.062571071 0.043346491 0.020660499 0.75490928 0.58505827 0.29634264 0.18040891
-0.052070208 0.043832544 0.020452024 -0.45964545 -0.4495703 0.76590639 0.19516724
0.012433711 0.043639868 0.020494968 0.9494921 -0.17848642 -0.25808397 0.28666067
-0.060508005 0.044532783 0.020234473 -0.53527516 -0.81216323 -0.23210213 0.27693221
-0.039682839 0.044655383 0.020519119 -0.4910937 -0.85230607 0.18000364 0.17656261
-0.0090768617 0.044932511 0.020445528 0.60290641 -0.21848239 0.76731306 0.21911272
-0.0075762756 0.044445477 0.020637712 0.49995044 -0.13507278 0.85545605 0.19982831
0.011618393 0.044034563 0.020349562 0.93847078 -0.24735011 -0.24101996 0.20436278
0.012447128 0.044559859 0.02060782 0.92536849 0.13767032 -0.35318553 0.17425773
-0.050634064 0.045551293 0.020587746 -0.27932897 -0.16085233 0.9466266 0.19757427
-0.048843157 0.045431275 0.020671003 0.061086759 -0.36317036 0.92971808 0.20836911
-0.0080601247 0.045605317 0.020165196 0.92922765 0.29459867 -0.22304218 0.32968649
-0.061269354 0.046730112 0.020353358 0.33841363 -0.64124864 0.68867731 0.21261872
-0.06073929 0.04672737 0.020704592 0.45986748 -0.031894289 0.88741463 0.17336738
-0.059749361 0.046691854 0.020074012 0.55727148 0.4651944 0.68778104 0.21670385
-0.049117189 0.046507336 0.020501133 -0.18959656 -0.46525797 0.86463183 0.17130232
-0.048984706 0.046362996 0.020954128 -0.081725225 -0.48739421 0.86934912 0.17786252
-0.008670886 0.046555236 0.02036874 0.99625862 0.074028343 -0.044593506 0.32650873
-0.00077645853 0.046209887 0.020780222 0.86288404 -0.11412412 -0.49234828 0.24415815
-0.062032741 0.047289789 0.020168753 0.82439762 0.56429881 0.043992277 0.17470035
-0.060569264 0.047345851 0.020622771 0.61388046 -0.017794127 0.7891984 0.21815017
-0.0484658 0.047300976 0.020642342 0.77266115 0.60484242 -0.19277006 0.17824721
-0.046908662 0.047412932 0.020614453 -0.33045641 -0.86088103 0.38688836 0.29492688
-0.0092394706 0.047614135 0.020389134 0.93577826 0.33896106 -0.097080007 0.21036673
-0.0081226435 0.047638085 0.020127663 0.89856321 0.43635511 0.046673428 0.2434068
-0.0028050947 0.047416233 0.020551573 -0.60292345 -0.79304862 -0.086931907 0.18794781
-0.060265064 0.048540033 0.02074066 -0.026155604 0.075665101 0.99679023 0.21831331
-0.058589671 0.048667826 0.020452924 0.456599 0.35991788 0.81361938 0.18080194
-0.0087066367 0.048294656 0.02056068 0.85361964 0.5123862 0.093775384 0.17153755
-0.0029709532 0.04817988 0.020361258 0.9728567 0.022095583 -0.23035114 0.21904218
-0.058636706 0.04939143 0.020398125 0.85033387 0.21026152 0.48241296 0.17570877
-0.0077201976 0.049173228 0.020525921 0.27526417 -0.25405744 0.92719167 0.2088244
-0.0069766687 0.049850769 0.020811191 0.96890098 0.14876184 -0.19773957 0.19216554
-0.057540201 0.050504394 0.020585712 0.33536026 -0.33830702 0.87925065 0.25970215
-0.0083035808 0.05065104 0.020643378 0.64927584 -0.25887787 0.71513855 0.32689345
-0.0073990463 0.050392821 0.020773245 -0.26190132 -0.85764277 0.4425568 0.1891697
-0.0053722877 0.050346859 0.02068555 0.95084262 -0.22819225 0.20934837 0.17723681
-0.0034276773 0.050442412 0.020850169 -0.25876418 -0.73059464 0.63188022 0.23134533
-0.058293317 0.051213972 0.020562872 0.2519154 0.17381814 0.95201153 0.1733543
-0.0085089672 0.05141804 0.020348161 0.7680667 0.20568034 -0.60643971 0.17211743
-0.0075683021 0.051635645 0.020188317 -0.27267501 -0.41466463 0.86815989 0.20229216
-0.0060102521 0.051175069 0.020863393 0.76590991 0.30959803 -0.56349891 0.25208557
-0.0055143083 0.051581603 0.020708119 0.16408907 -0.42711923 0.88918167 0.26173395
0.0073478809 0.051774215 0.020382315 0.86916912 -0.27360576 0.41192824 0.21020578
-0.042259105 0.052601546 0.020239022 0.23415561 -0.59384257 0.76975459 0.1739586
-0.0075412081 0.05257326 0.020501535 0.56727785 0.11346199 0.81567287 0.22088686
-0.0063315602 0.052692778 0.02037506 0.30769756 0.11325391 0.94471997 0.23361942
-0.0038000008 0.052129731 0.020967755 -0.11175095 0.030950656 0.99325413 0.18720569
-0.041350666 0.053158134 0.02033242 0.27821875 0.50029397 0.81993908 0.176983
-0.0082562957 0.053497341 0.020460414 -0.58755893 -0.70540184 0.3964628 0.27331117
-0.0073719583 0.053293001 0.020320235 0.76950628 0.4989782 -0.39859849 0.18225379
-0.0053409766 0.053939134 0.020735627 0.78872997 0.5394513 -0.29478359 0.17409302
-0.003786755 0.053511649 0.020600088 0.98904175 0.092487127 0.11507636 0.21483591
-0.042247016 0.054497723 0.020397767 0.11433469 -0.13341282 0.98444331 0.28836858
-0.040192343 0.054491866 0.02044183 0.65904927 -0.46546873 0.5907563 0.22576195
-0.0075431131 0.054589633 0.020445084 0.86737478 0.034939807 0.49642742 0.20002563
-0.0035354525 0.054543663 0.020740798 -0.23211543 -0.20126131 0.95163876 0.25534508
-0.00039448449 0.05460415 0.020812705 0.073586002 -0.79416811 0.60322654 0.17065984
-0.042224564 0.055658251 0.020489275 0.59728074 -0.090404719 0.79692078 0.19653875
-0.040285759 0.055549175 0.020559518 0.49273738 0.22736025 0.83995062 0.26747131
-0.0081059784 0.055350345 0.020316388 0.89258587 0.18707465 -0.41023606 0.22587575
-0.0073732473 0.055583052 0.020505507 0.79484153 -0.068696156 0.60291612 0.21112569
-0.0052901721 0.055833913 0.02038474 0.49395379 -0.28329715 0.82204157 0.27341837
-0.0031954171 0.055752765 0.020572217 0.48919681 -0.098993488 0.86653727 0.20076728
-0.0026619777 0.055632979 0.020399073 0.50263321 -0.12110473 0.85597521 0.17982768
-0.044422202 0.056905009 0.020632088 0.97870219 0.19570394 -0.06198388 0.18989624
-0.042269997 0.056524973 0.020501805 -0.13769984 0.36302403 0.9215489 0.20263186
-0.0024210333 0.05651423 0.020222774 0.43493879 -0.12641914 0.8915416 0.20031296
-0.039627757 0.057433795 0.020207724 0.97139746 0.096577577 0.21693265 0.1717328
-0.038634349 0.057450492 0.020743847 -0.38633865 -0.90027052 -0.20063755 0.21970794
-0.0025926309 0.057133354 0.020273058 0.58668143 -0.37257555 0.7190218 0.17202623
-0.044574067 0.058390301 0.020706231 0.8979457 0.42296484 0.12163194 0.18874256
-0.043651517 0.05851781 0.020577595 0.19480117 -0.38102284 0.9038108 0.22476384
-0.037467271 0.058348969 0.020576462 0.82251805 -0.33443496 -0.46001884 0.1767801
-0.036377214 0.05853346 0.02055278 0.68083674 0.6688714 -0.29845026 0.23440781
-0.036397118 0.05973272 0.020811543 -0.041152075 -0.22415189 0.97368503 0.21919587
-0.035827607 0.059517413 0.020886887 0.90031242 0.20282325 0.38509768 0.21456632
-0.044596642 0.060099628 0.020905279 0.9101997 -0.040018961 0.41223174 0.22511712
-0.037018195 0.060443416 0.020910604 0.85929406 0.043886781 0.50959575 0.19515949
-0.036793835 0.060390003 0.02057375 0.85929632 0.043886747 0.5095917 0.19516018
-0.035655942 0.060443785 0.020626673 0.88964921 0.34907499 -0.29439932 0.20427229
-0.013044223 0.061923437 0.020486338 -0.40090674 -0.84601772 0.35146528 0.22419184
-0.011699484 0.061727941 0.020808777 0.88808608 -0.41402394 0.19971777 0.20578894
-0.036151189 0.062551104 0.020523416 0.1826898 -0.034858845 0.98255241 0.1726293
-0.034737449 0.062250771 0.020673173 0.69406521 0.34208339 0.63344491 0.21311617
-0.013407208 0.063870758 0.020802056 -0.38569286 -0.1830359 0.90428919 0.29991645
-0.034438115 0.064446338 0.020362286 -0.30030093 -0.72495908 0.61988193 0.20048046
-0.013308791 0.06423863 0.020397488 0.017614778 -0.23412167 0.97204775 0.25844112
-0.012528697 0.064420745 0.020374175 0.47047976 -0.35893118 0.80611247 0.26377475
-0.035194013 0.065714315 0.020190205 0.57102865 0.38749552 0.72372204 0.20669413
-0.034447275 0.0655642 0.020627445 0.76960874 -0.25489634 0.58543158 0.1721916
-0.014217746 0.065678842 0.02080119 -0.29175684 -0.34467649 0.89223093 0.18114865
-0.013429837 0.065568224 0.02050519 0.92412144 0.37438715 -0.076379381 0.25396499
-0.012618314 0.065804645 0.020353789 0.03563384 -0.20311242 0.9785068 0.18011977
-0.033445116 0.06637416 0.020541379 -0.32434714 -0.64302915 0.69376689 0.19950539
-0.014414917 0.066369414 0.020716414 -0.58400542 -0.20480467 0.78548878 0.17562297
-0.013540437 0.066475086 0.020479869 0.11925505 0.18520476 0.97543705 0.21579209
-0.012681874 0.06608893 0.020404961 -0.6860795 0.18603286 0.7033397 0.25629145
-0.034604367 0.06753879 0.020774592 0.013224025 -0.54751045 0.8366943 0.20336306
-0.033453505 0.067582265 0.020566359 0.99992055 0.0044657458 -0.011783645 0.23136851
-0.032482609 0.067721851 0.020870402 0.26754519 -0.13219774 0.95443356 0.25142395
-0.031926841 0.067767747 0.020775069 -0.56673831 -0.68004841 -0.46512565 0.23942322
-0.014454786 0.067440167 0.020389773 0.80387348 0.27965346 0.52495837 0.2332807
-0.013569251 0.067244954 0.020725328 0.93441796 -0.035483334 -0.35440671 0.20151843
-0.033513267 0.068478495 0.020580806 0.10502874 0.060069695 0.99265337 0.19442512
-0.032584403 0.068606794 0.020539192 0.99316454 0.1150113 -0.019913288 0.17992647
-0.03331418 0.069252886 0.02068145 -0.35111931 -0.39895672 0.8470825 0.18728787
-0.032387123 0.069482468 0.020304019 0.39635375 -0.07059902 0.91537946 0.1716153
-0.028504733 0.08981891 0.020133361 0.97583145 0.20417377 0.077885337 0.20834322
-0.03046665 0.092775568 0.020461651 0.99904817 -0.040778909 0.015482756 0.23182745
-0.029742431 0.092789091 0.020554842 0.95476353 -0.25323513 -0.15588033 0.16996336
-0.01737278 0.094784327 0.020129099 0.801902 0.5403139 -0.25497842 0.20847555
-0.031666748 0.095724508 0.020872286 0.88859987 0.25639713 0.38032988 0.2174007
-0.017550416 0.095452018 0.020574247 0.18562751 -0.12374385 0.97479737 0.19919068
-0.017376529 0.096429363 0.02025111 0.88974327 0.33202744 -0.31323263 0.30909374
-0.030441277 0.097637802 0.020383356 0.91823226 0.2142702 -0.33307335 0.17041527
-0.017584244 0.097345062 0.020545319 0.84784001 -0.34407502 0.4034597 0.28803998
-0.031328086 0.099044517 0.020476894 -0.33577427 -0.49099472 0.80385309 0.19702524
-0.030610528 0.099312507 0.020452743 -0.44981584 -0.51193655 0.73183781 0.21745631
-0.033451442 0.017661121 0.021628743 0.45672721 -0.61066753 0.64690447 0.20878066
-0.015656158 0.017833635 0.021809757 -0.25882506 -0.69930446 0.66632044 0.1785609
-0.013439392 0.017748827 0.021619685 -0.33488402 -0.84193408 0.42308363 0.18660814
-0.032273643 0.019487806 0.021758277 0.63098472 -0.25465852 0.73280782 0.18639232
-0.018515982 0.019598776 0.021728022 0.77666056 -0.5124799 0.36628228 0.1814498
-0.034588765 0.020435132 0.021624118 0.51460052 -0.5179522 0.68330938 0.24233457
-0.029437024 0.02062447 0.021534272 0.79542333 0.56076342 0.22988302 0.17729878
-0.02010533 0.020675849 0.021985278 -0.39108568 -0.65439618 0.64716113 0.18606317
-0.038148418 0.021408601 0.021785535 -0.30143335 0.09121307 0.94911438 0.20455113
-0.028780006 0.021452345 0.021525722 0.28792742 0.57760197 0.76385462 0.18319906
-0.012213993 0.021566648 0.021354549 0.76552993 0.60660428 0.21446489 0.21330617
-0.0096160593 0.021819305 0.021642439 0.71356648 0.69091827 0.11599485 0.23042798
-0.037362415 0.022484044 0.021545479 0.49849251 0.44966364 0.741153 0.33198044
-0.0366656 0.02256768 0.0213755 0.0099639026 -0.06942866 0.9975372 0.2003431
-0.030338829 0.022466324 0.021385049 -0.54664505 -0.59273863 -0.5914728 0.18933748
-0.010553728 0.022473576 0.021690562 0.99097115 0.039387558 0.1281592 0.26349896
-0.009702039 0.022519382 0.021651277 0.99818718 -0.023873843 -0.055248518 0.27586704
-0.036424696 0.023501771 0.021392062 -0.19957131 -0.84460264 -0.49680761 0.19563782
-0.035933722 0.023813771 0.021194968 -0.30888149 -0.94535142 -0.10441737 0.23824158
-0.019541867 0.023833066 0.021455416 0.79396182 -0.56756747 0.21792604 0.21145576
-0.018587219 0.023785049 0.021374032 0.82323337 0.37544125 0.42582953 0.21367279
-0.017233551 0.02354113 0.021030888 0.14248638 -0.57610625 0.80485976 0.18407421
-0.012365134 0.023781849 0.02133723 -0.162452 -0.76055259 0.62862474 0.18471473
-0.010586672 0.02370137 0.021656524 0.76457053 0.18745437 -0.61667871 0.23176768
-0.0097167157 0.023618817 0.021507248 0.74013656 -0.2751168 0.613603 0.19444874
-0.037577856 0.02468268 0.021324664 0.3428871 -0.72358978 0.59903771 0.18668921
-0.036495332 0.024469571 0.021322986 0.21604979 0.033767037 0.97579825 0.28054678
-0.030363182 0.024570031 0.021114213 -0.50739175 -0.82609206 0.24520488 0.21972355
-0.029510219 0.024304153 0.021508705 0.05670508 -0.65070939 0.75720656 0.19537029
-0.020341603 0.024459332 0.021433866 0.74919069 0.66235423 -0.00034273253 0.23713937
-0.018239498 0.0242978 0.021403126 0.90077478 0.10285594 -0.42193058 0.20898521
-0.037397936 0.025517395 0.021392416 0.91453934 0.27171943 0.29964378 0.24323067
-0.02033677 0.025408352 0.021578267 0.97160667 -0.1510506 0.18211047 0.30414668
-0.011674623 0.025438135 0.02137058 -0.13928184 -0.90569037 0.40040672 0.22959673
-0.010452829 0.025424721 0.021277957 -0.67873931 -0.72284514 0.12964498 0.18926123
-0.0095877871 0.025829781 0.021415759 0.90715641 0.38188133 0.17673095 0.19165543
-0.037631329 0.02674116 0.021400211 0.5507859 0.23905191 0.79968065 0.26912767
-0.022210566 0.026744129 0.021622643 0.57463616 -0.62459558 0.52884185 0.24137881
-0.021103237 0.026443662 0.021095607 0.85739183 0.48240995 -0.17933159 0.24988668
-0.020756792 0.026559711 0.021445647 0.33563086 -0.070250623 0.93937039 0.27772254
-0.0088523217 0.026588593 0.021497579 0.99679542 -0.053388637 0.059569396 0.18561488
-0.037582383 0.027691847 0.021461789 0.96574259 -0.19245014 -0.17408115 0.18543231
-0.027330253 0.0273386 0.021362098 0.68618512 -0.32546136 0.65055728 0.19282013
-0.021463901 0.027646368 0.02169176 0.73295504 0.43022281 0.52695841 0.35478491
-0.0086687924 0.027625682 0.021748343 0.30070245 -0.7149502 0.63120848 0.17869012
-0.011176557 0.028587749 0.021082915 0.17828541 -0.94964141 0.25767341 0.17546163
-0.0094042197 0.028554674 0.021591678 0.86957347 0.26772708 -0.41492662 0.21244664
-0.038838588 0.02929193 0.021539191 0.80105257 -0.48421675 0.35192177 0.24180931
-0.010096479 0.029649591 0.021358563 0.07674671 -0.50201249 0.86144841 0.2048426
-0.0096297711 0.029730812 0.021723328 0.71353853 0.016064018 -0.70043182 0.21550432
-0.02322774 0.030663097 0.021634549 0.52887446 -0.0014528329 0.84869874 0.24005367
-0.037063725 0.031103302 0.021152105 0.9664281 0.0085534193 0.25679493 0.24192697
-0.0379164 0.032661952 0.021331502 -0.016309144 -0.87838739 -0.47767106 0.18194987
0.0086561916 0.034579806 0.021931231 0.92674494 0.36633605 -0.083317153 0.19543149
0.014929075 0.035675555 0.021954294 0.97220767 -0.029073006 0.23230819 0.22239199
-0.058514353 0.03635424 0.021605166 0.78596878 0.39485988 0.47575065 0.17422569
-0.05663199 0.036744624 0.021850223 0.72902256 0.68445122 -0.0072492356 0.18788533
-0.0095109008 0.036672264 0.021315075 0.9251039 -0.21946226 -0.30986965 0.19197062
-0.061480835 0.037432387 0.021589609 0.27325413 -0.197174 0.94151717 0.21151936
0.013855637 0.037127972 0.021426635 0.76360464 0.35180438 -0.54142553 0.2200419
0.0064170454 0.038131382 0.021622892 0.56565487 -0.41056487 0.71517205 0.17237329
-0.062508047 0.039383166 0.021370267 0.32603955 0.29632863 0.89771235 0.26160729
-0.061743308 0.039680153 0.021223636 -0.21313593 -0.66666275 0.7142365 0.17558488
-0.060814053 0.039037954 0.021254459 -0.36663204 -0.67315066 -0.64222205 0.32267296
-0.0082882307 0.039226644 0.021542879 -0.55535012 -0.81833673 0.14802454 0.20444298
