# .PCD v0.7 - Point Cloud Data file format
VERSION 0.7
FIELDS x y z normal_x normal_y normal_z curvature
SIZE 4 4 4 4 4 4 4
TYPE F F F F F F F
COUNT 1 1 1 1 1 1 1
WIDTH 572
HEIGHT 1
VIEWPOINT 0 0 0 1 0 0 0
POINTS 572
DATA ascii
-0.01647649 0.022557663 0.036488481 0.75833774 0.56494725 0.32520536 0.11854903
-0.012310838 0.022463135 0.036334939 0.79794496 0.48211724 -0.36172763 0.089626007
-0.011681607 0.022600096 0.036569566 0.74204803 0.25291401 -0.62080532 0.051713455
-0.010391372 0.022538766 0.036179513 0.8119657 0.4196693 -0.40569595 0.070388988
-0.032887667 0.023703128 0.036291927 0.79600048 -0.15478909 0.58516979 0.105133
-0.028808124 0.023098497 0.036221486 0.043789424 -0.83059859 0.55514729 0.077449389
-0.018223349 0.023507856 0.036386769 -0.5145362 -0.8407976 -0.16826147 0.12710243
-0.016334224 0.02358656 0.036639757 0.57489228 -0.75691205 0.31077811 0.11866175
-0.012610914 0.023423187 0.036661666 0.87473845 -0.15082052 -0.46052769 0.087460756
-0.030445877 0.024930999 0.036170926 0.81114793 -0.57901382 -0.082353294 0.094890177
-0.014335413 0.02433956 0.036576055 0.87435699 -0.37702066 0.30554107 0.10855636
-0.013769834 0.024690732 0.036730558 -0.4265908 -0.71498674 0.55390829 0.16633897
-0.03531003 0.025762895 0.036174595 0.90385497 0.19283769 0.38191605 0.037599206
-0.035339706 0.026421567 0.036327023 0.23826222 -0.9499765 0.20193014 0.049727198
-0.034483619 0.026639365 0.036334787 0.31698036 -0.73732507 0.59655279 0.12831889
-0.031453118 0.026315115 0.036385875 0.81658894 0.57097077 0.084704086 0.11893551
-0.014602743 0.026286453 0.03617882 -0.65387005 -0.73496222 0.17967902 0.1218152
-0.031360842 0.027645655 0.036339037 0.67606562 0.36405459 0.64062434 0.10043605
-0.015264649 0.027040953 0.036192618 0.88323981 0.46562475 -0.055506963 0.086661518
-0.013747272 0.027745044 0.036013898 -0.26070416 -0.89774925 0.35507706 0.1145422
-0.03129787 0.029552113 0.036180869 -0.312062 -0.84654069 0.43126106 0.084694862
-0.033999 0.030429594 0.036033705 0.99630243 0.027469246 0.081406407 0.096196473
0.0034511704 0.038505852 0.036327489 0.79527152 -0.33444226 -0.50565958 0.1248392
0.0016408116 0.039767027 0.036431961 0.63015461 -0.75354648 -0.18727748 0.1183392
0.0044912235 0.039683476 0.036482934 0.76524681 0.60841858 0.21029548 0.081476554
0.0073267072 0.039840192 0.036536597 0.19840293 -0.93150783 -0.30484346 0.058512144
-0.059487902 0.040588468 0.036348835 0.52360493 0.42823035 0.73651659 0.11546583
0.0093836691 0.040494956 0.036578685 0.80658108 0.58629745 -0.075380228 0.098292157
0.01159694 0.040510289 0.036610402 0.95738614 -0.26407084 -0.11695437 0.095507488
-0.053329997 0.041258812 0.036555551 0.14730632 -0.17190522 0.97403777 0.15415972
0.0065336288 0.041371502 0.036512341 0.85052776 -0.50549877 0.14516711 0.10984939
0.0092608482 0.041719511 0.036456566 0.0079271374 -0.92438835 0.38137037 0.076468781
0.012399505 0.041770425 0.036813643 0.79930955 -0.13039503 -0.58660161 0.11351165
0.013312167 0.041601073 0.036165379 0.3299025 -0.72828627 -0.60063589 0.066829517
-0.058381312 0.042239197 0.036419246 -0.0060802642 -0.87128818 -0.49073413 0.059467793
0.00071286532 0.042695671 0.036082361 -0.032210711 -0.97699976 0.21079329 0.12043004
0.0066047963 0.042699575 0.036519218 0.41049424 -0.85707045 0.31132746 0.073682837
0.012176455 0.042501654 0.036675047 0.37136739 -0.92661238 0.058955915 0.098014399
-0.058539964 0.043396652 0.03638586 0.31793222 -0.64088678 0.6987012 0.15607113
-0.052595265 0.043550458 0.03662201 0.70980376 0.62059593 0.33322564 0.12453456
0.0025425723 0.043576155 0.036858793 0.7220965 0.12607946 0.6802063 0.16929632
0.007395722 0.043396581 0.036384013 -0.087694936 -0.77486652 0.62601233 0.078539565
0.0094200829 0.043596581 0.036358789 0.91537237 -0.2409064 0.3225795 0.10233539
-0.051614542 0.044780981 0.036597311 -0.37564468 -0.77266192 0.51174664 0.12088574
0.00089280278 0.044360045 0.036704142 0.3110241 -0.50747263 0.80357671 0.1044572
0.0047901762 0.04540357 0.036748804 0.29752919 -0.18056408 0.93748224 0.13802752
-0.054570202 0.046596367 0.036593542 0.92951947 -0.11774862 0.34946945 0.078917369
-0.050553534 0.046722688 0.036177255 -0.37693271 -0.83515114 0.4005549 0.15220836
0.0033330431 0.046512615 0.036496483 0.46697271 -0.87252742 0.14363958 0.11746716
-0.053613178 0.047588669 0.036609288 0.65205461 0.50501114 0.56549853 0.13450973
-0.023295725 0.048104733 0.03626043 0.99156326 0.12413189 0.037331518 0.050698638
-0.053235337 0.049273293 0.036053341 0.99147135 0.13001181 -0.0090287589 0.090185583
-0.025920557 0.050508421 0.036003277 -0.33867306 -0.94014829 -0.037706617 0.061548039
-0.021187924 0.050276749 0.036030523 -0.36517513 -0.89906597 0.2415107 0.12284869
-0.017419122 -0.0042873169 0.037349071 -0.66323596 0.29808831 0.68648487 0.014712645
-0.011482059 -0.0042450074 0.037621595 -0.33869845 0.39029011 0.85612911 0.054525312
-0.038286764 -0.0034439489 0.037285555 0.93003839 0.34340683 -0.1307684 0.036058694
-0.036522787 -0.0034474966 0.037428305 0.79841542 0.56677634 0.2032176 0.081200711
-0.03341255 -0.0033732003 0.037314348 -0.40377864 0.29400665 0.86632729 0.010760984
-0.03241282 -0.0032553729 0.037512135 0.88425064 0.33679602 0.3235262 0.011320246
-0.03149645 -0.0033455358 0.03733331 -0.27907851 0.52518576 0.8039248 0.026818454
-0.028534366 -0.0031327079 0.037331291 0.70046097 -0.45983553 -0.54580748 0.082595244
-0.010633958 -0.0035759173 0.037478425 0.77564019 0.58948046 0.22559983 0.029041726
-0.0076819034 -0.0035264485 0.037405316 0.82883728 0.29514229 -0.47531024 0.051519655
-0.042494986 -0.0025584102 0.037015483 0.75340772 -0.65100712 0.092555471 0.10059763
-0.039667625 -0.0024904849 0.037566707 0.91672033 0.018208286 0.39911434 0.039540179
-0.036526442 -0.0025080869 0.037675995 -0.47727102 -0.78827673 -0.38837114 0.10092004
-0.020678902 -0.0026846095 0.037676014 0.78378236 -0.40010267 0.47497687 0.032372981
-0.0116618 -0.0028190101 0.037687119 -0.2300698 0.41592062 0.87981701 0.062012408
-0.010311777 -0.0026619043 0.037622653 0.34111333 0.49429217 0.79957294 0.075641558
-0.038821191 -0.0017217696 0.037753474 0.53667212 -0.60735601 -0.58574885 0.04509028
-0.026715711 -0.0014705166 0.037528064 -0.40539777 -0.48706645 0.77357543 0.075628899
-0.021744626 -0.001314912 0.037542157 0.11258937 -0.98977447 -0.087579839 0.049761783
-0.0065646786 -0.00149536 0.037663065 -0.06046737 0.5653463 0.82263434 0.092744119
-0.04422335 -0.0005060173 0.037603389 0.57752013 -0.36884299 0.72830302 0.15562934
-0.026427031 -0.00049297791 0.03741188 0.92056286 -0.35727295 -0.1578612 0.14467083
-0.044463404 0.0005461601 0.037404105 0.059364103 -0.98745722 -0.14630167 0.12975876
-0.0054647345 0.00026600569 0.037516236 0.61371303 0.27721375 0.73926228 0.10801996
-0.0044079199 0.0006609566 0.037546884 0.46021661 -0.60429126 0.6504097 0.1407181
-0.023015367 0.0024231104 0.037347812 0.1102515 0.43348914 0.89438897 0.026459238
-0.022612575 0.0037086781 0.037723575 0.33249909 0.57476181 0.74772531 0.073205806
-0.0035332919 0.0035239614 0.037661292 0.84004998 -0.35446289 -0.4106971 0.13507833
-0.045327287 0.0042684791 0.037565533 0.90171498 0.42113614 0.097746864 0.089903221
-0.021565758 0.0047564264 0.037804607 0.91737181 0.35504794 0.17991634 0.070785835
-0.021445557 0.0052422564 0.037639055 0.43373242 0.59470618 0.67690521 0.099347457
-0.020878028 0.005637357 0.037961453 0.70870441 0.44154379 0.55025184 0.14650214
-0.045093831 0.0060100183 0.037439525 -0.28495723 -0.90737802 0.30897343 0.14450276
-0.022498515 0.007915373 0.037375815 0.39624199 -0.91794705 0.019118406 0.099016309
-0.021529397 0.0077019022 0.037598111 0.67574996 -0.60075438 -0.42714897 0.071637422
-0.022757476 0.0082765007 0.037464608 -0.026681462 -0.99404234 0.10567831 0.13834831
-0.041911978 0.0093704835 0.037233904 -0.41010511 -0.75001532 -0.5189324 0.15738016
-0.043258566 0.010390164 0.037696525 -0.25909373 -0.94684517 -0.19066878 0.12180099
-0.042308733 0.011871811 0.037300855 -0.36313462 -0.74545038 0.55896062 0.099035539
-0.022311538 0.011601404 0.037665002 0.31790456 -0.56080264 0.76448488 0.075481415
-0.021599278 0.011413999 0.037497893 0.73211014 -0.6781857 -0.063865773 0.087110572
-0.02161948 0.012430606 0.037528947 0.3686859 0.44723132 0.81489563 0.14777364
-0.0053390972 0.012706167 0.037640229 -0.25541341 -0.089011349 0.96272588 0.092635289
-0.040342126 0.013469033 0.037622862 0.71798187 0.24127184 0.65290892 0.14461818
-0.028240856 0.013674767 0.037672482 -0.29300171 -0.93177289 0.2143579 0.073540233
-0.0074326475 0.013706523 0.037532866 0.73695815 -0.19368427 0.64759487 0.11887275
-0.0058979886 0.01371572 0.037089825 0.44273096 -0.6449163 0.62295443 0.07146702
-0.041086137 0.014108725 0.037007459 0.57504612 0.48356062 0.65991741 0.096277088
-0.040201683 0.014454673 0.03785082 0.76275724 0.59702259 0.24852629 0.099360391
-0.028584659 0.014646363 0.037448179 -0.21313973 0.09287104 0.97259778 0.10640758
-0.0074618054 0.014509999 0.037713557 0.48082381 -0.27027452 0.83412236 0.084247157
-0.030613709 0.015847797 0.037793126 0.96987313 -0.17656499 -0.16784173 0.074281812
-0.029496739 0.015713083 0.037842982 0.93543917 -0.06956847 0.34657419 0.071370408
-0.036762606 0.016551038 0.037552539 -0.12940267 -0.97714132 0.16867065 0.15580049
-0.027825594 0.016981728 0.037281722 0.020284621 -0.99529451 0.094748408 0.1283493
-0.011643566 0.016177643 0.037892029 0.47296959 -0.64239204 0.60301924 0.16861081
-0.037471466 0.017320838 0.037636865 0.85851485 0.4865568 -0.16190977 0.13051757
-0.011226832 0.017918218 0.037283406 0.50422937 -0.85136509 -0.14467292 0.11757457
-0.038251527 0.018213198 0.037290253 0.87573314 -0.059144877 0.47915909 0.12536627
-0.036488239 0.018636698 0.037576173 -0.57984644 -0.12968542 0.80433816 0.11695781
-0.020345502 0.018309843 0.037349861 0.46273917 0.23270096 0.85540795 0.078996204
-0.010401198 0.018600117 0.03750325 0.87296736 -0.28959328 0.39250943 0.095554471
-0.0084927436 0.018342106 0.03701622 0.82473516 -0.35514355 -0.44009665 0.12503697
-0.03752853 0.019271288 0.037341226 0.17337435 -0.94877076 0.26415017 0.12483452
-0.032452744 0.019454949 0.037547056 0.25749192 -0.96617162 -0.014500683 0.12234201
-0.029630441 0.019289225 0.037524879 0.85194242 -0.52114415 0.051018205 0.11868244
-0.018248867 0.019502096 0.037692182 -0.56317776 -0.81956846 -0.10553886 0.11648429
-0.01457678 0.019460317 0.037679292 0.58970106 -0.80730671 -0.02255022 0.1095736
-0.010473846 0.019360729 0.0373068 0.60082549 -0.58339185 0.5465005 0.080080226
-0.034290057 0.020371938 0.037472397 -0.057728313 -0.95433718 0.29310066 0.096796915
-0.032250799 0.020522773 0.037354037 -0.44529936 -0.85722357 0.2586045 0.08842022
-0.014323838 0.020296322 0.037557192 0.45245734 -0.82272673 -0.34409741 0.078292057
-0.012259779 0.020349594 0.037343666 0.26811695 -0.83963501 0.47236261 0.13107112
-0.030344352 0.021606838 0.037518818 0.94125223 -0.025891943 -0.33671051 0.08317443
-0.017871365 0.021129377 0.037283342 0.64997101 -0.60021532 0.46613234 0.099877022
-0.011172106 0.021701034 0.037153251 0.60943198 -0.77339244 -0.174519 0.086273551
-0.033294458 0.022509355 0.037340567 0.81770217 -0.39432707 0.41936779 0.15994972
-0.032544453 0.022321314 0.037691064 0.99598902 -0.048983019 0.074876651 0.10614169
-0.017156858 0.022247758 0.037240587 -0.033384182 -0.94444758 0.32696199 0.1515108
-0.014363398 0.022644343 0.037327778 0.93663716 0.21018744 -0.2802358 0.086006269
-0.035203494 0.023644675 0.037098609 0.71906191 0.69393802 -0.037416175 0.084846511
-0.034782462 0.023274418 0.037375331 0.95932132 0.21232019 0.18607168 0.11219135
-0.013387751 0.023027565 0.037127182 0.91370028 0.3894192 -0.11620854 0.11638927
-0.032628912 0.025257716 0.037236195 0.7676813 0.6405502 0.018997356 0.10960022
0.010619998 0.041411966 0.037770636 0.095176809 -0.99213231 0.081331976 0.087838978
0.012242377 0.041361935 0.037219018 -0.66070974 -0.66858262 0.34126246 0.12129311
-0.059126329 0.04276216 0.037112031 0.60595995 -0.79309875 -0.061700039 0.1130254
-0.053608224 0.043713789 0.037384585 0.3101337 0.63769197 0.70510006 0.14055678
0.0053851218 0.043627482 0.037400831 -0.23718193 -0.92155266 0.30738479 0.099999733
-0.052773524 0.044584848 0.037119418 -0.39863956 -0.75328088 0.52311987 0.16099939
0.0026761249 0.044370882 0.037522115 -0.20172679 -0.97907668 -0.026744256 0.10214494
-0.051637072 0.045513079 0.037279535 0.78272343 0.61822909 -0.071671031 0.165621
0.0028704545 0.045545332 0.037436515 0.79546809 0.52145821 0.30872613 0.11780883
-0.055066839 0.046273127 0.037131984 0.59547067 0.0034452614 0.80336958 0.14217272
-0.054387331 0.046444912 0.037378486 0.86504161 -0.26459947 0.4262512 0.1220763
-0.054115407 0.047934745 0.037009295 0.67462969 0.16107002 0.7203688 0.10360383
-0.018231712 -0.0031508692 0.038472317 -0.48564622 0.062415693 0.87192434 0.033415169
-0.01587531 -0.0032947892 0.038460881 0.061204635 0.28987142 0.95510656 0.014299801
-0.03869028 -0.0023012829 0.038273681 0.89888048 -0.31417373 -0.30546477 0.061034553
-0.034569722 -0.0025364039 0.038356286 0.78425395 -0.46956366 -0.40553153 0.034731131
-0.018625913 -0.0025472045 0.038599648 0.83612621 -0.32961702 -0.43845829 0.065669641
-0.014361195 -0.0026328827 0.038618751 0.48892409 0.35063806 0.79875284 0.046817031
-0.013512859 -0.0024526087 0.038658135 0.45785904 0.48838344 0.74286383 0.032689776
-0.01160027 -0.0026057127 0.038444169 0.18689564 0.36135036 0.9135074 0.078164406
-0.0094876867 -0.0026085665 0.038431801 0.37019902 0.4335143 0.82159483 0.051113181
-0.042411733 -0.0012107503 0.038782876 0.31525409 0.097551003 0.94398028 0.091555536
-0.038436532 -0.0013515997 0.03862055 0.95055556 -0.29930544 0.082827732 0.076547235
-0.035504062 -0.0016288204 0.038594645 0.67242122 -0.68611628 -0.27765831 0.099683076
-0.033510331 -0.001608938 0.038812749 0.31137162 -0.90659261 -0.28484654 0.095762186
-0.029379835 -0.001876335 0.038504303 0.59288615 0.24443179 0.76729339 0.021081563
-0.028497132 -0.0015213802 0.038565293 0.58322322 0.31289691 0.74963069 0.041175481
-0.011210561 -0.0015855432 0.038741097 -0.068478324 0.64871192 0.75794709 0.095266029
-0.028189063 -0.00037515908 0.038944803 0.94101411 -0.16313113 -0.29644671 0.16439083
-0.021762228 -0.00053916808 0.038495522 0.34237593 -0.61387098 0.71129537 0.037224054
-0.0045337691 -0.00022758637 0.038366605 0.63405967 0.50107545 0.58897513 0.049686283
-0.021552745 0.00066004915 0.038456164 0.18634242 -0.78590858 -0.58959663 0.022193849
-0.00360719 0.0015013588 0.038733047 0.011162912 -0.88987905 0.45606005 0.062577538
-0.021050729 0.0028808899 0.038808286 -0.43811965 -0.64954758 -0.62140101 0.15038683
-0.045392282 0.0035700537 0.038386069 0.18473221 -0.96185094 -0.20178376 0.14830031
-0.044902407 0.0037177131 0.038382076 0.55072206 -0.80989414 0.20193233 0.11197948
-0.027695268 0.0074373125 0.038604565 0.70289809 -0.32604358 -0.63216281 0.066029996
-0.028243445 0.0096329432 0.038537428 -0.10189176 -0.8330977 0.5436601 0.031822532
-0.0052154302 0.009532758 0.038448531 -0.51264447 0.46032545 0.72477317 0.13411063
-0.0033269483 0.0094105266 0.03855779 0.32081005 -0.79438496 0.51578438 0.11248304
-0.022156008 0.010329089 0.038314741 0.079046197 -0.99146318 -0.10369401 0.089721479
-0.0060580298 0.010649633 0.038848963 0.65172046 -0.36047614 0.66732109 0.09512493
-0.027753109 0.011666387 0.038383257 -0.32113737 0.54030246 0.77778143 0.058963306
-0.021399587 0.011662366 0.038551606 0.64211261 -0.35360241 0.68018878 0.11397209
-0.041502926 0.012662421 0.038379442 0.82370603 0.43101931 0.36841661 0.1637935
-0.039482009 0.012737449 0.03853137 0.87316716 0.21532334 0.43728131 0.15607651
-0.019696362 0.012909655 0.038505822 0.81185406 0.50732911 0.28898111 0.14439568
-0.039374717 0.013786924 0.038391441 -0.59785205 -0.63159931 0.49361452 0.15363839
-0.019428382 0.013596627 0.038633272 0.67549491 -0.69674766 -0.24134907 0.11353389
-0.0057836506 0.01308053 0.038215891 -0.38320327 0.085200667 0.91972607 0.085081525
-0.028580815 0.014514993 0.03837689 -0.37616831 -0.33271292 0.86475408 0.065437302
-0.027763449 0.014351162 0.038154107 0.34075072 -0.93487304 -0.099505469 0.053081267
-0.018385738 0.014393044 0.038481936 0.6362648 -0.50161141 0.58613402 0.15969178
-0.020187549 0.015612833 0.038615085 0.7405262 0.386381 0.54984617 0.078133643
-0.0077185398 0.015474291 0.038294069 0.28294471 -0.83649182 0.46928021 0.15703005
-0.037121467 0.016534116 0.038803264 -0.32801706 -0.89616179 0.29882926 0.11165248
-0.031570941 0.016430337 0.038729839 0.89238691 -0.25691578 0.37099847 0.13940574
-0.02031811 0.016449535 0.038212024 0.73831391 0.60966486 0.28844637 0.064244166
-0.014615456 0.016549194 0.038575426 -0.57244217 -0.81994087 0.0026339851 0.062286116
-0.013851948 0.016152661 0.038948864 0.22248957 -0.90177476 0.37054113 0.1192608
-0.01243956 0.016648646 0.038711667 0.13411896 0.19982103 0.97060996 0.060981698
-0.032399662 0.017479233 0.038515143 -0.20584041 -0.95115066 0.23009163 0.13278106
-0.031589273 0.017481662 0.038663816 0.81011671 -0.5356586 -0.23828736 0.067805246
-0.029553335 0.017365292 0.038302604 0.81663769 0.11917345 -0.56471282 0.062874407
-0.0097125396 0.017376356 0.038308747 0.96555203 0.13612193 -0.22176592 0.12046354
-0.035308514 0.018589236 0.038526051 -0.25855103 -0.84767991 0.46323878 0.16304812
-0.033534419 0.018492732 0.038400136 0.34947211 0.55319154 0.75620657 0.13004707
-0.031689394 0.018221954 0.03836216 -0.20501068 -0.72410232 0.65851837 0.11107828
-0.030752655 0.018561883 0.038543493 0.80976915 -0.57818347 -0.099889405 0.090977594
-0.013333832 0.018382601 0.038418528 0.016825249 -0.8344717 0.55079377 0.087090716
-0.012492749 0.018606571 0.038492195 0.035906028 -0.98779249 -0.15158084 0.051665369
-0.010776207 0.018568596 0.038095001 0.97026867 -0.06950666 -0.23183531 0.10250996
-0.009521232 0.018346429 0.038276788 0.86235291 0.21492098 -0.4584282 0.10861281
-0.035574518 0.019335201 0.038230542 -0.17979604 -0.98370385 -0.00025396992 0.064651206
-0.016446756 0.019203445 0.038524866 0.050721522 -0.90153879 0.42971528 0.12177858
-0.012389426 0.019554125 0.038285606 -0.45250431 -0.76637805 0.45596546 0.15795133
-0.034349911 0.020303993 0.038257536 0.94600159 0.045295142 0.32098183 0.099654794
-0.033542611 0.02015321 0.038518101 0.84591335 -0.14040537 0.51450646 0.080596536
-0.034020454 0.021123588 0.038183741 0.95138609 0.11858824 0.28425547 0.11553745
-0.015150949 0.021234833 0.038079128 0.98867691 -0.10069845 0.11125543 0.089033425
-0.012028573 0.02144444 0.038045809 0.80057591 -0.59662819 0.055793718 0.10251402
0.0037103845 0.040859293 0.038413815 0.71641892 0.60360104 0.34987092 0.15338124
0.0027184375 0.04127378 0.038147196 0.024021825 -0.84055585 -0.541192 0.098093793
0.0051732184 0.041746277 0.038040385 0.88010091 0.39858952 -0.25797048 0.15732267
0.0043277554 0.04438293 0.038498864 0.62970662 -0.76672828 0.12488871 0.07745719
-0.015808551 -0.0036017299 0.039228551 0.41275969 0.48553717 0.77063817 0.032502797
-0.013694132 -0.0030234503 0.039200824 -0.48262659 -0.63585222 -0.60229856 0.04421182
-0.04150847 -0.0020396113 0.039409727 0.94316763 -0.042451389 -0.32959488 0.055519149
-0.016611399 -0.0023504728 0.039302964 0.95631069 -0.2676746 0.11755916 0.035300378
-0.01357228 -0.0022489382 0.039508045 0.99217868 -0.083957888 0.092372052 0.058286238
-0.041317042 -0.0013743676 0.03947917 0.88198918 0.37964982 -0.27921513 0.037989371
-0.029219473 -0.0013583644 0.039761752 -0.45589229 -0.66323787 -0.59352982 0.062680654
-0.028752318 -0.0016224965 0.039550971 -0.43406752 -0.68212706 -0.58846253 0.068286374
-0.019396339 -0.0017048642 0.039386913 0.90002203 -0.41536981 -0.13201642 0.052312884
-0.018538091 -0.0018377062 0.039704271 0.98680574 0.16009456 0.024171809 0.07659594
-0.016485985 -0.0019318126 0.039522838 0.93483627 -0.32321656 -0.14701092 0.039260969
-0.011778485 -0.0017384067 0.03951 -0.34313753 0.17873441 0.92212296 0.050245132
-0.0066043329 -0.0014218319 0.039288629 0.69824588 0.39032969 -0.60007948 0.038097143
-0.043353587 -0.00070849148 0.039482601 0.86970967 -0.47820801 0.12215613 0.04591611
-0.035824452 -0.00058630313 0.039690986 0.22409253 0.65023917 0.72592819 0.10736416
-0.021410793 -0.00041415522 0.039435066 0.31245887 -0.94469577 0.099596038 0.09915968
-0.020528793 -5.5767596e-05 0.039411388 0.76892555 0.58021665 0.26851848 0.1476568
-0.010788948 -0.00095913792 0.039625648 -0.48372614 0.49634689 0.7208668 0.075090334
-0.0093478784 -0.00073021697 0.039347216 -0.25751472 0.50646973 0.8229062 0.091952927
-0.043659832 0.00011075288 0.039475638 0.7889992 -0.55109644 0.27161202 0.032599904
-0.0053144363 0.00042072902 0.039536513 -0.61611444 -0.76443195 0.18985987 0.068443134
-0.027287865 0.0015317338 0.039329603 -0.037238307 -0.66068476 0.74973923 0.078427315
-0.004327877 0.0010971057 0.039729316 0.72780538 0.57992637 0.36603925 0.046591975
-0.02735571 0.0025519822 0.03957966 0.062285148 -0.95874727 -0.27735204 0.092721835
-0.044471495 0.0036460804 0.039884754 -0.075597711 -0.81206119 0.57865506 0.1421469
-0.022391945 0.0032637178 0.039749797 0.18283029 0.40394643 0.89632607 0.12148553
-0.0026183459 0.0038020096 0.039451875 -0.50611341 -0.51997477 0.68809557 0.060544804
-0.022320271 0.0042773685 0.039456032 0.35552073 -0.67710704 -0.64430666 0.08585602
-0.0031502638 0.0049917884 0.039655782 0.23266657 -0.9715299 0.044676442 0.16025133
-0.045635745 0.0055610579 0.039407443 -0.24738128 0.46171218 0.85183597 0.12087958
-0.044896774 0.0054298975 0.039404642 0.94874072 0.092736505 -0.30214399 0.10420464
-0.043647695 0.0059679747 0.03919971 0.21377306 -0.94624466 -0.24273892 0.12903592
-0.045636784 0.006531328 0.039481919 -0.26130548 -0.64972025 0.7138508 0.088406533
-0.044582039 0.0066236868 0.039412968 0.79503351 -0.5714972 -0.2032553 0.12391602
-0.0033926032 0.0063372995 0.039488126 0.19618213 -0.9084574 0.36907676 0.16334596
-0.0017896969 0.0063041137 0.039633784 0.47096112 -0.84811318 0.2426925 0.12703602
-0.045496456 0.0074143759 0.03942392 0.72959858 0.63170719 -0.26197714 0.072087072
-0.046032272 0.0080971858 0.039959654 -0.091939121 0.62143457 0.77805287 0.10853374
-0.045221373 0.0086427387 0.039780103 0.084788471 0.69381708 0.71514255 0.1023494
-0.020522067 0.0083953468 0.039510895 0.55472451 -0.83149958 -0.029817928 0.15772665
-0.002267211 0.0081566889 0.039434243 -0.32728025 -0.88985306 -0.3178823 0.098627731
-0.04520838 0.0094006835 0.039552663 -0.44228753 -0.33102331 0.8335498 0.10261515
-0.021648109 0.0093802772 0.039480884 0.37466121 -0.61628056 0.69269562 0.046519142
-0.020950526 0.0094965287 0.039350335 0.86356002 -0.20314367 0.46151561 0.13137211
-0.0043406961 0.0097477455 0.039854962 0.67098415 -0.71238822 0.20562875 0.16454364
-0.0032887242 0.0094478773 0.039520107 -0.40453371 -0.79622316 0.44986796 0.1433464
-0.044063628 0.010592707 0.03979988 -0.54140222 -0.78762555 0.29415885 0.081386149
-0.0033333078 0.010688093 0.039306253 0.47752762 -0.85744113 -0.19173434 0.14751111
-0.042545449 0.011648433 0.039394539 0.92885792 0.3630048 0.073828697 0.05513243
-0.0037233783 0.01183424 0.039699834 0.75969005 -0.54877973 0.34887221 0.10754268
-0.028547995 0.012837181 0.039416641 -0.31497872 -0.77369839 0.54970825 0.10206795
-0.0072767353 0.012675331 0.039132535 0.55928564 -0.59446573 0.5777629 0.13279429
-0.03899198 0.013441855 0.039891623 -0.084539816 -0.77791798 0.62265301 0.14761358
-0.017721312 0.013418496 0.039515015 0.59035432 -0.046229057 0.80581921 0.12330486
-0.0076375701 0.013783109 0.039618671 0.14948131 -0.92196238 0.35726824 0.060146481
-0.040131271 0.014060125 0.039586306 -0.32117844 -0.22571521 0.91972667 0.073222421
-0.030347735 0.014362738 0.039662641 -0.31025648 -0.94909668 0.054372679 0.11889726
-0.019592609 0.014472154 0.039453741 0.63977343 -0.36405116 0.67687273 0.12686861
-0.017525742 0.014539984 0.039721165 0.90186 -0.42728999 0.063811168 0.096426509
-0.010794142 0.014880068 0.039624803 0.9946807 0.015992096 -0.10175752 0.11744359
-0.0082539571 0.014481629 0.039785739 0.67169708 -0.73504692 0.092352435 0.060638715
-0.031358592 0.015449884 0.039414339 0.90823311 -0.12786658 0.39845046 0.12117603
-0.018490015 0.01561178 0.039613668 0.65420419 -0.38625497 0.65024918 0.062878773
-0.017554231 0.015636077 0.039415207 0.039240882 -0.93159276 0.36137936 0.067453332
-0.01638864 0.01561978 0.039422709 -0.37317011 -0.8090409 -0.45408905 0.10131069
-0.012651721 0.015667651 0.039861448 0.32983106 -0.67381018 0.66120452 0.082902908
-0.036525965 0.016552612 0.039403465 -0.026781315 -0.85983723 0.50986546 0.12893917
-0.03156504 0.016197659 0.039600059 0.91264337 -0.2870709 -0.29098517 0.085149802
-0.029859088 0.016229391 0.039081626 0.81323349 -0.3030178 -0.49682146 0.090207353
-0.012459125 0.017185224 0.039358649 0.19120675 -0.49802515 0.84581965 0.12193642
-0.034440186 0.018571494 0.03903047 -0.16574377 -0.92143428 0.35140842 0.15422443
-0.016488444 -0.0022085384 0.040216736 0.97076023 -0.19094874 -0.14547549 0.036278028
-0.013473147 -0.0022240395 0.040377177 -0.55022806 0.52546239 0.64895177 0.070520379
-0.042573325 -0.0012325393 0.040280204 0.99855554 -0.052909855 -0.0093534831 0.042713854
-0.040094975 -0.001128572 0.040535234 -0.56261677 0.31275633 0.765275 0.040747933
-0.035733607 -0.0010867182 0.04065562 0.5476948 0.35802412 0.75620699 0.075053334
-0.013499478 -0.0014885616 0.04062501 0.32764876 -0.78979087 -0.51853311 0.080619611
-0.0085147042 -0.0013669527 0.040456604 -0.33538157 0.30104125 0.89268887 0.054395184
-0.044430893 -0.00023315271 0.040525734 0.72890532 -0.44169056 -0.52307409 0.051579438
-0.041329894 -0.00058950018 0.040650651 0.33565864 0.39214727 0.85647756 0.024602138
-0.039508771 -0.00051455508 0.040249277 0.4134827 0.065963484 0.9081195 0.023680225
-0.03852782 -0.00048130465 0.040749006 0.24244048 0.45617986 0.85622579 0.04635682
-0.037357189 -0.00048363564 0.040342487 0.14246413 0.12312958 0.98211163 0.066977829
-0.035362598 -0.00050469209 0.040508352 0.20024872 -0.015167101 0.97962767 0.10473076
-0.03322085 -0.00040207594 0.040510301 -0.20930055 -0.9319998 -0.29592177 0.08661709
-0.031306192 -0.00029914748 0.040460788 0.029907772 -0.78491896 -0.61887616 0.13317221
-0.013565011 -0.0007226374 0.04044259 -0.45725918 0.37349698 0.8071022 0.098405018
-0.011458239 -0.00054938305 0.040775232 0.15773803 -0.93130845 -0.32830361 0.047852062
-0.0065788082 -0.00033467219 0.04069462 0.034185972 -0.23727471 0.97084093 0.031435076
-0.0054059974 -0.00019972197 0.040516384 0.97329026 0.16257611 -0.16209579 0.05368514
-0.044480946 0.00047390474 0.040569756 0.77919996 -0.59638125 -0.19281298 0.090273425
-0.043672185 0.00021973811 0.040698111 -0.43326044 0.3384966 0.83528769 0.042307541
-0.034800909 3.5047531e-05 0.040081218 0.25980288 0.47866657 0.83867806 0.070227832
-0.032771524 0.000172548 0.040667765 0.50781405 0.45949331 0.72869116 0.10017984
-0.03143746 5.4821372e-05 0.040443845 0.41422155 0.52230191 0.74540001 0.076815791
-0.03079143 0.00034564734 0.040900297 0.3959429 0.48146936 0.78193122 0.14420971
-0.029578082 0.00046148649 0.040686499 0.040404223 -0.99040228 -0.13217697 0.068921395
-0.02666359 0.0007798248 0.040477861 -0.30774996 -0.90759981 0.28557408 0.061859362
-0.0066644903 8.6038373e-05 0.040753022 -0.10837316 0.19851512 0.97408777 0.023819922
-0.045471702 0.0016469855 0.040556647 0.27976295 -0.85545546 0.43580788 0.093354367
-0.021462452 0.0014505317 0.040485293 0.16550542 -0.76864469 0.61789423 0.061527222
-0.0043100026 0.0014836653 0.040542059 -0.56096822 -0.82783735 0.00032786632 0.077289335
-0.045628086 0.0022561264 0.040697098 0.26817375 -0.77284962 0.57514024 0.077212565
-0.020489071 0.002300078 0.040661961 0.19410072 -0.91190368 -0.36160272 0.078107186
-0.0019898992 0.0028592478 0.040250584 -0.58191842 -0.81224388 -0.040383391 0.090076506
-0.0015689218 0.0036868192 0.040625155 -0.20325172 -0.95931721 0.19595757 0.098896146
-0.027519412 0.004510059 0.040433388 -0.048712973 -0.88548052 0.46211609 0.091364764
-0.026698977 0.0042276643 0.040486246 0.34589481 -0.33193797 0.87759566 0.13635227
-0.044466518 0.005580022 0.040973354 -0.25405881 -0.72947228 0.63507813 0.1171031
-0.027783945 0.0053309589 0.040567443 -0.16728652 -0.96812075 0.18643357 0.086932682
-0.0017145037 0.0053310492 0.040377967 -0.30933696 -0.87635946 -0.36919448 0.12901644
-0.021529004 0.0065243021 0.040367898 0.62300795 -0.56696004 0.53890389 0.080089062
-0.027476799 0.0076046567 0.040340956 0.12313586 -0.99029076 -0.064511664 0.070553154
-0.045450687 0.0085999975 0.040371291 -0.36511925 -0.81283128 0.45386496 0.074528858
-0.029553225 0.0086459182 0.040721484 0.36970139 -0.90817326 0.19632173 0.1140868
-0.0033751084 0.0088287471 0.040408373 0.62242621 -0.5820967 0.52321041 0.16400184
-0.044446092 0.009556788 0.040370338 -0.0993146 -0.17038433 0.98035997 0.099699691
-0.027472939 0.0095642526 0.040246084 0.80703282 0.20968559 -0.55202347 0.1518997
-0.020775946 0.0098990407 0.040823393 0.023432462 -0.90208775 0.43091598 0.16552623
-0.019734573 0.0092058741 0.040620029 0.94470304 -0.19214997 -0.26573426 0.12524842
-0.0036102645 0.0096918344 0.040437751 -0.30511087 -0.73394668 -0.60681927 0.11965303
-0.0018568202 0.0095035546 0.040935051 0.30297968 -0.95280957 -0.018898934 0.10585958
-0.042754419 0.010753448 0.040666658 -0.65597355 0.15831031 0.73799497 0.086192563
-0.019489627 0.011626692 0.040528629 0.65325916 -0.73192775 0.1937376 0.10842286
-0.032150645 0.012825652 0.04040017 0.65294915 -0.57083714 0.49779755 0.098517478
-0.028832227 0.01230156 0.040142704 0.42484385 -0.88719183 0.17999546 0.080972232
-0.039442822 0.013732458 0.040500179 -0.44557884 0.27820548 0.85091782 0.057186499
-0.033271812 0.013930875 0.040876091 0.36381817 -0.5639801 0.74132496 0.095413908
-0.018437687 0.013464129 0.040531691 0.88939309 0.41065344 0.20085718 0.11352538
-0.0074608531 0.013549653 0.040509745 0.59622675 -0.71388382 0.36726502 0.07292147
-0.030821666 0.014387998 0.040744368 0.44688958 -0.89402032 0.031897418 0.12424688
-0.016518164 0.014646086 0.040506858 0.7313953 -0.31236506 0.60620886 0.10365827
-0.0078571308 0.014066543 0.04059482 0.48745736 -0.48671803 0.72490746 0.078307807
-0.032629449 0.015571903 0.040409144 0.63258088 -0.59268719 -0.49856126 0.037512735
-0.031209162 0.01528351 0.040560558 0.77996188 -0.59271204 0.20087785 0.089920737
-0.013447209 0.015873775 0.040566582 0.7562058 -0.4383541 0.48579669 0.12133507
-0.0098017203 0.015513284 0.040249806 0.99172783 -0.030195732 -0.12475628 0.12041076
-0.039956987 -0.0013290048 0.041108318 0.11015923 0.13276796 0.98500639 0.025142837
-0.012454631 -0.0012098969 0.041273572 0.27390543 -0.94474739 -0.18007854 0.048054203
-0.0095759518 -0.0010952938 0.041146681 -0.27606031 0.64233017 0.71498436 0.045539431
-0.044764847 -9.0672169e-05 0.041445293 0.79349804 -0.27721933 -0.54176593 0.050401889
-0.042507272 -0.00054883916 0.041442633 0.96383548 0.19571953 0.18087298 0.036947872
-0.040607817 -0.00028112967 0.041311078 -0.5119164 0.60007602 0.61469537 0.10747144
-0.032378498 -0.00029262539 0.041305181 -0.16797632 -0.73568588 -0.65616322 0.10744385
-0.028672559 -0.00017243624 0.041252039 0.90529633 -0.38627097 -0.17672925 0.099671155
-0.021127762 -0.00089806289 0.041078079 -0.056546513 -0.8970257 -0.43834609 0.11155675
-0.0113732 -0.00047344912 0.041428849 -0.027866196 -0.73622358 -0.67616439 0.093193769
-0.0053866836 -0.00025622206 0.041221105 0.90309769 0.37513059 0.20902531 0.028923824
-0.041466989 9.3542039e-06 0.041547343 -0.11775067 0.31372195 0.9421854 0.020712357
-0.039405145 0.00010913424 0.041603364 0.07773032 0.31577262 0.94564563 0.032799739
-0.032332771 0.00037426769 0.04156588 0.85605896 -0.4479261 -0.25792491 0.059397899
-0.02125442 0.0009481106 0.041196056 0.79175186 -0.58552277 0.17404607 0.084910944
-0.015579887 5.565118e-05 0.04162116 -0.070754692 -0.86264014 -0.50084496 0.092188604
-0.013247015 1.4238991e-05 0.041691072 0.088008985 0.14710902 0.98519713 0.053909779
-0.0075783548 0.00016021806 0.041607205 -0.01201893 -0.024223585 0.99963433 0.02661824
-0.0036287925 0.00076444744 0.04134981 0.95789069 0.28188291 0.054657303 0.11120612
-0.046131089 0.0017470574 0.041340023 -0.021527365 -0.30662346 0.95158744 0.04674457
-0.030164357 0.0012945961 0.041861176 0.7253269 0.45775747 0.51415855 0.055004563
-0.0035347193 0.0014107515 0.041450098 0.91878498 0.23702328 -0.31568018 0.12017006
-0.020809568 0.002824394 0.041843567 0.17407072 -0.98319715 -0.054978918 0.027549695
-0.0031745695 0.0024943557 0.041145168 0.47439814 -0.25700974 0.84195739 0.15394638
-0.020867156 0.0030037519 0.041738916 0.72334319 -0.37479934 0.57991391 0.045070756
-0.00085819513 0.0053536855 0.041069902 -0.067336343 -0.9976331 0.013931807 0.076440126
-0.028073616 0.006497059 0.041236706 0.12236017 -0.9799189 0.15743861 0.07916294
-0.0015102498 0.0066074319 0.041536443 -0.17366464 -0.13564233 0.97541869 0.081870884
-0.046544116 0.0073747966 0.041406885 -0.28782004 -0.95605397 0.055860244 0.096889339
-0.045512076 0.0076073259 0.0413987 0.70401007 0.45862964 -0.54224402 0.10031009
-0.0021735476 0.0075531132 0.041432548 0.43503514 -0.85848516 -0.27156538 0.098195732
-0.029096073 0.0085268365 0.041220017 0.38983449 -0.72759372 -0.56447893 0.095046237
-0.0030457638 0.0081490837 0.041717216 0.34859943 -0.87325853 0.3404378 0.12213114
-0.029600408 0.010161611 0.041638918 0.58934444 -0.58955038 0.55236167 0.10506
-0.044526987 0.011354276 0.041584618 0.84511459 0.49833357 0.19350716 0.094684809
-0.029063802 0.011406913 0.041189261 -0.34686446 -0.80696756 0.47800469 0.11383322
-0.0042450749 0.011564258 0.041356787 0.52250427 -0.85263669 5.0351457e-05 0.11681056
-0.044221684 0.012322791 0.041739509 -0.056630824 0.4225961 0.9045471 0.063170217
-0.043457899 0.012563047 0.041843094 -0.42262426 0.10573857 0.90011555 0.049458273
-0.030583352 0.012258877 0.041826583 0.43111324 -0.88447726 0.17844167 0.043094628
-0.028651563 0.012415409 0.041147143 0.37534872 -0.92669189 0.018852396 0.069461338
-0.018532658 0.01249924 0.04154915 -0.61351806 -0.76854253 0.18148789 0.15655981
-0.0053468235 0.012675935 0.041763991 0.30351356 0.06821315 0.95038229 0.061983451
-0.042414397 0.013246632 0.041613724 -0.14844127 0.3955822 0.90635526 0.060983364
-0.03321851 0.013807928 0.041281961 0.8922652 -0.054988515 0.4481509 0.10806673
-0.0040024393 0.013177983 0.041434105 -0.20289686 0.2025484 0.95802242 0.089225695
-0.037532777 0.014486765 0.041503794 -0.60306174 -0.62381428 0.49716422 0.15992481
-0.016412795 0.014176693 0.041388173 0.72411722 0.23627521 -0.64794165 0.07009884
-0.011381323 0.014880119 0.041214645 0.5194186 -0.3529841 0.77820724 0.071672447
-0.0077259499 0.014203911 0.041480731 0.95979577 -0.17815578 0.21691601 0.10676593
-0.035294771 0.015346658 0.041203216 0.72346669 -0.38007313 0.57631618 0.086629242
-0.016141847 0.015292214 0.041137855 -0.23964959 -0.74893278 0.61779255 0.11244562
-0.0097163999 0.015259258 0.041398793 0.86549962 -0.21701817 0.45145714 0.067983977
-0.014114439 0.016138636 0.041251749 0.68829083 -0.36200958 0.62865323 0.15581053
-0.017429573 -0.0013646958 0.042397004 0.11478158 0.62925118 0.7686795 0.079218879
-0.044386983 -0.00012245393 0.042607345 0.72340304 -0.16843782 0.66956455 0.053764783
-0.043414671 -0.00043127444 0.042476274 0.9226647 -0.12862682 0.36351743 0.06392619
-0.038471062 -0.00031552077 0.042353511 0.10134609 -0.0035480156 0.99484491 0.020655584
-0.036704045 -0.00025587392 0.042606067 -0.023165781 0.31263265 0.94959164 0.011756543
-0.012540113 -0.00027222943 0.042468693 0.59093255 0.36226988 0.72080457 0.056578718
-0.0084633492 -0.00011622083 0.042395726 -0.080049798 0.21192183 0.9740026 0.019967217
-0.007411228 -0.00021826774 0.042565025 0.32470453 0.34424365 0.88094449 0.018277433
-0.005668804 -0.0001582621 0.042527419 -0.63699245 0.058533706 0.76864457 0.023274632
-0.040285606 0.00020260976 0.042513102 -0.046243943 0.19135596 0.98043072 0.022529146
-0.037359171 0.0002100671 0.042450421 0.073283292 0.29669157 0.95215738 0.016251514
-0.036565859 0.00024866065 0.042422477 0.31133172 0.20357209 0.92824084 0.0060025277
-0.035619132 0.00038283505 0.042369742 0.52156526 0.29185426 0.80174237 0.010164085
-0.0074522984 0.00034584725 0.042661026 0.074582942 0.52065331 0.85050422 0.034058731
-0.020391772 0.0013460368 0.042548865 0.54533082 0.31858945 0.77531606 0.071437366
-0.029177211 0.0023702371 0.042285036 -0.30710253 -0.95167613 -0.0006984807 0.14566994
-0.021033712 0.0027190093 0.042426471 -0.15565833 -0.8994441 -0.40837574 0.022861216
-0.021509346 0.003806809 0.042314351 0.3921133 -0.91191375 0.12108053 0.026995882
-0.0015232149 0.003374473 0.042533256 0.5304333 0.54715031 0.64750832 0.097239785
-0.020738246 0.0051588472 0.042639971 -0.43050531 -0.63026768 0.64608663 0.15706125
-0.047228023 0.0067508221 0.042458698 -0.24135865 -0.064266324 0.96830565 0.081635848
-0.021116562 0.0066872872 0.04282099 0.077377945 -0.79394102 0.60305077 0.087144837
-0.0020118104 0.0061069913 0.042469859 -0.36898389 -0.83399332 0.41025102 0.15136722
-0.045739397 0.0070094131 0.042528681 -0.023841688 -0.45412749 0.89061767 0.10797556
-0.028967788 0.0077981111 0.042238571 0.52822238 -0.8050018 -0.27009869 0.078342326
-0.027755439 0.0077635664 0.042109311 0.3400436 -0.92778385 0.15358201 0.10039621
-0.021168042 0.0070514143 0.042511944 0.20074745 -0.67561615 0.7093963 0.092752457
-0.020734034 0.0073799519 0.042611971 0.21164787 0.64334637 0.7357381 0.074641809
-0.018998621 0.0082792826 0.042264257 0.42435333 0.58601701 0.69029582 0.074141026
-0.00087080291 0.0083944621 0.042548366 0.057393033 -0.99143749 0.1172931 0.09986715
-0.04542188 0.0093659032 0.042682018 -0.12281869 -0.89309639 -0.43277526 0.14881469
-0.029332235 0.0094967028 0.042511534 -0.31922135 0.37174645 0.87172377 0.11754806
-0.020056546 0.0096486658 0.042259444 -0.0055189752 -0.93019187 0.36703226 0.11059731
-0.03039615 0.010702287 0.042614549 0.49645764 -0.66268551 0.56069404 0.057111114
-0.0025903608 0.011737757 0.042273182 0.15473537 -0.84884483 0.50548941 0.10198167
-0.044400871 0.012242567 0.042468756 -0.19721149 -0.013092601 0.98027349 0.084535725
-0.031402797 0.012666413 0.042335223 0.71593028 -0.47681537 0.50999099 0.075039893
-0.016634086 0.012445618 0.04236323 -0.20780337 -0.87672675 0.43378326 0.14856458
-0.0054728454 0.012683246 0.042482696 0.98684001 -0.16057469 -0.019039148 0.10228252
-0.035082586 0.013954954 0.042466726 0.83818555 0.26897949 -0.47444177 0.10084301
-0.032565463 0.013623109 0.042601142 0.52143586 -0.68644458 0.50685167 0.047647253
-0.017225951 0.013085768 0.0429077 0.31256574 -0.2879687 0.90519428 0.088587344
-0.015636306 0.013505195 0.042346738 0.75780946 0.48133793 -0.44049814 0.088517651
-0.003523387 0.013245335 0.042622857 -0.60033339 0.48962927 0.63234729 0.10472253
-0.039378569 0.014490047 0.042438477 0.36267766 0.27726793 0.88971186 0.06200077
-0.034633748 0.014314671 0.042413633 0.77676314 -0.44917953 0.44144848 0.051428169
-0.016409617 0.014080503 0.042350084 -0.50431794 -0.60090113 0.6201461 0.064622171
-0.011449334 0.014510377 0.042661447 0.3061758 -0.14261477 0.94123185 0.031148685
-0.010421184 0.014731393 0.042511951 0.92421073 -0.035746828 0.38020593 0.030506227
-0.0097692572 0.014732437 0.042604055 0.16383626 -0.20014822 0.96597016 0.07519868
-0.037062839 0.015053296 0.042049956 0.90442681 0.32899362 -0.27161616 0.11840272
-0.013320422 0.015182003 0.04294505 0.48217216 -0.31461376 0.81763572 0.09976241
-0.041803882 -0.00026267127 0.043776039 0.96240932 -0.26453122 -0.061575979 0.039800689
-0.043442056 0.00033549746 0.043442551 0.57089442 -0.054496527 0.81921273 0.064746827
-0.039543562 0.00047298521 0.043486677 -0.66769487 -0.16213284 0.72656482 0.018495213
-0.038530394 0.00052890804 0.043454427 -0.49473 0.34986749 0.79550916 0.027461769
-0.036465824 0.00060051878 0.043625399 0.15075818 0.36973849 0.91682357 0.027606297
-0.018614346 0.00054946332 0.043461937 0.99424142 0.060245804 -0.088625252 0.14639814
-0.014532879 0.0006319349 0.04351569 0.21823904 0.67091268 0.70869464 0.077556312
-0.01360331 0.00071323389 0.043353047 0.4759222 0.16941346 0.86301631 0.056970105
-0.0054779225 0.00072584208 0.043436293 0.96441239 0.0798053 -0.25207111 0.014268056
-0.045524567 0.0016168723 0.04346269 0.65238416 -0.75610465 -0.051967196 0.062804796
-0.038571037 0.0012058243 0.043650948 -0.47398579 0.51092499 0.71714234 0.044302028
-0.035516184 0.0011395073 0.043559074 0.081756093 0.5039686 0.85984391 0.057421736
-0.033646319 0.0010867007 0.043495376 0.72886574 0.22623909 0.64619708 0.0098044779
-0.019396367 0.001424679 0.043574762 0.47470182 -0.86064953 -0.18422963 0.13907422
-0.016452849 0.0012962186 0.043498259 0.057048202 0.36131191 0.93069828 0.04652404
-0.0036674277 0.0016274679 0.043348096 0.01931271 -0.27023533 0.96260053 0.086255573
-0.046410311 0.0026107056 0.043387413 0.36614913 -0.71299481 -0.5979743 0.059599034
-0.045704324 0.0024779725 0.043418545 -0.0071010697 -0.97090423 -0.23936288 0.060624972
-0.020331053 0.0025673572 0.043353803 0.65977556 -0.22062816 0.71834499 0.015056567
-0.029489882 0.0031950537 0.043602958 0.62323296 0.56356347 -0.54219639 0.058899123
-0.020508749 0.0036331289 0.04350761 0.29913425 -0.94940823 0.095618136 0.05813149
-0.0021680638 0.0043331869 0.043256752 0.12332789 -0.99049294 -0.060942043 0.13796782
-0.027350221 0.0056411526 0.043380283 -0.019143322 -0.9736681 0.22716518 0.16900992
-0.020750338 0.0057754153 0.043578796 0.25755465 -0.0013938787 0.9662627 0.087512434
-0.019243412 0.0058958903 0.043925017 0.7939055 -0.24514775 0.55643225 0.045356959
-0.0024200864 0.0056783184 0.043386739 -0.2598789 -0.93232906 0.25144699 0.13134772
-0.00067679211 0.0053231609 0.043713786 -0.35625443 -0.9237951 0.14030494 0.12010424
-0.029299919 0.0067617428 0.04345068 0.04622601 -0.99892008 0.0046836655 0.12703601
-0.02053209 0.0077635162 0.043611038 -0.20255263 -0.94311756 0.26363167 0.091403261
-0.046456553 0.008620522 0.043336309 -0.011056748 -0.60049003 0.79955584 0.13356093
-0.03079552 0.010751011 0.043536618 0.42839983 -0.7869432 -0.44406542 0.14351323
-0.0021716498 0.010643673 0.043570738 -0.315494 -0.93815476 0.14258061 0.12643951
-0.044420809 0.012707673 0.04348756 0.65090919 0.50521612 -0.56663382 0.064768426
-0.017529905 0.012311933 0.043461893 -0.017348684 -0.061484206 0.99795729 0.11847933
-0.0031125869 0.012669233 0.043654561 0.52201551 -0.7496196 0.40690327 0.16212551
-0.04356423 0.013373372 0.043657809 0.1233757 0.24959101 0.96045965 0.051516257
-0.034506515 0.013767675 0.043531049 0.99280077 0.085282058 0.084104829 0.10366541
-0.032412365 0.013360568 0.043381657 0.3622182 -0.49715018 0.7884413 0.056595817
-0.014484163 0.013727417 0.04348851 0.93517387 0.31287426 -0.1660109 0.094283648
-0.013554865 0.013602847 0.043498144 0.7278024 0.46407738 0.50491178 0.037608281
-0.036745448 0.014461223 0.043426566 -0.32861641 0.63303405 0.70091307 0.13922632
-0.035778593 0.014667225 0.043587718 0.46807402 0.49919733 0.72918367 0.16916685
-0.007529302 0.014803475 0.043499105 0.75936443 0.17468813 -0.62677723 0.1099783
-0.003839093 0.014467984 0.043833628 0.30844736 -0.73298866 -0.60629022 0.11398295
-0.03834499 0.015123141 0.043486256 0.17250569 0.33340478 0.92686731 0.045473233
-0.042632878 0.00070709421 0.044466563 0.14120083 0.60681498 0.78220069 0.02566066
-0.036403783 0.00074686733 0.044422008 0.76342428 -0.14222808 -0.63004333 0.013392228
-0.014122494 0.00072973775 0.044598673 0.911538 -0.22872831 -0.34173349 0.028659854
-0.012422386 0.00066956918 0.044453252 -0.34065241 0.2241662 0.91307473 0.010921597
-0.0064339936 0.00071060198 0.044267066 -0.59842652 0.23953454 0.76453185 0.013959898
-0.00555865 0.00069538067 0.044455506 -0.48483986 0.045835983 0.87340099 0.018472813
-0.043544721 0.001426309 0.044583637 0.24187304 -0.69511235 -0.67699069 0.066710956
-0.041092787 0.0011914279 0.044872299 0.70814151 0.66837633 0.22761528 0.033055153
-0.029688295 0.0015464772 0.044317421 0.86352164 0.44690272 0.23368403 0.09429799
-0.013396339 0.0013699204 0.044722807 -0.37935913 0.48984686 0.78494382 0.031594008
-0.0091165332 0.0015763864 0.044289857 0.66437989 -0.34671396 -0.66210938 0.022561124
-0.006555784 0.0013694874 0.044565625 -0.60926503 0.34682557 0.71309757 0.014212403
-0.0033655595 0.0017047692 0.044229869 -0.5425114 -0.64663619 -0.53623039 0.071586847
-0.030272637 0.0024205726 0.044854518 0.095555082 -0.90122354 -0.42268828 0.15624073
-0.0177499 0.0021975979 0.044565391 0.67292118 0.20570111 0.71053791 0.050832964
-0.045777697 0.0035415397 0.044306848 0.18715456 -0.98147941 0.040882748 0.11553954
-0.019587636 0.003417738 0.044507027 0.57929796 -0.59962541 0.55214441 0.026850225
-0.0023647018 0.0035545474 0.04449825 -0.60345972 -0.7921012 -0.091716953 0.081775077
-0.029127434 0.0046172477 0.044691473 -0.48721614 -0.86632991 -0.10996745 0.11645237
-0.019861395 0.0043508848 0.044564951 0.11272118 -0.99233794 0.050589509 0.058360532
-0.046598431 0.0054640044 0.044718333 0.41272992 0.61932755 0.6678977 0.1030726
-0.019843929 0.0053009279 0.04498256 0.5316115 -0.092466228 0.84192592 0.042288706
-0.047529604 0.0062757502 0.044405773 0.18076201 -0.94854099 0.25999072 0.11408702
-0.045660295 0.0063780127 0.044486627 -0.089202024 -0.69831777 0.71020788 0.15544575
-0.047379889 0.0076557072 0.044442289 -0.23376407 -0.1838654 0.95475012 0.064111754
-0.045817148 0.0080051534 0.044374164 -0.39393628 -0.67322576 -0.62576461 0.12124193
-0.002018474 0.0088495612 0.044503838 0.8578338 -0.3941958 0.32974353 0.13907939
-0.0015091383 0.008621715 0.044482905 0.8131488 -0.44702488 0.37277043 0.11072804
-0.030144693 0.010510661 0.0443873 0.70548761 -0.66559672 -0.24345043 0.099789836
-0.019207336 0.010012059 0.044048876 0.29717204 0.27604252 0.91405106 0.098298743
-0.046172056 0.011415513 0.044588033 -0.4213542 -0.89892489 -0.11997841 0.1048061
-0.044778101 0.011667327 0.044293214 0.032192573 -0.56305891 0.82578957 0.15748188
-0.031252433 0.011777781 0.044554949 0.68170649 -0.51701832 0.51765651 0.11387171
-0.01823605 0.011774756 0.044292439 -0.235457 -0.93371028 0.26971313 0.13773234
-0.001899872 0.011419851 0.044187903 -0.098250866 -0.99496228 0.019921914 0.10948297
-0.016650241 0.012479076 0.044433195 -0.67698252 -0.10032254 0.72912961 0.043542765
-0.042775635 0.013563466 0.044166129 0.73638165 0.62043637 -0.26981628 0.098139197
-0.042447284 0.014342674 0.044380832 0.12388129 0.57587981 0.80809397 0.066356711
-0.041388385 0.01446691 0.04440406 -0.623932 -0.6689086 0.40406695 0.11957125
-0.03767889 0.014592187 0.044290148 -0.044056557 0.39238188 0.91874665 0.059081413
-0.015213015 0.01416613 0.044719841 0.78046036 0.59878403 -0.1798315 0.086937934
-0.013411052 0.014783663 0.044428952 0.87414545 0.41236663 0.25656068 0.025951445
-0.00436761 0.014473246 0.04455607 -0.32323596 0.55127949 0.76916152 0.063557401
-0.0035288096 0.014174774 0.044972446 0.82571858 -0.45831373 -0.3288424 0.12767634
-0.041422516 0.015004434 0.044562519 0.38123336 0.57851851 0.72109461 0.041049156
-0.035285097 0.015017327 0.044306111 0.26412562 -0.22770949 0.93722242 0.052303966
-0.010573161 0.015464718 0.044592533 0.91308606 0.35023743 0.20882465 0.035583138
-0.0073918262 0.015319103 0.044567853 -0.033115357 0.5700013 0.8209762 0.076654173
-0.0057219975 0.01516499 0.044684999 0.7083329 -0.15883476 0.68777609 0.06618306
-0.042521264 0.00085216248 0.045596588 0.82361305 0.025468037 0.56658012 0.056731828
-0.04068185 0.00087182038 0.045255542 0.86363685 -0.06812565 0.49949017 0.093245417
-0.038596563 0.0008648606 0.045528345 -0.25765961 0.16740708 0.95162296 0.017191028
-0.035373695 0.00084638991 0.045464456 0.78828937 0.10658447 0.60600299 0.026272008
-0.010076994 0.00097732665 0.04502847 0.9450925 0.1773679 0.27448273 0.031297646
-0.0091324216 0.00097235292 0.045707434 0.75151384 0.22427472 -0.62042558 0.025593242
-0.0056048161 0.00099210162 0.045543306 -0.45372307 0.35430145 0.81768328 0.032473065
-0.039452296 0.0013276322 0.045347903 0.06851314 0.63537681 0.76915687 0.083922789
-0.038405955 0.0014468411 0.04545629 -0.082582913 -0.0429083 0.99566001 0.038239345
-0.037607595 0.0014561001 0.045423765 0.99805379 -0.051503036 0.035156894 0.017896436
-0.036516879 0.0015304348 0.045565065 0.26113221 0.30672505 0.91527569 0.017896889
-0.034606621 0.0013845371 0.045490794 0.65512931 0.12014335 0.7459029 0.042522181
