# .PCD v0.7 - Point Cloud Data file format
VERSION 0.7
FIELDS x y z normal_x normal_y normal_z curvature
SIZE 4 4 4 4 4 4 4
TYPE F F F F F F F
COUNT 1 1 1 1 1 1 1
WIDTH 574
HEIGHT 1
VIEWPOINT 0 0 0 1 0 0 0
POINTS 574
DATA ascii
-0.0075872741 0.090284757 -0.0172955 0.76109779 0.12266347 0.63693315 0.10399207
-0.0062392503 0.090748116 -0.01726694 0.75596994 0.45264781 0.47288412 0.087775454
-0.039426457 0.091570109 -0.017382734 0.34431657 -0.93739808 -0.052257687 0.086018249
-0.038853742 0.091570348 -0.01760819 -0.45534047 -0.63502681 0.62402391 0.13396278
-0.0084306737 0.091347195 -0.017728707 0.44495377 -0.009415634 0.89550406 0.14457786
-0.0067680357 0.091460496 -0.017357603 0.25269741 0.23660831 0.9381687 0.15978479
-0.039521132 0.092549019 -0.017429637 0.71866846 0.19533178 -0.66735387 0.11097876
-0.0082064765 0.092101045 -0.017663486 0.20928667 -0.1627297 0.96421891 0.15604648
-0.0064634993 0.092593431 -0.017394373 0.66338575 0.32456765 0.67422193 0.11406022
-0.041129865 0.093696475 -0.017112991 0.84845924 0.20966144 -0.48596203 0.14501721
-0.040193699 0.093487248 -0.017534634 -0.64695352 0.067744464 0.75951415 0.085796013
-0.039434802 0.093510821 -0.017508717 -0.13323261 -0.70496446 0.69661629 0.071685039
-0.0082767326 0.093397141 -0.01748956 0.59040195 0.42294571 0.68741727 0.085737884
-0.0075129005 0.09349589 -0.017343985 0.41873312 0.18846139 0.88833821 0.12336121
-0.040380836 0.094499663 -0.017326823 -0.32770169 -0.38064152 0.86471015 0.11687768
-0.039386641 0.094555981 -0.017482419 -0.38386467 -0.78356266 -0.48854616 0.12976915
-0.038742092 0.094639778 -0.017563822 -0.39448726 0.41961375 0.81749862 0.10504956
-0.0092730466 0.094733313 -0.017755555 0.82758218 -0.13887753 0.54389399 0.10602497
-0.0083540464 0.09463986 -0.017366933 0.47642511 -0.58672017 0.6548118 0.074999183
-0.007473222 0.094389997 -0.017356789 0.96695775 -0.027145384 0.25348723 0.11394697
-0.0063016354 0.094554655 -0.017107977 0.78104287 0.14985257 0.60623115 0.09358386
-0.04031688 0.095414884 -0.017407967 0.85316312 -0.22539242 0.47043702 0.10546799
-0.038711157 0.095329806 -0.017719816 0.319931 -0.73343986 -0.59975833 0.1390941
-0.0083351629 0.095357746 -0.017582819 0.62924528 -0.68712044 0.36320227 0.082523979
-0.0075328029 0.095306672 -0.017341912 -0.61393541 -0.78362894 -0.09491577 0.066339366
-0.0068567353 0.095772184 -0.017288042 0.46873322 -0.88331342 0.0068246443 0.092398651
-0.040461883 0.09654633 -0.017303757 0.59697419 0.49928287 0.62796372 0.11528885
-0.0092998818 0.096289434 -0.017688446 0.46337101 -0.87766623 0.1224307 0.10755518
-0.0075372849 0.096791953 -0.017449608 0.8177101 -0.56953233 -0.083565123 0.13881792
-0.040142857 0.097579017 -0.017293766 0.34012115 -0.80332702 -0.48885924 0.13488901
-0.039466951 0.097394332 -0.017523069 0.097564429 -0.24691908 0.9641121 0.13125721
-0.038394619 0.097381182 -0.017683512 0.12224495 -0.93681955 -0.32775795 0.12906462
-0.037696011 0.097556546 -0.017958986 -0.20531677 -0.97655219 -0.064737536 0.10107732
-0.0096598128 0.097481959 -0.017700788 0.50478923 0.42841431 0.7494325 0.044500645
-0.0084815919 0.097356647 -0.017190095 0.49441764 -0.81083 -0.31321853 0.1493838
-0.0067649167 0.097168073 -0.017459529 0.5387702 -0.29154256 0.79039836 0.1455452
-0.039508432 0.098720305 -0.017228704 0.66458768 0.51089752 -0.54525858 0.088806741
-0.038529761 0.098519132 -0.017452296 0.69225109 0.48555085 0.53388077 0.10092725
-0.03773237 0.098550245 -0.017441152 -0.64245218 -0.76525676 -0.040462524 0.10414765
-0.010035179 0.098807797 -0.017761953 0.74751198 -0.4795996 0.45957604 0.082270853
-0.0093552722 0.098614022 -0.017562574 0.94119632 0.090671547 0.32546595 0.11935667
-0.0085293455 0.098647796 -0.017616682 0.87137443 0.48409733 -0.079726689 0.049495518
-0.0072465539 0.098426066 -0.017147802 0.6733526 -0.41337311 -0.61295921 0.097543821
-0.039715253 0.09951739 -0.017498124 -0.065423936 -0.21977076 0.97335529 0.090936244
-0.0383728 0.099424489 -0.0178682 -0.46745977 0.4967646 0.73123616 0.11897645
-0.037614629 0.099657454 -0.017644098 0.955437 0.067041025 -0.28748149 0.098066941
-0.036684539 0.09958268 -0.017832384 0.70839143 -0.20346649 -0.67585719 0.16830726
-0.010098345 0.09970101 -0.017669138 0.45651647 0.2858997 0.8425284 0.084066905
-0.0093147578 0.099433787 -0.017519023 0.90576339 -0.0011575887 0.42378214 0.093718506
-0.0086288173 0.099537753 -0.017490175 0.9862591 0.16392118 -0.020562652 0.070049472
-0.039680187 0.10047406 -0.017403016 0.68437672 0.3794862 -0.62259042 0.16580828
-0.038406253 0.10036464 -0.017498849 0.8888011 0.44021916 0.12743512 0.1284177
-0.037725031 0.10073397 -0.017585045 0.93893123 0.32009092 -0.12629308 0.097316518
-0.036698297 0.10066814 -0.017687835 0.86999607 -0.087440163 -0.48524335 0.14805368
-0.011165444 0.10075641 -0.017986709 -0.26441798 -0.88493782 -0.38336426 0.080338381
-0.010258663 0.10035993 -0.017747678 0.53593397 0.30351081 0.78781718 0.15389821
-0.0093903979 0.10044155 -0.017431961 0.96934992 0.24541585 0.011483435 0.055777736
-0.0086724553 0.10054958 -0.017486012 -0.53149748 -0.15617529 0.83253813 0.04855692
-0.0077250176 0.10047889 -0.017563844 0.58263278 -0.017379874 0.81254971 0.14659671
-0.039201465 0.10127538 -0.017206447 -0.26510674 0.060915589 0.96229297 0.14290546
-0.037459843 0.10164186 -0.017514925 0.84631044 0.085180148 0.52583551 0.052089013
-0.036719009 0.10154769 -0.017531753 -0.60305607 -0.3622486 0.71070337 0.10764064
-0.035948299 0.10159238 -0.017912157 -0.45244405 0.4082326 0.79286855 0.12043671
-0.011643595 0.1015409 -0.017762903 -0.56848043 -0.74909264 -0.34013253 0.11318833
-0.0094914613 0.10151202 -0.017277131 -0.33639133 -0.69516087 -0.63528913 0.10481754
-0.0088244975 0.10151055 -0.017047273 0.96496284 0.033222459 -0.26027486 0.13947725
-0.0079687741 0.10175259 -0.017380912 0.96095836 -0.097102225 0.25909504 0.16561185
-0.039141268 0.10237842 -0.017083347 -0.54878843 0.17460015 0.81752431 0.086268023
-0.038364261 0.10246658 -0.017337043 0.87341255 0.36360788 -0.32394412 0.13004275
-0.037474025 0.10241674 -0.017536663 -0.016831862 -0.54501784 0.83825547 0.045089863
-0.036473475 0.1024785 -0.01766374 0.83356351 0.32409105 -0.44736663 0.09937793
-0.035656095 0.10258071 -0.017688973 0.99637097 -0.084850885 -0.0067268685 0.098199762
-0.034922987 0.10266962 -0.01773791 0.90613151 0.15457793 -0.39374018 0.069278739
-0.012576356 0.10268294 -0.017877799 -0.18897204 -0.82343662 -0.53501552 0.16973923
-0.011212351 0.10232134 -0.017560989 -0.28027216 -0.8966974 -0.34260967 0.086282492
-0.0094218086 0.10253284 -0.017435726 -0.58552992 -0.80915201 -0.049272388 0.061981268
-0.0084911017 0.10270039 -0.017117551 0.91596776 -0.39494196 0.070879743 0.10946593
-0.03836146 0.10338805 -0.017122319 0.72132999 -0.46797314 -0.51057243 0.062994853
-0.037308682 0.10320374 -0.01730372 0.67826992 0.66759783 0.30702281 0.057362653
-0.03656124 0.10365761 -0.017389983 0.67692906 -0.4443242 -0.58680749 0.097783387
-0.035578232 0.10337285 -0.017588994 -0.18105203 -0.95979095 -0.21452636 0.085191414
-0.034707908 0.103525 -0.017815277 0.89878875 -0.047993235 -0.43574691 0.13561788
-0.015010327 0.10378281 -0.017899696 0.92000586 -0.39174947 0.011026423 0.14691144
-0.01440897 0.10372206 -0.017864671 0.97915947 -0.14032647 0.14681673 0.10804288
-0.013209538 0.10370862 -0.017903518 0.96970028 -0.13490777 0.20366958 0.12550992
-0.012205295 0.1032903 -0.017711759 0.95834827 -0.28258687 -0.041392539 0.089192472
-0.011511646 0.10348511 -0.017448884 0.78649259 0.30466595 0.53722256 0.067678742
-0.010579165 0.1035263 -0.017351719 -0.43866032 -0.72283524 -0.53393471 0.091925472
-0.0097451853 0.10355365 -0.017363638 -0.43065798 -0.79911429 -0.4194639 0.094081566
-0.037437279 0.10416996 -0.017379215 -0.19211623 0.45324907 0.87043476 0.088681787
-0.036435522 0.10446835 -0.017445063 -0.00034854768 -0.28564557 0.95833528 0.15642007
-0.035379879 0.10454783 -0.017592065 0.67315739 -0.43163669 0.60045731 0.073507674
-0.015088648 0.10476422 -0.017885529 0.91965294 -0.14456099 0.3651585 0.069413513
-0.014250263 0.10461483 -0.017985286 0.8915385 -0.4319483 -0.13630761 0.052177716
-0.013378669 0.10448527 -0.017654182 0.71089417 -0.69449079 0.1109595 0.082579039
-0.012453483 0.10465395 -0.017588794 0.74823105 0.45245165 -0.48521945 0.15959083
-0.01145729 0.10465714 -0.017452395 0.084781401 -0.70739156 -0.70171875 0.14309731
-0.010510105 0.10449321 -0.0173236 0.85143888 0.4589619 -0.25378305 0.066825688
-0.036291495 0.10574819 -0.017492155 0.66442806 -0.68641883 -0.29557478 0.15735789
-0.035275072 0.10537715 -0.017474454 0.73601663 -0.67682546 0.01366971 0.063333668
-0.034407023 0.10568243 -0.017627684 0.77625406 -0.53893489 -0.32707608 0.080542117
-0.033380598 0.10520003 -0.017766669 0.65977246 -0.72979456 -0.17916507 0.096593216
-0.032496348 0.10552734 -0.017915929 0.46220553 -0.82549584 -0.3239176 0.092232354
-0.031631671 0.10582833 -0.017734846 -0.34650716 -0.91236353 -0.21800342 0.075073361
-0.01729802 0.10556457 -0.017974 0.93128735 -0.32518825 -0.16418451 0.060338024
-0.016858254 0.10575036 -0.017787263 0.96243167 -0.21552022 0.16515556 0.041940413
-0.015666809 0.10594725 -0.017735938 -0.55121338 -0.66392452 -0.5053395 0.10042067
-0.014776381 0.10548647 -0.017649781 0.85009301 0.51352978 0.11674313 0.08990407
-0.013478704 0.1054577 -0.017512405 0.93333805 -0.064859957 0.3530913 0.11578152
-0.011541647 0.1058743 -0.017344449 0.098868117 -0.3616873 0.92704225 0.14641127
-0.010086644 0.10571118 -0.017315162 0.91901678 -0.13967097 0.36864656 0.13842605
-0.037204593 0.10601109 -0.017455781 -0.45063958 -0.76410961 0.46158472 0.11701818
-0.035372727 0.10641056 -0.017215174 0.03573532 -0.98997837 -0.13662277 0.086850159
-0.034300312 0.10665491 -0.017393788 0.20902583 0.65252161 0.72837073 0.077739142
-0.033510443 0.1065073 -0.017577428 -0.024229188 -0.71165395 -0.7021122 0.08332856
-0.032450162 0.10668556 -0.017521033 0.33930209 -0.93629819 0.090663314 0.057815485
-0.031329695 0.10669179 -0.017811006 0.28402469 -0.95829648 -0.031589385 0.07864289
-0.030628853 0.10654566 -0.017864197 -0.58659327 -0.77732688 0.22731297 0.064169548
-0.029849308 0.10657279 -0.017697128 -0.48610935 -0.81045008 -0.32690722 0.047876313
-0.028735146 0.10675412 -0.017713131 0.79229319 -0.32542977 -0.5161075 0.11136732
-0.020366326 0.10653669 -0.017945195 0.6556021 -0.67973733 -0.3288511 0.10574555
-0.018517166 0.10685386 -0.017842382 -0.19789205 -0.92909724 -0.31243742 0.068307325
-0.01754294 0.10626677 -0.017989557 0.94846177 0.31506932 0.033935878 0.038857386
-0.016503794 0.1066978 -0.017853081 0.91056246 0.22326533 0.34789151 0.056318264
-0.015509869 0.10640855 -0.017602088 -0.52658492 -0.67057502 0.5225299 0.049890619
-0.014350252 0.10655973 -0.01756273 0.94428641 0.29469547 0.1465534 0.096111923
-0.013607762 0.10660462 -0.017567759 0.67656165 0.12817983 0.72514421 0.044008698
-0.012486897 0.10642459 -0.017355412 0.95557564 -0.26181448 -0.1353827 0.11886803
-0.011646565 0.10635854 -0.017445393 0.79368067 -0.36812559 0.48430836 0.093513593
-0.035373524 0.10715572 -0.017649241 0.80330324 -0.19244051 -0.56362265 0.097622797
-0.034268945 0.10726519 -0.017459555 0.14372359 0.55079204 0.82217491 0.066796005
-0.03342104 0.10747629 -0.017389996 -0.025221501 -0.99883211 -0.041211445 0.085550174
-0.032406814 0.10743792 -0.017505933 -0.10595367 -0.87880307 -0.46527308 0.14001676
-0.031567406 0.10758542 -0.017437767 0.7352531 0.66907126 0.10838146 0.11737411
-0.030327644 0.10786305 -0.017690156 0.98641258 0.029629983 -0.16159298 0.069441579
-0.029376401 0.10729654 -0.017858012 0.65035003 -0.72310919 -0.23271875 0.051946111
-0.028639846 0.10774688 -0.01768562 0.64396554 -0.68887532 -0.33280531 0.12525776
-0.027181694 0.10787845 -0.017979909 -0.25204495 -0.84288698 -0.47541031 0.087986745
-0.025930116 0.1078383 -0.017742207 -0.49480617 -0.77489406 -0.39332694 0.10066056
-0.024641085 0.10787603 -0.017983446 -0.53559017 -0.75264394 -0.38297549 0.15687439
-0.020815393 0.10773765 -0.017873401 -0.60511422 -0.72740614 -0.32360032 0.062246047
-0.019496588 0.10797714 -0.017688179 -0.58977926 -0.79747629 -0.12724826 0.064829305
-0.018387314 0.10747491 -0.017678889 -0.56975001 -0.8191905 -0.065664478 0.036412451
-0.017418725 0.10765029 -0.017661512 0.89973408 -0.36863682 -0.23363543 0.035476051
-0.016380113 0.10761776 -0.017357167 -0.17895927 -0.97888094 -0.098821908 0.059427701
-0.015598107 0.10750682 -0.017532527 0.4736748 0.54576916 0.69120777 0.12348296
-0.014473158 0.10755775 -0.017244849 0.94043666 0.18853076 0.28290462 0.084428303
-0.013638521 0.10736133 -0.017354943 0.43481129 -0.055383436 0.89881682 0.10701625
-0.012404598 0.10703454 -0.017190715 0.89602852 -0.34818983 -0.27549356 0.12283482
-0.011564233 0.10701511 -0.017501339 0.95322114 -0.30008903 -0.036277901 0.13047086
-0.033504885 0.10853881 -0.017403105 -0.059027415 -0.99784869 -0.028525075 0.091459312
-0.032423362 0.10840273 -0.017390382 0.66080433 0.39086089 0.64075381 0.093944408
-0.031515732 0.10838965 -0.017307539 -0.21005927 -0.72939605 -0.65104264 0.090099424
-0.030470511 0.10843448 -0.017624442 0.33695269 0.52719587 0.78008163 0.1658729
-0.029320454 0.1084215 -0.017599922 -0.13469593 -0.98156184 -0.13562216 0.1120995
-0.028727582 0.10852959 -0.017724143 0.72895294 0.6774106 0.098704018 0.11494985
-0.027597161 0.10859981 -0.017653745 0.52378863 -0.7896229 -0.31959543 0.15110326
-0.026624057 0.10884161 -0.017753458 0.79575574 0.60425276 -0.04063721 0.058949545
-0.025488613 0.10888132 -0.017651992 0.95018619 0.29152957 -0.11025731 0.096004523
-0.02457964 0.10809918 -0.017889053 -0.5241437 -0.74541444 -0.4118624 0.15860859
-0.023795251 0.10889999 -0.017732268 0.99654627 -0.067898273 0.047805745 0.081964672
-0.022437787 0.10865702 -0.017638538 -0.28376928 0.62890172 0.72384924 0.16909029
-0.021548701 0.108661 -0.017786326 -0.11109038 -0.94901729 -0.29500011 0.053663187
-0.020744603 0.1086596 -0.017605597 -0.30222225 -0.90553766 -0.29776376 0.029285155
-0.01948297 0.10837077 -0.017671004 -0.44460496 -0.81730783 -0.36651647 0.082332611
-0.018386723 0.10866026 -0.017623682 0.37232733 -0.87612987 -0.30621696 0.074304163
-0.017550306 0.10865518 -0.017500011 0.11038207 -0.99074286 -0.079021059 0.066495702
-0.016540704 0.10847175 -0.017469652 0.91536677 -0.34428442 -0.20873909 0.10710096
-0.015744779 0.10856003 -0.017336888 -0.39791811 -0.87921757 -0.26198784 0.088017009
-0.014308228 0.10847652 -0.017356215 0.34353307 -0.9254728 -0.1596408 0.1389761
-0.013567408 0.10852336 -0.017318103 -0.41689354 -0.90050721 -0.12363896 0.10693841
-0.033463955 0.1094818 -0.017013911 0.40582848 -0.72866255 -0.55168295 0.14607534
-0.032363899 0.10941754 -0.017283194 -0.16764925 -0.97506559 -0.14539877 0.083672643
-0.031662736 0.10942232 -0.017434532 0.099990003 -0.81105888 -0.57635528 0.068193167
-0.029655885 0.10941812 -0.017484635 0.66977054 -0.37274438 -0.64223766 0.12212761
-0.028629219 0.10929686 -0.017567145 -0.64621389 -0.75866199 0.082701378 0.088803008
-0.027592668 0.1096192 -0.017655451 0.72037733 -0.62435365 -0.30205804 0.093556732
-0.026563047 0.10955828 -0.017775806 0.90444231 -0.33706716 -0.26147637 0.090136133
-0.025418593 0.10941262 -0.01776672 0.92915672 0.36582586 0.053284328 0.10045678
-0.024443273 0.10952743 -0.017634362 0.99369198 -0.10597442 -0.036683854 0.076636955
-0.02354563 0.10956308 -0.01762747 0.85162544 0.05663611 0.52108198 0.096401125
-0.02254552 0.10945706 -0.01767482 0.99971759 -0.023492374 -0.0035823851 0.066242903
-0.02134281 0.10946531 -0.017623359 -0.011547274 -0.88871384 -0.45831683 0.083194636
-0.020548617 0.10954673 -0.017530272 0.44188213 -0.84580481 -0.29892209 0.050658751
-0.019473532 0.10947756 -0.017465213 0.63099378 -0.70519489 0.32333753 0.031018771
-0.018573219 0.10944792 -0.017521447 0.10979427 -0.93878722 -0.32653287 0.10256597
-0.017476764 0.10946289 -0.017633598 -0.12057956 -0.12384224 0.98494852 0.067945182
-0.016439945 0.10941508 -0.017345997 0.13832821 -0.74690628 -0.65038162 0.16622557
-0.013502892 0.10913686 -0.017085943 0.13612725 -0.92173058 -0.36315584 0.16236725
-0.032927573 0.11057021 -0.017030098 -0.21262634 0.60596508 0.76654834 0.14503801
-0.031581655 0.11051998 -0.017008474 0.0092349267 -0.74259377 -0.66967845 0.1074627
-0.030606037 0.11055213 -0.017230248 0.93607461 0.32840356 -0.12615635 0.09735252
-0.028399246 0.11060981 -0.017356133 0.12498454 -0.82552618 -0.55035025 0.10358377
-0.027457519 0.11043117 -0.017567158 0.62009847 0.20673105 0.756796 0.068575479
-0.026562054 0.11055431 -0.017432032 0.62412208 -0.48670083 -0.61122328 0.14777452
-0.025334001 0.11070324 -0.01743158 -0.48459479 -0.76616699 -0.42208552 0.09858571
-0.024640642 0.110539 -0.01760412 -0.47610673 -0.77010339 -0.42457414 0.11955287
-0.023434835 0.11060829 -0.017499285 0.81415367 -0.36574364 0.45098263 0.057124913
-0.022476362 0.11062872 -0.017485997 -0.58265108 0.51673102 0.62730122 0.076334156
-0.021322444 0.11063557 -0.017437859 -0.41129681 0.34824276 0.84235489 0.039334841
-0.020587534 0.11072104 -0.017568227 0.52276838 -0.82337147 -0.22084531 0.047440656
-0.019400792 0.11054865 -0.017501706 0.88046056 0.023227731 0.47355008 0.039129011
-0.01861628 0.11054038 -0.017492358 0.91053396 0.36312971 -0.19764806 0.1208849
-0.017863598 0.1105805 -0.017355245 0.86162525 0.41309527 -0.29487994 0.14412506
-0.016605675 0.1104328 -0.017213039 0.85145456 0.44046238 0.28463671 0.071340851
-0.01596408 0.1106724 -0.017230544 -0.35789299 -0.71571785 -0.59971702 0.081447735
-0.031174526 0.11105464 -0.017242398 0.86655027 -0.14712638 -0.47691143 0.085794479
-0.029431097 0.11136585 -0.017274369 0.91439074 -0.23741689 -0.32790649 0.072780341
-0.02884835 0.1110261 -0.017584899 -0.20638292 0.4517464 0.86794662 0.11046208
-0.027661167 0.11157318 -0.017607136 -0.003138066 -0.82802695 -0.5606795 0.094468668
-0.026660651 0.11139334 -0.017575834 0.32835791 -0.91582 0.23120314 0.064803757
-0.025334721 0.11143503 -0.017477842 -0.010525888 -0.5350588 0.84474927 0.065952234
-0.024608016 0.11132132 -0.017346395 -0.3818076 -0.90866828 -0.16895218 0.066522226
-0.023661833 0.11146051 -0.017505735 0.86202651 -0.26479027 0.43219972 0.057222288
-0.022393066 0.11141718 -0.01742089 0.99653828 0.082215324 0.012338819 0.08034382
-0.021309027 0.11155977 -0.017596483 0.23865612 -0.97100943 0.013557094 0.034984354
-0.020433441 0.11128738 -0.017508263 0.48009691 -0.82019532 -0.3111054 0.050497495
-0.019729815 0.11148247 -0.017174192 -0.19170374 -0.92794657 -0.31963232 0.038021699
-0.018454716 0.11165149 -0.017401818 0.97258884 0.21291551 0.093477033 0.15141344
-0.028469319 0.11234378 -0.017442668 -0.29922721 -0.80795425 -0.50761509 0.083533481
-0.027630704 0.11204895 -0.017044473 -0.059088398 0.26553908 0.96228766 0.14516205
-0.026277106 0.11245851 -0.017061464 0.18490158 -0.88121355 -0.43505636 0.068833992
-0.025479913 0.11220623 -0.017398894 -0.55106127 -0.81582725 -0.17537837 0.090392709
-0.024588894 0.112587 -0.017184356 -0.30119249 -0.92511642 0.23117699 0.045232523
-0.022519084 0.11228645 -0.017203379 0.93112069 0.25664976 -0.2591238 0.12257579
-0.021477763 0.11246078 -0.017427608 -0.16846466 -0.93155611 -0.3222155 0.037134271
-0.020498451 0.11217093 -0.017173467 0.55555993 -0.81724274 -0.15319091 0.025520101
-0.019694777 0.11252204 -0.017263103 -0.24475317 -0.9379642 -0.24559945 0.057303496
-0.018328834 0.11225344 -0.017310746 0.94709677 -0.074237891 0.31224427 0.1332034
-0.016715858 0.11240287 -0.017041359 0.95886797 -0.20199665 0.19942299 0.15415359
-0.026518291 0.11317947 -0.017162103 0.94312757 0.33155376 0.024138883 0.082497686
-0.025250167 0.11310861 -0.017149085 0.37258753 0.43785557 0.81820595 0.16666232
-0.024848334 0.11352263 -0.017337076 -0.45419979 -0.67236876 -0.58448499 0.16057275
-0.023072775 0.11301831 -0.017105037 -0.14518438 -0.82909572 0.53992766 0.078536242
-0.022619873 0.11337755 -0.017110556 0.93012112 0.36206186 -0.061529636 0.14758746
-0.020823037 0.11325718 -0.017126456 -0.58648813 -0.61642712 -0.52540386 0.046913777
-0.026798274 0.080731742 -0.016992282 -0.57283342 0.40189385 0.71438313 0.028131759
-0.024950476 0.080911569 -0.016809521 0.038281586 0.066174157 0.99707359 0.01185295
-0.022328429 0.080972724 -0.01671261 0.22213042 0.29458609 0.92944992 0.035360593
-0.021522257 0.080894627 -0.01695686 0.11814591 0.46063516 0.87969136 0.026578438
-0.030317539 0.08181373 -0.016624432 0.039768301 -0.91380292 -0.40420634 0.078511514
-0.029409247 0.081513613 -0.016401833 -0.25108364 0.13273582 0.95882124 0.048137058
-0.028400695 0.081630766 -0.016541261 0.79789037 -0.20865196 -0.5655399 0.016181946
-0.027492965 0.081525847 -0.016451379 0.47864905 0.057595823 0.87611514 0.025145462
-0.026611924 0.081463255 -0.01646501 0.11624742 0.32500324 0.93854111 0.036984392
-0.025586156 0.081374712 -0.01668408 -0.049517859 0.34806097 0.93616325 0.025053497
-0.024177624 0.081413001 -0.016720278 -0.052000184 -0.041548386 0.99778241 0.014016049
-0.023587592 0.081419587 -0.016598497 -0.39323676 0.037244387 0.91868252 0.019454354
-0.022300418 0.081457742 -0.016500108 0.25480059 0.22563717 0.94030023 0.033736568
-0.021514297 0.081486188 -0.016629612 0.13296768 0.50092334 0.85521656 0.028785685
-0.020446548 0.081588052 -0.016615812 -0.032595664 0.33837694 0.94044596 0.016785432
-0.019514952 0.081523888 -0.016609782 0.76444811 -0.059807409 -0.64190501 0.023822179
-0.018542139 0.081625894 -0.016398516 0.91818291 0.087942906 -0.3862721 0.031317778
-0.017549243 0.081733279 -0.016578436 0.92171967 0.089989826 -0.37727278 0.032993533
-0.016881563 0.081709422 -0.016708916 0.86792302 0.22141263 0.444619 0.041855857
-0.033785768 0.082683325 -0.016798174 0.52326423 0.57728112 0.62685013 0.15372974
-0.032634061 0.082527839 -0.016520439 -0.54337263 -0.15102094 0.82579589 0.11092249
-0.031395182 0.082738176 -0.016474467 -0.58238775 0.15103319 0.79875743 0.061039269
-0.030630561 0.08241614 -0.01651649 -0.19497405 0.25606817 0.94679153 0.083224647
-0.029434536 0.082162052 -0.016684823 -0.31636345 0.31696799 0.89411706 0.049708575
-0.028666247 0.082033254 -0.016141899 0.41223198 0.14317849 0.89975816 0.01913147
-0.018195026 0.082156606 -0.016468681 -0.25383988 0.10377108 0.96166366 0.037118793
-0.017247785 0.082589045 -0.016289026 0.76537687 0.37295544 0.52450204 0.036510214
-0.016495997 0.082510047 -0.016566083 -0.57221013 -0.40823209 0.71128213 0.064470261
-0.015531905 0.082661763 -0.01638468 0.45010898 -0.8109737 -0.37379614 0.06649328
-0.014441351 0.082684025 -0.016359592 -0.58051264 0.14634752 0.80099148 0.10935665
-0.035058003 0.083509043 -0.016511202 -0.13868561 0.14949363 0.97898823 0.10791181
-0.034635741 0.083733067 -0.01650409 0.52508211 0.15768957 0.83631504 0.10196126
-0.033444565 0.083505392 -0.016451014 -0.057189722 0.47104567 0.88025296 0.062720753
-0.032728441 0.08327689 -0.016503861 -0.35730585 0.27252886 0.89334238 0.077859975
-0.016117347 0.083183981 -0.016845329 -0.62633252 -0.18268329 0.75784856 0.097490534
-0.015365009 0.083537973 -0.016102485 0.14846353 -0.63282287 0.75993013 0.055716127
-0.014321324 0.083247207 -0.016496042 -0.3165929 0.059357204 0.94670254 0.063254535
-0.013270088 0.083426319 -0.016353941 0.95807809 0.28613555 0.014584592 0.059610561
-0.012500653 0.083415329 -0.016650291 0.6940977 0.43412155 -0.57425332 0.074774243
-0.035349701 0.084602423 -0.016496515 0.5592863 0.062268194 0.82663268 0.097138807
-0.034737948 0.084368125 -0.016536977 0.24021815 0.33523637 0.91099489 0.052934855
-0.033915948 0.084035337 -0.016079457 0.90734184 -0.39095747 -0.15454097 0.11012492
-0.013642608 0.084124327 -0.016467089 -0.42103377 -0.0092804423 0.9069975 0.064988516
-0.012517844 0.084349491 -0.016537245 -0.45328721 -0.62321192 0.63728929 0.050445773
-0.011725821 0.084511437 -0.016742006 0.9961834 -0.084240161 0.022850791 0.081936076
-0.010678527 0.084617838 -0.016616534 0.62372869 0.61975259 -0.47630793 0.1233108
-0.037290484 0.085671842 -0.016529923 0.48666304 0.29408449 0.82260162 0.13714376
-0.036445912 0.085523687 -0.016355051 0.93541443 0.3511979 0.040741228 0.16706191
-0.035703883 0.085270554 -0.016398078 0.86565667 -0.30061337 0.40033743 0.13537388
-0.012242151 0.085169613 -0.016637933 0.83374894 0.40489781 -0.37539375 0.098384127
-0.011559392 0.085089862 -0.01627408 0.95689029 -0.038279664 -0.28791609 0.088130534
-0.010477451 0.085410163 -0.016595786 -0.60043478 -0.46215299 0.65260458 0.074213855
-0.0098430999 0.085654698 -0.01650455 0.89015591 0.39419216 0.22854973 0.12757868
-0.038233586 0.086510852 -0.016768821 0.69677693 0.48921007 0.52457166 0.16137137
-0.036737639 0.086219944 -0.016707454 0.088296525 0.11424498 0.98952109 0.1633953
-0.010523478 0.086184397 -0.016513053 0.84531093 0.4936628 -0.20431949 0.13907807
-0.0075814147 0.086815603 -0.016032258 -0.36251771 -0.91678053 0.16761366 0.090752512
-0.0086035123 0.087572388 -0.016378028 -0.42344117 -0.90589786 -0.0068357587 0.101218
-0.0078826752 0.087754086 -0.016428087 0.29676539 0.45511097 0.83952624 0.051341314
-0.040663019 0.08892706 -0.016399397 -0.37314016 0.11106908 0.92110264 0.12662238
-0.039365735 0.088409632 -0.01659785 -0.35305309 -0.24887982 0.90189379 0.11546858
-0.038411532 0.088429332 -0.016687853 -0.34476355 -0.00049543503 0.93868941 0.15618473
-0.0084711462 0.088454887 -0.016553428 -0.28362292 -0.85740644 0.42943245 0.078318186
-0.0076032416 0.0884194 -0.016567627 -0.57719511 -0.81079513 0.097246997 0.1348666
-0.0068901256 0.088643983 -0.016224887 0.64751744 0.61254853 0.45332706 0.14890946
-0.038850579 0.089518189 -0.01671844 -0.17395738 0.2811428 0.94376773 0.1128284
-0.0084900921 0.089342438 -0.016652085 -0.37830335 -0.80902952 -0.44984204 0.093453027
-0.0075767851 0.089550816 -0.016511472 -0.66780138 -0.74339318 -0.037522849 0.16617748
-0.0069173025 0.089564428 -0.016093455 0.99960083 0.020030638 0.019921361 0.14168482
-0.0058680773 0.089986995 -0.016199717 -0.43183902 -0.62391186 0.65134406 0.15969366
-0.040455263 0.090370409 -0.016413951 -0.030976521 0.16793737 0.98531085 0.14139669
-0.039744787 0.09066236 -0.016367177 -0.5897575 -0.52547222 0.61324143 0.16171277
-0.038863838 0.090976469 -0.01696676 -0.25832424 0.41064566 0.8744362 0.097086683
-0.0064321593 0.090401947 -0.01665763 0.81247669 0.58015656 0.05744461 0.12860382
-0.039605442 0.091612257 -0.01666481 -0.55905962 -0.22150134 0.79899281 0.13295205
-0.0081996946 0.091308184 -0.016880993 0.80989498 0.0026921732 0.58656865 0.13272782
-0.0071967607 0.091330633 -0.016356427 0.18750893 -0.84636384 -0.4985064 0.16970207
-0.0066071511 0.091538697 -0.016561501 -0.14834374 -0.86240238 -0.48400024 0.15602291
-0.040385827 0.092418559 -0.016536906 -0.66067278 0.1934855 0.72531021 0.16760026
-0.039559647 0.092491537 -0.016800582 -0.1797062 0.54061139 0.82185459 0.12992734
-0.0075786435 0.092436813 -0.016668443 0.77473956 0.22674336 0.5902254 0.066303171
-0.0064519243 0.092472032 -0.016328702 0.49377748 0.28761506 0.82064694 0.15110794
-0.0049111899 0.092169881 -0.016191641 0.53137237 0.25143731 0.80896395 0.11746365
-0.041116685 0.093681388 -0.016228985 -0.23835409 -0.38767967 0.8904447 0.10387658
-0.040478364 0.093708813 -0.016590534 -0.061251458 -0.92688465 -0.37031484 0.10047011
-0.039710034 0.093484707 -0.016853139 -0.25263152 -0.88229692 0.39715165 0.096255139
-0.0074230609 0.093523309 -0.016525619 0.57096744 0.21105535 0.79338002 0.11886504
-0.0056184805 0.093428738 -0.016467519 0.73010945 0.26916906 0.62808305 0.153024
-0.041318871 0.094722882 -0.016344655 0.89532048 -0.27113464 0.35339403 0.071125194
-0.040237319 0.094559297 -0.016326804 0.69424802 0.319812 -0.64477909 0.13137414
-0.03988241 0.09431316 -0.016546723 -0.61918533 -0.17857377 0.76467043 0.091777772
-0.0073190611 0.094489299 -0.016443783 0.61852002 0.2351964 0.7497437 0.092496485
-0.0064209122 0.094588645 -0.016352139 0.70686901 0.43431011 0.55831075 0.10158906
-0.0058008134 0.094588988 -0.016086498 0.22569692 0.43092397 0.87370783 0.093013808
-0.041401751 0.095447287 -0.016279185 -0.25265396 -0.15909509 0.95438719 0.12731145
-0.040175349 0.09553396 -0.016820708 0.42507026 0.107698 0.89873046 0.0593438
-0.039770816 0.095457494 -0.016697772 -0.19903776 -0.25251237 0.94690096 0.11434697
-0.007517512 0.095609233 -0.016628128 0.37872717 0.6367293 0.67167068 0.059196912
-0.0066876514 0.095394842 -0.016357124 0.70115513 -0.70331365 -0.11718126 0.12427045
-0.0057138093 0.095526889 -0.016523572 0.54218209 -0.080063954 0.83643782 0.050934661
-0.041542344 0.09645547 -0.016052408 -0.20565821 0.11046384 0.97236955 0.11900418
-0.039800566 0.096643806 -0.016419139 -0.53242916 0.13534807 0.83558369 0.13924387
-0.038976282 0.096844211 -0.016923696 0.94231927 -0.28763223 -0.17117873 0.094502106
-0.0073797032 0.096685871 -0.016624402 0.19391358 -0.49369785 0.84773815 0.11926132
-0.041175779 0.097762451 -0.01618069 0.086586095 -0.21578196 0.97259498 0.10132089
-0.040550359 0.097357444 -0.016424749 -0.59517032 0.044885751 0.8023451 0.13951446
-0.0080749243 0.097492881 -0.01674646 0.97662002 -0.054254185 0.20801394 0.15829159
-0.041024074 0.098873548 -0.016241493 0.91629696 0.22180215 0.33347219 0.15035336
-0.040520173 0.098290622 -0.016625788 0.77765018 0.42796597 -0.46054903 0.13521899
-0.039438069 0.098560698 -0.016691945 -0.5716148 -0.33433712 0.74931651 0.10551634
-0.0083725397 0.098079637 -0.016772902 0.71221364 0.14118899 0.68761712 0.14611018
-0.040620387 0.099162996 -0.016109245 0.78222173 0.047879592 -0.62115753 0.12772486
-0.039543606 0.099604808 -0.016680598 -0.5497942 -0.57134742 0.60933441 0.097729005
-0.038865421 0.099336654 -0.016672436 0.7801308 0.32433271 -0.53498065 0.14150982
-0.0085627604 0.099563688 -0.016695455 0.46861738 0.11723903 0.87558705 0.15811992
-0.0074980725 0.099720657 -0.016247263 0.77629656 0.61721295 0.12810877 0.16177811
-0.0065799691 0.099443354 -0.016267808 0.87607366 -0.27036014 -0.39924976 0.16204298
-0.040374309 0.1006499 -0.016329579 -0.17133687 -0.35958061 0.91724885 0.069468141
-0.039355356 0.10046312 -0.0164221 0.33880007 -0.52636933 0.77983958 0.054995786
-0.038529374 0.10041501 -0.016699508 -0.68744177 -0.025849314 0.72577924 0.14205787
-0.0097496603 0.10031289 -0.016883418 0.83587766 0.1266204 0.53411216 0.082716063
-0.0084707532 0.10055596 -0.016448705 0.56777132 0.1134278 0.8153342 0.16715634
-0.040242337 0.10136203 -0.016300477 -0.074845627 -0.87530482 -0.47774428 0.12260698
-0.039079595 0.10123329 -0.016631668 -0.51111376 -0.46249798 0.72447103 0.078089304
-0.038547762 0.10166492 -0.016495483 -0.14865564 -0.85654086 0.49420556 0.074564524
-0.037333257 0.10192233 -0.0165962 0.77664155 0.39790568 -0.48836362 0.13360815
-0.010475024 0.10179102 -0.016897498 0.2386135 -0.96958899 0.054412644 0.05710993
-0.009277042 0.10154901 -0.016723959 0.84817886 0.014170333 0.52952027 0.08745002
-0.0087415697 0.10153757 -0.016437043 0.77256668 0.0048741507 0.63491493 0.097967669
-0.0075698942 0.10131683 -0.016436525 0.99857891 -0.034363259 -0.040733945 0.076541208
-0.039387293 0.1020139 -0.016217627 0.38971376 0.58786696 0.70889741 0.1420628
-0.038585547 0.10244445 -0.016409898 -0.47198516 -0.017870417 0.88142532 0.085063562
-0.037691884 0.10266595 -0.016690725 0.82235175 0.38122174 -0.42238325 0.097813435
-0.01038671 0.10243542 -0.016728783 0.4587521 -0.87829751 -0.13468464 0.10235797
-0.0093432441 0.10248201 -0.016624968 0.84920877 -0.40112939 0.34342352 0.084858298
-0.03927869 0.10336313 -0.016344775 -0.019195998 0.55766815 0.82984203 0.055932589
-0.038389836 0.10341819 -0.016330078 -0.39898551 0.38494009 0.83224493 0.11383402
-0.03738831 0.10358715 -0.01657597 -0.28407174 -0.92220426 -0.26237851 0.056792334
-0.036643706 0.10352763 -0.016761847 0.35220021 -0.86462009 -0.35831159 0.085999168
-0.011162977 0.10357556 -0.016814364 0.58994782 0.064980671 0.8048225 0.053734653
-0.010367747 0.10334478 -0.016693037 0.8500331 -0.13813971 0.50829226 0.058922365
-0.0093417875 0.10356955 -0.016422581 0.66053408 0.33229655 0.6732561 0.071039677
-0.0086537683 0.10367075 -0.016219372 0.95726538 -0.28441343 0.052458998 0.13594441
-0.0078223627 0.10307401 -0.016264604 0.74288267 -0.054801416 0.6671747 0.13262241
-0.012156013 0.10493276 -0.01664458 0.82799524 -0.25600287 0.49888521 0.14133273
-0.011321273 0.10469931 -0.016624765 0.87220657 0.22646298 0.43355545 0.11681871
-0.010519174 0.10460585 -0.01662725 0.83882666 0.38333744 0.38655171 0.092415392
-0.0094245803 0.10436915 -0.016463337 -0.081131317 -0.99518949 0.05491519 0.060230501
-0.0082715228 0.10447659 -0.016174588 0.89320678 0.34701559 0.28594029 0.11777113
-0.037448306 0.10531236 -0.016609844 -0.15012775 -0.3053107 0.94034404 0.11282301
-0.036630947 0.10555727 -0.016681343 0.0085501783 -0.70579851 0.70836109 0.10973059
-0.03543276 0.10556836 -0.016842062 0.91815758 -0.18905465 -0.34820268 0.13354178
-0.034759361 0.10541612 -0.016970074 0.77890527 -0.36463165 -0.51024544 0.12095584
-0.01232517 0.10520339 -0.016759746 0.5502426 -0.17117529 0.81727117 0.096457317
-0.011556023 0.10536671 -0.016738174 0.85286647 0.26322845 0.45092091 0.12307528
-0.010710938 0.10536738 -0.016422888 0.93897039 0.32434395 -0.11461092 0.10030979
-0.0096324291 0.10543418 -0.016580639 -0.39641768 -0.77852386 -0.48657334 0.091696955
-0.0087302113 0.1051738 -0.016066544 -0.44213811 -0.74966186 -0.49246415 0.13152471
-0.036421455 0.10642645 -0.01644871 0.25239748 0.50690925 0.82421994 0.1626327
-0.035431329 0.10655198 -0.016438263 0.39822036 -0.73133481 -0.55368763 0.095396116
-0.034610081 0.10656997 -0.016527871 0.93707359 0.18755767 -0.29447442 0.076118201
-0.033597097 0.10651831 -0.016983164 -0.037236087 -0.77697694 -0.62842685 0.084025651
-0.015391289 0.1066047 -0.016994016 -0.43116787 -0.72421753 -0.53814793 0.084616117
-0.01400659 0.10644051 -0.01685168 0.23962279 0.5594005 0.79350615 0.090772562
-0.01345484 0.1067475 -0.016733183 0.91242933 -0.37835386 -0.15595219 0.12501483
-0.012467093 0.10655745 -0.01647683 0.98853451 -0.14926268 -0.022807797 0.090856947
-0.011358051 0.10637461 -0.016443158 0.4409456 0.31141099 0.84177792 0.11940114
-0.035574656 0.10731507 -0.016567295 0.48978856 -0.71995318 -0.49170589 0.1093573
-0.034531169 0.10766838 -0.016505208 -0.58464926 -0.72238505 -0.36924931 0.061974645
-0.03336766 0.10745946 -0.016752578 -0.37070814 -0.92662132 -0.062836394 0.080745399
-0.016107919 0.10789689 -0.01698631 -0.17845148 0.64497685 0.74307477 0.11853506
-0.015702736 0.10758968 -0.016857896 0.81484544 0.54581153 0.19523485 0.06187718
-0.014356885 0.10775573 -0.016706213 0.75483716 0.64000076 0.14359659 0.12168902
-0.013499092 0.10752931 -0.016413219 0.097655945 -0.98004687 0.17312275 0.078650028
-0.012509705 0.1076348 -0.01664982 0.88948226 -0.31960866 -0.32660615 0.093154639
-0.011499333 0.10731435 -0.016453892 0.68151343 -0.31680349 0.65967792 0.11125834
-0.010538934 0.10738628 -0.016275644 0.78667092 0.59403741 0.16813193 0.13646254
-0.036439054 0.10813073 -0.016090371 -0.55277294 -0.69222653 -0.46396601 0.12421912
-0.035398036 0.10853648 -0.016325811 0.97321332 0.19977008 -0.11378879 0.071344934
-0.034744691 0.10844318 -0.016357465 0.75658405 -0.38213316 -0.53061736 0.13984373
-0.033556294 0.10851734 -0.01636273 0.94305372 0.21711254 -0.25201547 0.099530339
-0.032424942 0.10858554 -0.01662262 0.7828424 0.55452198 0.2822465 0.10914828
-0.031821445 0.10880371 -0.016727321 -0.057982296 0.61441153 0.78685224 0.067719132
-0.030141763 0.10896737 -0.016724225 0.89035314 0.45101562 0.062098544 0.096035644
-0.017262556 0.10853905 -0.016736299 0.012975083 -0.96988982 -0.24319825 0.095612407
-0.015425919 0.10858089 -0.016828297 -0.36761263 -0.92468679 -0.099071808 0.12964107
-0.012567756 0.10867512 -0.016399255 0.66850555 -0.73419559 -0.11856314 0.054947764
-0.011450116 0.10803295 -0.016729556 0.25862294 -0.78552663 -0.56219399 0.11906395
-0.035102561 0.10971112 -0.016120987 0.73340613 -0.12278488 -0.66860992 0.1302467
-0.034191214 0.109364 -0.016355366 0.74865085 -0.57822067 -0.32431915 0.14251865
-0.033559624 0.10952151 -0.016506841 -0.34274852 -0.87057447 -0.35302061 0.12234323
-0.032666348 0.10959448 -0.016583204 0.92521113 -0.35202318 -0.14164786 0.099495023
-0.031633198 0.10961855 -0.016488401 0.25797442 -0.89193493 -0.37135071 0.084782787
-0.030601516 0.10955125 -0.016702659 0.87101483 0.48914465 0.045505125 0.10218639
-0.018699152 0.10915564 -0.016955487 0.422342 -0.82722473 -0.37057602 0.091122024
-0.017394884 0.10942632 -0.016863653 0.15417805 -0.98736441 -0.036615644 0.063107088
-0.016321598 0.10956013 -0.016519945 -0.18845145 -0.97477812 -0.11955633 0.068703905
-0.015644711 0.10939405 -0.016360527 0.059242137 -0.86850256 -0.49213177 0.12153025
-0.012519434 0.10943985 -0.016380718 0.78540266 -0.60583776 0.12689883 0.10958999
-0.011629669 0.10950025 -0.016381245 0.85703093 -0.46966544 -0.21192534 0.039308634
-0.033455234 0.11036365 -0.016207539 -0.27644628 -0.095628045 0.95625973 0.073918372
-0.031529766 0.11069809 -0.016569182 -0.55654305 0.33072028 0.76215738 0.14263058
-0.030526442 0.11082194 -0.016670022 0.7094593 0.29990199 0.63775104 0.12374777
-0.029598273 0.1105446 -0.016648004 -0.5522567 -0.73440748 -0.39453524 0.13216029
-0.028487213 0.11066636 -0.016681075 0.13313636 -0.78441912 -0.60577327 0.11617099
-0.027954046 0.11045673 -0.016911302 -0.21399426 -0.76789588 -0.6037733 0.068087928
-0.026560869 0.11054876 -0.016858691 0.20082265 -0.81308675 -0.54640657 0.093549348
-0.023060646 0.11064838 -0.016984409 0.79583699 -0.28671277 0.53332841 0.059381291
-0.022338707 0.11061391 -0.016847143 0.7218883 -0.6350621 -0.27490637 0.10450625
-0.020721858 0.11060762 -0.016957581 0.4167501 -0.80573326 -0.42084822 0.050188348
-0.019284163 0.11048079 -0.016739802 0.64747232 -0.68617046 -0.33158645 0.083333716
-0.018361758 0.11038063 -0.016788537 0.69614387 0.47076181 0.54200274 0.076341353
-0.017473761 0.11067929 -0.016549323 0.50577533 0.26717776 0.82024843 0.14251582
-0.016301744 0.11038934 -0.016586149 0.82236248 -0.56678617 -0.049733359 0.066659115
-0.01555847 0.1105009 -0.016392672 0.85638326 -0.13922626 0.49721596 0.044220515
-0.014630733 0.11059582 -0.016352672 0.52147716 -0.79184264 -0.31787887 0.10575436
-0.013070923 0.11037005 -0.016137749 -0.23703161 -0.099478677 0.96639538 0.1408847
-0.032082573 0.11190371 -0.016227063 0.818542 0.57292151 -0.041831002 0.048051618
-0.031245928 0.11181359 -0.016421298 0.82462621 0.54932332 0.13503882 0.055133514
-0.030449452 0.11133133 -0.016714301 0.55685824 0.37653142 0.74036008 0.11006267
-0.029429669 0.11166838 -0.016368002 0.18602772 0.55454022 0.81109732 0.13691303
-0.028309524 0.11176185 -0.0165278 -0.082219996 -0.94602644 -0.31348649 0.038725048
-0.027455915 0.11175875 -0.016396061 0.35702869 0.51090091 0.7819916 0.081675053
-0.026305715 0.1116128 -0.016904905 0.16844957 -0.94149423 -0.29191351 0.099400789
-0.025140874 0.11141418 -0.016732622 -0.60948783 -0.67134678 -0.42168477 0.10711058
-0.024549685 0.11181679 -0.016530583 -0.44633839 -0.76647061 -0.46184945 0.1233844
-0.023176562 0.11127725 -0.016959 0.74862254 -0.51138932 0.4219541 0.06154222
-0.022685597 0.11192562 -0.01663179 0.89261395 -0.42311916 0.15559714 0.084210418
-0.02145852 0.1114958 -0.016697321 0.2706894 -0.96215922 0.031256009 0.036425881
-0.020541761 0.11128069 -0.016753441 0.35149881 -0.91759509 -0.18565537 0.05196099
-0.019586585 0.11165486 -0.016542632 -0.51834899 -0.85225081 -0.070588939 0.047791008
-0.018402413 0.11158706 -0.016473198 0.84981173 0.42668402 0.3094525 0.06409575
-0.017794563 0.11173207 -0.016590318 0.41199487 -0.063216701 0.90899056 0.10967906
-0.016457513 0.11145146 -0.016318694 0.81224018 -0.0045817224 0.58330512 0.060468633
-0.015637865 0.11167505 -0.016482178 0.33258513 0.32306919 0.88600981 0.1576193
-0.013618287 0.11194235 -0.016061375 0.83607721 0.40271515 -0.37255248 0.15224095
-0.031759027 0.11228766 -0.016066264 -0.36118311 -0.87662518 -0.31792313 0.07749033
-0.030481076 0.11265682 -0.016411765 0.89957845 0.41859928 -0.12463242 0.084594108
-0.029410196 0.11246136 -0.01637058 0.98541218 -0.065860607 -0.15692399 0.10870733
-0.028572138 0.11238883 -0.016494378 -0.00742043 0.64465773 0.76443541 0.087538302
-0.027449207 0.11242337 -0.016627725 -0.067871474 -0.86831945 -0.49133983 0.091884263
-0.02656047 0.11233537 -0.016527345 0.0080248117 -0.99219853 0.12440903 0.048242271
-0.025477912 0.11250579 -0.016549872 -0.36225083 -0.69208157 -0.62433767 0.15379059
-0.02450267 0.11252245 -0.016609157 -0.16539271 -0.86718637 0.46971592 0.057332456
-0.022491576 0.1124797 -0.016691003 0.92443466 0.010991214 0.38118213 0.072400957
-0.021385336 0.11245938 -0.016484141 -0.59696001 -0.73976964 -0.31045076 0.060496453
-0.02045414 0.11250334 -0.016559016 -0.055744592 -0.98953205 -0.13311195 0.0394007
-0.019367928 0.1123068 -0.016380141 -0.25201577 0.56804794 0.78345996 0.13224466
-0.018489173 0.11239534 -0.016708162 0.75461775 -0.093686305 0.64944208 0.11175807
-0.017383834 0.11251794 -0.016223367 0.91325623 0.29417348 -0.28182426 0.088586576
-0.016540471 0.11257797 -0.016256109 0.82539386 0.10546175 0.55461949 0.093693882
-0.030332118 0.1130457 -0.016246384 0.80687279 0.27526498 -0.52267146 0.083755963
-0.029444469 0.11347509 -0.01617891 0.6983822 0.61199999 0.37110409 0.098966874
-0.028407503 0.11332792 -0.016425665 0.25464663 -0.72100252 -0.6444459 0.11524807
-0.027681351 0.11344466 -0.016256975 0.55771428 -0.66374928 -0.49838898 0.11608334
-0.026478654 0.11346354 -0.016460888 -0.10869252 -0.89096713 -0.44086674 0.10079063
-0.025630854 0.11358643 -0.01627221 -0.44466689 0.45110705 0.77380478 0.12583198
-0.021639528 0.11352509 -0.01632501 -0.071562931 0.54796618 0.83343375 0.066461451
-0.020318694 0.11360983 -0.016411802 -0.12770493 -0.77523911 -0.61862415 0.079656214
-0.01972156 0.11360238 -0.016353095 0.84863728 -0.45680836 -0.26672229 0.062044449
-0.01866404 0.11352439 -0.016562562 0.5884167 -0.62523901 -0.51268125 0.11875239
-0.017253008 0.1136284 -0.01615824 0.91587764 -0.17792913 -0.35987395 0.10552077
-0.029799286 0.11428182 -0.016017497 -0.40510917 -0.65203124 -0.64089137 0.1424827
-0.027190458 0.11447723 -0.016015988 0.71927434 -0.59129161 -0.36471739 0.099333562
-0.026163228 0.11412236 -0.016136814 -0.47924769 -0.76816261 -0.42455602 0.1359255
-0.025626605 0.11427886 -0.016355272 -0.25789315 -0.89278656 -0.36935553 0.14060649
-0.022497866 0.1144497 -0.016503671 0.78829753 0.49743873 0.36213493 0.15262939
-0.021662652 0.11425458 -0.016268214 0.99947274 0.021208107 -0.024583476 0.09729889
-0.02031564 0.11427927 -0.016130073 0.82680637 -0.4463957 -0.34223109 0.054482307
-0.022784337 0.11567941 -0.016063109 0.81920576 -0.49503082 -0.28956249 0.14049077
-0.028385796 0.080643654 -0.015267851 0.22866456 -0.27959678 0.93249029 0.01928154
-0.027664199 0.080839038 -0.015025897 0.18412194 0.11192042 0.97651058 0.032624334
-0.026088757 0.08042872 -0.015242917 -0.51577044 -0.25166178 0.81893057 0.036888711
-0.02533849 0.080718473 -0.015091425 0.30980903 0.15935045 0.93735033 0.020357324
-0.024438044 0.080812119 -0.015629927 0.72787553 -0.10563971 0.67752314 0.017309206
-0.023445556 0.080656588 -0.015623552 -0.22787294 -0.34356862 0.91106236 0.017588466
-0.022606967 0.0808779 -0.015150765 -0.078816548 -0.41677961 0.90558416 0.024763143
-0.021500766 0.080552459 -0.015257282 0.16704123 -0.57780778 0.79889643 0.02731077
-0.019200036 0.080930114 -0.01530108 0.78979599 -0.29774243 0.53625709 0.06747596
-0.033014882 0.081806183 -0.015402677 -0.35627702 0.04083835 0.93348753 0.094635539
-0.032462217 0.081931122 -0.015453751 -0.15228607 -0.89303637 -0.42343226 0.095407017
-0.031093147 0.081827767 -0.015055859 0.32638717 -0.8494069 -0.41470388 0.11087563
-0.030692646 0.081109405 -0.015321856 -0.43721649 -0.018781502 0.89916015 0.062924296
-0.029669791 0.081708774 -0.015324984 0.39892948 0.41628107 0.81704664 0.025134267
-0.028541271 0.081646308 -0.015561057 0.49492174 -0.037774775 0.86811608 0.032617059
-0.027339794 0.081643611 -0.015397087 0.41334254 -0.28105047 0.86611706 0.022721091
-0.025489246 0.081482112 -0.015635611 -0.14027268 -0.11675382 0.98320508 0.027519071
-0.024404654 0.081285499 -0.015412718 0.79783285 -0.089211479 0.59624159 0.016785212
-0.023676382 0.081253253 -0.015471521 -0.15920836 -0.067974932 0.98490202 0.020352645
-0.022367207 0.081473671 -0.015530554 -0.059536003 -0.053108852 0.9968124 0.040697135
-0.021818785 0.081521712 -0.015813597 0.046820335 -0.16160034 0.98574501 0.060338061
-0.020380804 0.081524096 -0.015334186 -0.23963508 -0.10027887 0.96567029 0.053979691
-0.019480072 0.081550218 -0.015457485 -0.19829711 -0.2524381 0.94707614 0.083737805
-0.018731738 0.081714921 -0.015429896 -0.3842254 0.33176729 0.86156911 0.044768881
-0.017780723 0.081606582 -0.015248856 -0.35435814 0.15895186 0.92150128 0.03476686
-0.016884798 0.081639051 -0.015383286 -0.43048283 -0.47699335 0.76626492 0.043043721
-0.01552419 0.081984907 -0.015003623 -0.66899747 -0.18020763 0.72108781 0.099637575
-0.03222299 0.082491755 -0.015384573 -0.15228625 -0.89303648 -0.42343214 0.095406979
-0.031542193 0.082671121 -0.015566101 -0.21398066 0.20689398 0.95467645 0.094529316
-0.030349687 0.08260826 -0.015358572 0.34994304 -0.11434692 0.92976582 0.059758082
-0.029636079 0.082473785 -0.015390416 0.29878449 0.025391884 0.95398277 0.026193339
-0.028520454 0.082119569 -0.015343901 0.47595417 -0.08942382 0.87491202 0.031120939
-0.019664111 0.082087651 -0.01553255 -0.2310386 -0.014450901 0.97283727 0.068259314
-0.018472223 0.082269453 -0.015425522 0.71617675 0.14025751 -0.6836803 0.030698393
-0.017392738 0.082465418 -0.015443527 0.83249307 0.2086878 -0.51322949 0.036557294
-0.016437827 0.082624324 -0.015471194 0.81403393 0.05739608 -0.5779745 0.079493411
-0.015664505 0.082517564 -0.015652023 -0.59241551 -0.27942577 0.75562227 0.10355755
-0.014544867 0.082757436 -0.015674649 -0.42138121 -0.52417165 0.74005538 0.09235651
-0.013386859 0.082818829 -0.01502358 0.2544274 0.23260328 0.93870258 0.089959651
-0.035374872 0.083137989 -0.015557146 -0.25976565 0.60218191 0.75491631 0.11344849
-0.033623423 0.083602645 -0.015534838 0.84025639 -0.36451662 -0.40136868 0.072314195
-0.032665707 0.083442204 -0.015424632 -0.31492475 0.29174304 0.9031657 0.052776404
-0.03179159 0.083243184 -0.015412034 0.65967894 -0.43785924 -0.6108216 0.06343355
-0.014627654 0.083387196 -0.015551035 0.02589505 0.10909581 0.99369389 0.076272354
-0.013524192 0.083663046 -0.015460576 0.7953831 0.49596244 -0.34840634 0.057144158
-0.012831803 0.083866283 -0.015856082 0.42226607 0.44116706 0.79187316 0.072061345
-0.011294974 0.083866775 -0.015068853 0.77962357 0.57461184 0.24901469 0.10191192
-0.036510184 0.08441069 -0.015319932 0.3747049 0.033668973 0.92653257 0.090947784
-0.035630044 0.084783867 -0.015493661 0.84559053 -0.24931926 -0.47203451 0.1021448
-0.034512833 0.08456897 -0.015454927 -0.40098113 0.46523434 0.7891584 0.032291614
-0.033884324 0.084160462 -0.015595205 0.54258817 -0.60416788 -0.5835917 0.061211698
-0.014328586 0.084061712 -0.015781498 -0.24085015 0.17654505 0.95437044 0.065214589
-0.013495894 0.084583201 -0.015445657 0.94480765 0.31573072 0.087479629 0.076702639
-0.012545677 0.084362462 -0.015449591 0.9521966 0.30314079 -0.037780918 0.10059745
-0.011676399 0.084321491 -0.015287166 0.88152844 0.25016001 -0.40040925 0.068027571
-0.010646967 0.084674329 -0.01554589 0.54075521 0.3221176 0.7770611 0.10590979
-0.0099371355 0.084968738 -0.015567597 0.33031788 0.2727741 0.90359521 0.077600211
-0.036457788 0.085637517 -0.01558653 0.6240266 -0.29525238 0.72347552 0.086414039
-0.035529345 0.085247152 -0.015411437 0.89100718 -0.3569926 -0.28046849 0.096014395
-0.034965619 0.085091203 -0.015997158 -0.41251466 0.60540569 0.680673 0.035203222
-0.012123415 0.085261583 -0.015694907 -0.52055633 -0.37251785 0.7682783 0.083631322
-0.011308055 0.085365534 -0.015688466 0.46350682 0.054963805 0.88438696 0.094496958
-0.010490956 0.085523307 -0.015444512 -0.055393897 0.53225988 0.8447668 0.09748397
-0.0095764454 0.085550852 -0.015372019 -0.1103375 0.37657949 0.91978997 0.098820388
-0.038259167 0.086530179 -0.01529696 0.75399709 0.53559226 -0.38030177 0.12224929
-0.037220966 0.08662089 -0.015450387 0.4106122 -0.43029276 0.80389416 0.073658675
-0.036689907 0.086384885 -0.015422552 0.88860792 0.083059877 0.45108426 0.11389999
-0.010334355 0.086491644 -0.015222794 0.58751452 0.083190992 0.80492604 0.070224829
