ply
format ascii 1.0
comment PCL generated
element vertex 1090
property float x
property float y
property float z
property float nx
property float ny
property float nz
property float curvature
element face 0
element camera 0
property float view_px
property float view_py
property float view_pz
property float x_axisx
property float x_axisy
property float x_axisz
property float y_axisx
property float y_axisy
property float y_axisz
property float z_axisx
property float z_axisy
property float z_axisz
property float focal
property float scalex
property float scaley
property float centerx
property float centery
property int viewportx
property int viewporty
property float k1
property float k2
end_header
-0.022598267 0.055358887 -0.37524414 0 0 0 0
-0.020324707 0.055480957 -0.37646484 0 0 0 0
-0.01802063 0.055633545 -0.37744141 0 0 0 0
-0.015884399 0.056396484 -0.38232422 0 0 0 0
-0.013549805 0.056518555 -0.38330078 0 0 0 0
-0.011169434 0.056518555 -0.38330078 0 0 0 0
-0.0087661743 0.056396484 -0.38232422 0 0 0 0
-0.0063896179 0.056396484 -0.38232422 0 0 0 0
-0.0040130615 0.056396484 -0.38232422 0 0 0 0
-0.0016365051 0.056396484 -0.38232422 0 0 0 0
0.00074005127 0.056396484 -0.38232422 0 0 0 0
0.0031166077 0.056396484 -0.38232422 0 0 0 0
0.0054931641 0.056396484 -0.38232422 0 0 0 0
0.0078887939 0.056518555 -0.38330078 0 0 0 0
0.010269165 0.056518555 -0.38330078 0 0 0 0
0.012687683 0.056671143 -0.38427734 0 0 0 0
0.015113831 0.05682373 -0.38549805 0 0 0 0
0.017501831 0.05682373 -0.38549805 0 0 0 0
0.019958496 0.056976318 -0.38647461 0 0 0 0
0.091247559 0.056518555 -0.38330078 0 0 0 0
0.094116211 0.05682373 -0.38549805 0 0 0 0
0.096252441 0.056671143 -0.38427734 0 0 0 0
0.098693848 0.056671143 -0.38427734 0 0 0 0
0.10076904 0.056518555 -0.38330078 0 0 0 0
0.10314941 0.056518555 -0.38330078 0 0 0 0
0.10559082 0.056518555 -0.38330078 0 0 0 0
0.10797119 0.056518555 -0.38330078 0 0 0 0
0.11035156 0.056518555 -0.38330078 0 0 0 0
0.11297607 0.056671143 -0.38427734 0 0 0 0
0.1159668 0.056976318 -0.38647461 0 0 0 0
0.11932373 0.057434082 -0.3894043 0 0 0 0
0.12176514 0.057434082 -0.3894043 0 0 0 0
-0.031738281 0.052734375 -0.37329102 0 0 0 0
-0.029434204 0.052734375 -0.37329102 0 0 0 0
-0.027114868 0.052734375 -0.37329102 0 0 0 0
-0.024856567 0.052856445 -0.37426758 0 0 0 0
-0.022537231 0.052856445 -0.37426758 0 0 0 0
-0.020263672 0.053009033 -0.37524414 0 0 0 0
-0.01802063 0.053283691 -0.37744141 0 0 0 0
-0.015975952 0.054290771 -0.38427734 0 0 0 0
-0.013587952 0.054290771 -0.38427734 0 0 0 0
-0.011199951 0.054290771 -0.38427734 0 0 0 0
-0.0088119507 0.054290771 -0.38427734 0 0 0 0
-0.0064048767 0.054138184 -0.38330078 0 0 0 0
-0.0040206909 0.054138184 -0.38330078 0 0 0 0
-0.0016403198 0.054138184 -0.38330078 0 0 0 0
0.00074195862 0.054138184 -0.38330078 0 0 0 0
0.0031242371 0.054138184 -0.38330078 0 0 0 0
0.0055046082 0.054138184 -0.38330078 0 0 0 0
0.0079040527 0.054290771 -0.38427734 0 0 0 0
0.010322571 0.054443359 -0.38549805 0 0 0 0
0.012718201 0.054443359 -0.38549805 0 0 0 0
0.015151978 0.05456543 -0.38647461 0 0 0 0
0.017593384 0.054718018 -0.38745117 0 0 0 0
0.020004272 0.054718018 -0.38745117 0 0 0 0
0.091491699 0.054290771 -0.38427734 0 0 0 0
0.094604492 0.054718018 -0.38745117 0 0 0 0
0.096801758 0.05456543 -0.38647461 0 0 0 0
0.098937988 0.054443359 -0.38549805 0 0 0 0
0.10107422 0.054290771 -0.38427734 0 0 0 0
0.10314941 0.054138184 -0.38330078 0 0 0 0
0.10559082 0.054138184 -0.38330078 0 0 0 0
0.10797119 0.054138184 -0.38330078 0 0 0 0
0.1105957 0.054290771 -0.38427734 0 0 0 0
0.11328125 0.054443359 -0.38549805 0 0 0 0
0.1159668 0.05456543 -0.38647461 0 0 0 0
0.11993408 0.055267334 -0.39135742 0 0 0 0
0.19714355 0.051300049 -0.36328125 0 0 0 0
0.19934082 0.051300049 -0.36328125 0 0 0 0
0.2010498 0.051177979 -0.36230469 0 0 0 0
0.20275879 0.051025391 -0.36132812 0 0 0 0
0.20446777 0.050872803 -0.36035156 0 0 0 0
0.20666504 0.050872803 -0.36035156 0 0 0 0
-0.031738281 0.050415039 -0.37329102 0 0 0 0
-0.029434204 0.050415039 -0.37329102 0 0 0 0
-0.027114868 0.050415039 -0.37329102 0 0 0 0
-0.024795532 0.050415039 -0.37329102 0 0 0 0
-0.022476196 0.050415039 -0.37329102 0 0 0 0
-0.020202637 0.050537109 -0.37426758 0 0 0 0
-0.017929077 0.050689697 -0.37524414 0 0 0 0
-0.016143799 0.052429199 -0.38842773 0 0 0 0
-0.013694763 0.052307129 -0.38745117 0 0 0 0
-0.011253357 0.052185059 -0.38647461 0 0 0 0
-0.0088577271 0.052185059 -0.38647461 0 0 0 0
-0.006439209 0.052032471 -0.38549805 0 0 0 0
-0.0040435791 0.052032471 -0.38549805 0 0 0 0
-0.0016450882 0.0519104 -0.38427734 0 0 0 0
0.00074386597 0.0519104 -0.38427734 0 0 0 0
0.0031394958 0.052032471 -0.38549805 0 0 0 0
0.0055351257 0.052032471 -0.38549805 0 0 0 0
0.0079498291 0.052185059 -0.38647461 0 0 0 0
0.010353088 0.052185059 -0.38647461 0 0 0 0
0.012786865 0.052307129 -0.38745117 0 0 0 0
0.015190125 0.052307129 -0.38745117 0 0 0 0
0.01763916 0.052429199 -0.38842773 0 0 0 0
0.020050049 0.052429199 -0.38842773 0 0 0 0
0.094848633 0.05380249 -0.3984375 0 0 0 0
0.095336914 0.052703857 -0.39038086 0 0 0 0
0.097290039 0.052429199 -0.38842773 0 0 0 0
0.099182129 0.052185059 -0.38647461 0 0 0 0
0.10131836 0.052032471 -0.38549805 0 0 0 0
0.10345459 0.0519104 -0.38427734 0 0 0 0
0.10559082 0.051757812 -0.38330078 0 0 0 0
0.10797119 0.051757812 -0.38330078 0 0 0 0
0.1105957 0.0519104 -0.38427734 0 0 0 0
0.11297607 0.0519104 -0.38427734 0 0 0 0
0.11572266 0.052032471 -0.38549805 0 0 0 0
0.12176514 0.053649902 -0.39746094 0 0 0 0
0.19360352 0.049316406 -0.36523438 0 0 0 0
0.19543457 0.049194336 -0.36425781 0 0 0 0
0.19714355 0.049041748 -0.36328125 0 0 0 0
0.19885254 0.048919678 -0.36230469 0 0 0 0
0.20056152 0.048797607 -0.36132812 0 0 0 0
0.20275879 0.048797607 -0.36132812 0 0 0 0
0.20446777 0.04864502 -0.36035156 0 0 0 0
0.20605469 0.048522949 -0.359375 0 0 0 0
0.20776367 0.048370361 -0.35839844 0 0 0 0
0.20935059 0.048248291 -0.35717773 0 0 0 0
0.21154785 0.048248291 -0.35717773 0 0 0 0
-0.029434204 0.048095703 -0.37329102 0 0 0 0
-0.027114868 0.048095703 -0.37329102 0 0 0 0
-0.024795532 0.048095703 -0.37329102 0 0 0 0
-0.022476196 0.048095703 -0.37329102 0 0 0 0
-0.02015686 0.048095703 -0.37329102 0 0 0 0
-0.017883301 0.048217773 -0.37426758 0 0 0 0
-0.016311646 0.050537109 -0.39233398 0 0 0 0
-0.013832092 0.050415039 -0.39135742 0 0 0 0
-0.01134491 0.050170898 -0.3894043 0 0 0 0
-0.0089035034 0.050018311 -0.38842773 0 0 0 0
-0.0064735413 0.04989624 -0.38745117 0 0 0 0
-0.0040550232 0.04977417 -0.38647461 0 0 0 0
-0.0016536713 0.04977417 -0.38647461 0 0 0 0
0.00074768066 0.04977417 -0.38647461 0 0 0 0
0.0031490326 0.04977417 -0.38647461 0 0 0 0
0.0055656433 0.04989624 -0.38745117 0 0 0 0
0.0079727173 0.04989624 -0.38745117 0 0 0 0
0.010406494 0.050018311 -0.38842773 0 0 0 0
0.012817383 0.050018311 -0.38842773 0 0 0 0
0.015274048 0.050170898 -0.3894043 0 0 0 0
0.017730713 0.050292969 -0.39038086 0 0 0 0
0.02015686 0.050292969 -0.39038086 0 0 0 0
0.094848633 0.051330566 -0.3984375 0 0 0 0
0.095825195 0.050537109 -0.39233398 0 0 0 0
0.09753418 0.050170898 -0.3894043 0 0 0 0
0.09942627 0.04989624 -0.38745117 0 0 0 0
0.10131836 0.0496521 -0.38549805 0 0 0 0
0.10345459 0.049499512 -0.38427734 0 0 0 0
0.10559082 0.049377441 -0.38330078 0 0 0 0
0.10797119 0.049377441 -0.38330078 0 0 0 0
0.11035156 0.049377441 -0.38330078 0 0 0 0
0.11273193 0.049377441 -0.38330078 0 0 0 0
0.1151123 0.049377441 -0.38330078 0 0 0 0
0.1907959 0.046936035 -0.36425781 0 0 0 0
0.19311523 0.046936035 -0.36425781 0 0 0 0
0.19482422 0.046783447 -0.36328125 0 0 0 0
0.19714355 0.046783447 -0.36328125 0 0 0 0
0.19885254 0.046661377 -0.36230469 0 0 0 0
0.20056152 0.046539307 -0.36132812 0 0 0 0
0.20214844 0.046417236 -0.36035156 0 0 0 0
0.20385742 0.046264648 -0.359375 0 0 0 0
0.20605469 0.046264648 -0.359375 0 0 0 0
0.20776367 0.046142578 -0.35839844 0 0 0 0
0.20935059 0.046020508 -0.35717773 0 0 0 0
0.21154785 0.046020508 -0.35717773 0 0 0 0
0.21325684 0.045898438 -0.35620117 0 0 0 0
0.2154541 0.045898438 -0.35620117 0 0 0 0
-0.027114868 0.045776367 -0.37329102 0 0 0 0
-0.024795532 0.045776367 -0.37329102 0 0 0 0
-0.016479492 0.048583984 -0.39648438 0 0 0 0
-0.013938904 0.048339844 -0.39453125 0 0 0 0
-0.011428833 0.048095703 -0.39233398 0 0 0 0
-0.0089492798 0.047851562 -0.39038086 0 0 0 0
-0.0065040588 0.047729492 -0.3894043 0 0 0 0
-0.0040740967 0.047607422 -0.38842773 0 0 0 0
-0.001657486 0.047485352 -0.38745117 0 0 0 0
0.00074958801 0.047485352 -0.38745117 0 0 0 0
0.0031642914 0.047607422 -0.38842773 0 0 0 0
0.0055770874 0.047607422 -0.38842773 0 0 0 0
0.0080108643 0.047729492 -0.3894043 0 0 0 0
0.0104599 0.047851562 -0.39038086 0 0 0 0
0.012886047 0.047851562 -0.39038086 0 0 0 0
0.015350342 0.047973633 -0.39135742 0 0 0 0
0.017776489 0.047973633 -0.39135742 0 0 0 0
0.020263672 0.048095703 -0.39233398 0 0 0 0
0.022994995 0.048736572 -0.39746094 0 0 0 0
0.094604492 0.048736572 -0.39746094 0 0 0 0
0.096069336 0.048217773 -0.39331055 0 0 0 0
0.09777832 0.047851562 -0.39038086 0 0 0 0
0.09942627 0.047485352 -0.38745117 0 0 0 0
0.10131836 0.047241211 -0.38549805 0 0 0 0
0.10345459 0.047119141 -0.38427734 0 0 0 0
0.10528564 0.046875 -0.38232422 0 0 0 0
0.10766602 0.046875 -0.38232422 0 0 0 0
0.10974121 0.04675293 -0.38134766 0 0 0 0
0.11212158 0.04675293 -0.38134766 0 0 0 0
0.11450195 0.04675293 -0.38134766 0 0 0 0
0.1862793 0.044647217 -0.36425781 0 0 0 0
0.18859863 0.044647217 -0.36425781 0 0 0 0
0.1907959 0.044647217 -0.36425781 0 0 0 0
0.19262695 0.044525146 -0.36328125 0 0 0 0
0.19482422 0.044525146 -0.36328125 0 0 0 0
0.1965332 0.044403076 -0.36230469 0 0 0 0
0.19824219 0.044281006 -0.36132812 0 0 0 0
0.19995117 0.044158936 -0.36035156 0 0 0 0
0.20214844 0.044158936 -0.36035156 0 0 0 0
0.20385742 0.044036865 -0.359375 0 0 0 0
0.20556641 0.043914795 -0.35839844 0 0 0 0
0.20715332 0.043792725 -0.35717773 0 0 0 0
0.20935059 0.043792725 -0.35717773 0 0 0 0
0.21105957 0.043670654 -0.35620117 0 0 0 0
0.21325684 0.043670654 -0.35620117 0 0 0 0
0.2154541 0.043670654 -0.35620117 0 0 0 0
-0.016601562 0.046478271 -0.39941406 0 0 0 0
-0.014045715 0.046264648 -0.39746094 0 0 0 0
-0.011489868 0.045898438 -0.39453125 0 0 0 0
-0.0089950562 0.045654297 -0.39233398 0 0 0 0
-0.0065231323 0.045440674 -0.39038086 0 0 0 0
-0.0040855408 0.045318604 -0.3894043 0 0 0 0
-0.001666069 0.045318604 -0.3894043 0 0 0 0
0.00075340271 0.045318604 -0.3894043 0 0 0 0
0.0031738281 0.045318604 -0.3894043 0 0 0 0
0.005607605 0.045440674 -0.39038086 0 0 0 0
0.0080490112 0.045562744 -0.39135742 0 0 0 0
0.010482788 0.045562744 -0.39135742 0 0 0 0
0.012954712 0.045654297 -0.39233398 0 0 0 0
0.015388489 0.045654297 -0.39233398 0 0 0 0
0.017868042 0.045776367 -0.39331055 0 0 0 0
0.020370483 0.045898438 -0.39453125 0 0 0 0
0.022994995 0.046264648 -0.39746094 0 0 0 0
0.092834473 0.046600342 -0.40039062 0 0 0 0
0.094360352 0.046142578 -0.39648438 0 0 0 0
0.095825195 0.045654297 -0.39233398 0 0 0 0
0.09753418 0.045318604 -0.3894043 0 0 0 0
0.09942627 0.045074463 -0.38745117 0 0 0 0
0.10107422 0.04473877 -0.38427734 0 0 0 0
0.10314941 0.044616699 -0.38330078 0 0 0 0
0.10498047 0.044372559 -0.38134766 0 0 0 0
0.1071167 0.044250488 -0.38037109 0 0 0 0
0.10943604 0.044250488 -0.38037109 0 0 0 0
0.11151123 0.044158936 -0.37939453 0 0 0 0
0.11358643 0.044036865 -0.37841797 0 0 0 0
0.11499023 0.043670654 -0.37524414 0 0 0 0
0.11700439 0.043579102 -0.37426758 0 0 0 0
0.18408203 0.042388916 -0.36425781 0 0 0 0
0.18579102 0.042266846 -0.36328125 0 0 0 0
0.18811035 0.042266846 -0.36328125 0 0 0 0
0.19030762 0.042266846 -0.36328125 0 0 0 0
0.1920166 0.042175293 -0.36230469 0 0 0 0
0.19433594 0.042175293 -0.36230469 0 0 0 0
0.19604492 0.042053223 -0.36132812 0 0 0 0
0.19775391 0.041931152 -0.36035156 0 0 0 0
0.19995117 0.041931152 -0.36035156 0 0 0 0
0.20166016 0.041809082 -0.359375 0 0 0 0
0.20324707 0.041687012 -0.35839844 0 0 0 0
0.20556641 0.041687012 -0.35839844 0 0 0 0
0.20715332 0.041564941 -0.35717773 0 0 0 0
0.20935059 0.041564941 -0.35717773 0 0 0 0
0.21105957 0.041473389 -0.35620117 0 0 0 0
0.21325684 0.041473389 -0.35620117 0 0 0 0
0.2154541 0.041473389 -0.35620117 0 0 0 0
0.21704102 0.041351318 -0.35522461 0 0 0 0
-0.014122009 0.044006348 -0.39941406 0 0 0 0
-0.011550903 0.043670654 -0.39648438 0 0 0 0
-0.0090179443 0.043334961 -0.39331055 0 0 0 0
-0.0065574646 0.043243408 -0.39233398 0 0 0 0
-0.0041046143 0.043121338 -0.39135742 0 0 0 0
-0.0016708374 0.042999268 -0.39038086 0 0 0 0
0.00075531006 0.042999268 -0.39038086 0 0 0 0
0.0031890869 0.043121338 -0.39135742 0 0 0 0
0.0056228638 0.043121338 -0.39135742 0 0 0 0
0.0080718994 0.043243408 -0.39233398 0 0 0 0
0.010536194 0.043334961 -0.39331055 0 0 0 0
0.012985229 0.043334961 -0.39331055 0 0 0 0
0.015426636 0.043334961 -0.39331055 0 0 0 0
0.017913818 0.043457031 -0.39453125 0 0 0 0
0.02041626 0.043548584 -0.39550781 0 0 0 0
0.022994995 0.043792725 -0.39746094 0 0 0 0
0.092590332 0.044006348 -0.39941406 0 0 0 0
0.09387207 0.043457031 -0.39453125 0 0 0 0
0.095336914 0.042999268 -0.39038086 0 0 0 0
0.097290039 0.042785645 -0.38842773 0 0 0 0
0.098937988 0.042449951 -0.38549805 0 0 0 0
0.10076904 0.042236328 -0.38330078 0 0 0 0
0.10290527 0.042114258 -0.38232422 0 0 0 0
0.10473633 0.041900635 -0.38037109 0 0 0 0
0.10681152 0.041778564 -0.37939453 0 0 0 0
0.10888672 0.041687012 -0.37841797 0 0 0 0
0.11096191 0.041564941 -0.37744141 0 0 0 0
0.11297607 0.041473389 -0.37646484 0 0 0 0
0.11468506 0.041229248 -0.37426758 0 0 0 0
0.11669922 0.041137695 -0.37329102 0 0 0 0
0.11871338 0.041015625 -0.37231445 0 0 0 0
0.17956543 0.040130615 -0.36425781 0 0 0 0
0.18127441 0.040008545 -0.36328125 0 0 0 0
0.18359375 0.040008545 -0.36328125 0 0 0 0
0.18579102 0.040008545 -0.36328125 0 0 0 0
0.1875 0.039916992 -0.36230469 0 0 0 0
0.18981934 0.039916992 -0.36230469 0 0 0 0
0.1920166 0.039916992 -0.36230469 0 0 0 0
0.19372559 0.039794922 -0.36132812 0 0 0 0
0.19543457 0.039703369 -0.36035156 0 0 0 0
0.19775391 0.039703369 -0.36035156 0 0 0 0
0.19934082 0.039581299 -0.359375 0 0 0 0
0.20166016 0.039581299 -0.359375 0 0 0 0
0.20324707 0.039459229 -0.35839844 0 0 0 0
0.20556641 0.039459229 -0.35839844 0 0 0 0
0.20715332 0.039367676 -0.35717773 0 0 0 0
0.20935059 0.039367676 -0.35717773 0 0 0 0
0.21105957 0.039245605 -0.35620117 0 0 0 0
0.21325684 0.039245605 -0.35620117 0 0 0 0
0.21484375 0.039123535 -0.35522461 0 0 0 0
0.21704102 0.039123535 -0.35522461 0 0 0 0
0.21862793 0.039031982 -0.35424805 0 0 0 0
0.2208252 0.039031982 -0.35424805 0 0 0 0
-0.014152527 0.041625977 -0.40039062 0 0 0 0
-0.011581421 0.041320801 -0.39746094 0 0 0 0
-0.0090637207 0.041107178 -0.39550781 0 0 0 0
-0.0065727234 0.040893555 -0.39331055 0 0 0 0
-0.0041160583 0.040802002 -0.39233398 0 0 0 0
-0.0016746521 0.040679932 -0.39135742 0 0 0 0
0.00075912476 0.040802002 -0.39233398 0 0 0 0
0.0031986237 0.040802002 -0.39233398 0 0 0 0
0.0056495667 0.040893555 -0.39331055 0 0 0 0
0.0080947876 0.040893555 -0.39331055 0 0 0 0
0.010566711 0.040985107 -0.39453125 0 0 0 0
0.013015747 0.040985107 -0.39453125 0 0 0 0
0.015472412 0.040985107 -0.39453125 0 0 0 0
0.017913818 0.040985107 -0.39453125 0 0 0 0
0.02041626 0.041107178 -0.39550781 0 0 0 0
0.022994995 0.041320801 -0.39746094 0 0 0 0
0.025650024 0.041625977 -0.40039062 0 0 0 0
0.091674805 0.041107178 -0.39550781 0 0 0 0
0.093200684 0.040679932 -0.39135742 0 0 0 0
0.094848633 0.040374756 -0.38842773 0 0 0 0
0.096801758 0.040161133 -0.38647461 0 0 0 0
0.098693848 0.03994751 -0.38427734 0 0 0 0
0.1005249 0.039733887 -0.38232422 0 0 0 0
0.10266113 0.039642334 -0.38134766 0 0 0 0
0.10443115 0.039428711 -0.37939453 0 0 0 0
0.10650635 0.039337158 -0.37841797 0 0 0 0
0.10858154 0.039215088 -0.37744141 0 0 0 0
0.11065674 0.039123535 -0.37646484 0 0 0 0
0.1126709 0.039001465 -0.37524414 0 0 0 0
0.11468506 0.038909912 -0.37426758 0 0 0 0
0.11639404 0.038696289 -0.37231445 0 0 0 0
0.11871338 0.038696289 -0.37231445 0 0 0 0
0.12072754 0.038604736 -0.37133789 0 0 0 0
0.17724609 0.037872314 -0.36425781 0 0 0 0
0.17907715 0.037750244 -0.36328125 0 0 0 0
0.18127441 0.037750244 -0.36328125 0 0 0 0
0.18359375 0.037750244 -0.36328125 0 0 0 0
0.18530273 0.037658691 -0.36230469 0 0 0 0
0.1875 0.037658691 -0.36230469 0 0 0 0
0.18933105 0.037567139 -0.36132812 0 0 0 0
0.19152832 0.037567139 -0.36132812 0 0 0 0
0.1932373 0.037445068 -0.36035156 0 0 0 0
0.19543457 0.037445068 -0.36035156 0 0 0 0
0.19714355 0.037353516 -0.359375 0 0 0 0
0.19934082 0.037353516 -0.359375 0 0 0 0
0.2010498 0.037231445 -0.35839844 0 0 0 0
0.20324707 0.037231445 -0.35839844 0 0 0 0
0.20556641 0.037231445 -0.35839844 0 0 0 0
0.20715332 0.037139893 -0.35717773 0 0 0 0
0.20935059 0.037139893 -0.35717773 0 0 0 0
0.21105957 0.037017822 -0.35620117 0 0 0 0
0.21643066 0.036834717 -0.35424805 0 0 0 0
0.21801758 0.036712646 -0.35327148 0 0 0 0
0.22021484 0.036712646 -0.35327148 0 0 0 0
0.22241211 0.036712646 -0.35327148 0 0 0 0
-0.011604309 0.03894043 -0.3984375 0 0 0 0
-0.0090866089 0.038757324 -0.39648438 0 0 0 0
-0.0065879822 0.038543701 -0.39453125 0 0 0 0
-0.0041275024 0.038452148 -0.39331055 0 0 0 0
-0.0016832352 0.038452148 -0.39331055 0 0 0 0
0.00076150894 0.038452148 -0.39331055 0 0 0 0
0.0032062531 0.038452148 -0.39331055 0 0 0 0
0.0056648254 0.038543701 -0.39453125 0 0 0 0
0.0081176758 0.038543701 -0.39453125 0 0 0 0
0.0105896 0.038635254 -0.39550781 0 0 0 0
0.013053894 0.038635254 -0.39550781 0 0 0 0
0.015510559 0.038635254 -0.39550781 0 0 0 0
0.017959595 0.038635254 -0.39550781 0 0 0 0
0.02041626 0.038635254 -0.39550781 0 0 0 0
0.02293396 0.038757324 -0.39648438 0 0 0 0
0.025527954 0.03894043 -0.3984375 0 0 0 0
0.028152466 0.039123535 -0.40039062 0 0 0 0
0.090759277 0.038238525 -0.39135742 0 0 0 0
0.092468262 0.037963867 -0.38842773 0 0 0 0
0.094360352 0.037750244 -0.38647461 0 0 0 0
0.096557617 0.037658691 -0.38549805 0 0 0 0
0.098388672 0.037475586 -0.38330078 0 0 0 0
0.10028076 0.037261963 -0.38134766 0 0 0 0
0.10235596 0.03717041 -0.38037109 0 0 0 0
0.10418701 0.036987305 -0.37841797 0 0 0 0
0.10626221 0.036865234 -0.37744141 0 0 0 0
0.10827637 0.036773682 -0.37646484 0 0 0 0
0.11035156 0.036682129 -0.37524414 0 0 0 0
0.1126709 0.036682129 -0.37524414 0 0 0 0
0.11437988 0.036499023 -0.37329102 0 0 0 0
0.11639404 0.036376953 -0.37231445 0 0 0 0
0.1184082 0.0362854 -0.37133789 0 0 0 0
0.12072754 0.0362854 -0.37133789 0 0 0 0
0.17456055 0.035491943 -0.36328125 0 0 0 0
0.17675781 0.035491943 -0.36328125 0 0 0 0
0.17907715 0.035491943 -0.36328125 0 0 0 0
0.18078613 0.035400391 -0.36230469 0 0 0 0
0.18310547 0.035400391 -0.36230469 0 0 0 0
0.18481445 0.035308838 -0.36132812 0 0 0 0
0.18701172 0.035308838 -0.36132812 0 0 0 0
0.1887207 0.035217285 -0.36035156 0 0 0 0
0.19104004 0.035217285 -0.36035156 0 0 0 0
0.19274902 0.035125732 -0.359375 0 0 0 0
0.19494629 0.035125732 -0.359375 0 0 0 0
0.19714355 0.035125732 -0.359375 0 0 0 0
0.19885254 0.035003662 -0.35839844 0 0 0 0
0.2010498 0.035003662 -0.35839844 0 0 0 0
0.20324707 0.035003662 -0.35839844 0 0 0 0
0.20556641 0.035003662 -0.35839844 0 0 0 0
0.20715332 0.034912109 -0.35717773 0 0 0 0
0.20935059 0.034912109 -0.35717773 0 0 0 0
0.21582031 0.034515381 -0.35327148 0 0 0 0
0.21801758 0.034515381 -0.35327148 0 0 0 0
0.22021484 0.034515381 -0.35327148 0 0 0 0
0.22241211 0.034515381 -0.35327148 0 0 0 0
0.22460938 0.034515381 -0.35327148 0 0 0 0
-0.011634827 0.036560059 -0.39941406 0 0 0 0
-0.0091094971 0.036376953 -0.39746094 0 0 0 0
-0.0066070557 0.036193848 -0.39550781 0 0 0 0
-0.0041389465 0.036102295 -0.39453125 0 0 0 0
-0.0016832352 0.036010742 -0.39331055 0 0 0 0
0.00076150894 0.036010742 -0.39331055 0 0 0 0
0.0032138824 0.036102295 -0.39453125 0 0 0 0
0.0056800842 0.036193848 -0.39550781 0 0 0 0
0.0081329346 0.036193848 -0.39550781 0 0 0 0
0.010620117 0.0362854 -0.39648438 0 0 0 0
0.013084412 0.0362854 -0.39648438 0 0 0 0
0.015510559 0.036193848 -0.39550781 0 0 0 0
0.017959595 0.036193848 -0.39550781 0 0 0 0
0.02041626 0.036193848 -0.39550781 0 0 0 0
0.022872925 0.036193848 -0.39550781 0 0 0 0
0.025405884 0.0362854 -0.39648438 0 0 0 0
0.027938843 0.036376953 -0.39746094 0 0 0 0
0.030563354 0.036560059 -0.39941406 0 0 0 0
0.089782715 0.035461426 -0.38745117 0 0 0 0
0.09197998 0.035369873 -0.38647461 0 0 0 0
0.094116211 0.03527832 -0.38549805 0 0 0 0
0.096008301 0.035095215 -0.38330078 0 0 0 0
0.098144531 0.035003662 -0.38232422 0 0 0 0
0.099975586 0.034820557 -0.38037109 0 0 0 0
0.10211182 0.034729004 -0.37939453 0 0 0 0
0.10418701 0.034637451 -0.37841797 0 0 0 0
0.10626221 0.034545898 -0.37744141 0 0 0 0
0.10827637 0.034454346 -0.37646484 0 0 0 0
0.11035156 0.034362793 -0.37524414 0 0 0 0
0.11236572 0.03427124 -0.37426758 0 0 0 0
0.11437988 0.034179688 -0.37329102 0 0 0 0
0.11639404 0.034088135 -0.37231445 0 0 0 0
0.11871338 0.034088135 -0.37231445 0 0 0 0
0.12072754 0.033996582 -0.37133789 0 0 0 0
0.17224121 0.033233643 -0.36328125 0 0 0 0
0.17407227 0.03314209 -0.36230469 0 0 0 0
0.17626953 0.03314209 -0.36230469 0 0 0 0
0.17858887 0.03314209 -0.36230469 0 0 0 0
0.18029785 0.033050537 -0.36132812 0 0 0 0
0.18249512 0.033050537 -0.36132812 0 0 0 0
0.18432617 0.032958984 -0.36035156 0 0 0 0
0.18652344 0.032958984 -0.36035156 0 0 0 0
0.18823242 0.032867432 -0.359375 0 0 0 0
0.19042969 0.032867432 -0.359375 0 0 0 0
0.19274902 0.032867432 -0.359375 0 0 0 0
0.19433594 0.032775879 -0.35839844 0 0 0 0
0.19665527 0.032775879 -0.35839844 0 0 0 0
0.19885254 0.032775879 -0.35839844 0 0 0 0
0.2010498 0.032775879 -0.35839844 0 0 0 0
0.20324707 0.032775879 -0.35839844 0 0 0 0
0.20556641 0.032775879 -0.35839844 0 0 0 0
0.2130127 0.032226562 -0.35229492 0 0 0 0
0.21520996 0.032226562 -0.35229492 0 0 0 0
0.21740723 0.032226562 -0.35229492 0 0 0 0
0.21960449 0.032226562 -0.35229492 0 0 0 0
0.22180176 0.032226562 -0.35229492 0 0 0 0
0.22399902 0.032226562 -0.35229492 0 0 0 0
0.22619629 0.032226562 -0.35229492 0 0 0 0
-0.011665344 0.03414917 -0.40039062 0 0 0 0
-0.0091094971 0.033905029 -0.39746094 0 0 0 0
-0.0066223145 0.033813477 -0.39648438 0 0 0 0
-0.0041389465 0.033630371 -0.39453125 0 0 0 0
-0.0016880035 0.033630371 -0.39453125 0 0 0 0
0.00076341629 0.033630371 -0.39453125 0 0 0 0
0.0032138824 0.033630371 -0.39453125 0 0 0 0
0.0056800842 0.033721924 -0.39550781 0 0 0 0
0.0081558228 0.033813477 -0.39648438 0 0 0 0
0.010620117 0.033813477 -0.39648438 0 0 0 0
0.013084412 0.033813477 -0.39648438 0 0 0 0
0.015510559 0.033721924 -0.39550781 0 0 0 0
0.017959595 0.033721924 -0.39550781 0 0 0 0
0.020370483 0.033630371 -0.39453125 0 0 0 0
0.022827148 0.033630371 -0.39453125 0 0 0 0
0.02532959 0.033721924 -0.39550781 0 0 0 0
0.027786255 0.033721924 -0.39550781 0 0 0 0
0.030334473 0.033813477 -0.39648438 0 0 0 0
0.032714844 0.033721924 -0.39550781 0 0 0 0
0.087158203 0.032958984 -0.38647461 0 0 0 0
0.089599609 0.032958984 -0.38647461 0 0 0 0
0.09173584 0.032867432 -0.38549805 0 0 0 0
0.09387207 0.032775879 -0.38427734 0 0 0 0
0.09576416 0.032623291 -0.38232422 0 0 0 0
0.097900391 0.032531738 -0.38134766 0 0 0 0
0.099975586 0.032440186 -0.38037109 0 0 0 0
0.10180664 0.032287598 -0.37841797 0 0 0 0
0.10388184 0.032196045 -0.37744141 0 0 0 0
0.10626221 0.032196045 -0.37744141 0 0 0 0
0.10827637 0.032104492 -0.37646484 0 0 0 0
0.11035156 0.032012939 -0.37524414 0 0 0 0
0.11236572 0.031921387 -0.37426758 0 0 0 0
0.11468506 0.031921387 -0.37426758 0 0 0 0
0.11669922 0.031829834 -0.37329102 0 0 0 0
0.11871338 0.031768799 -0.37231445 0 0 0 0
0.12072754 0.031677246 -0.37133789 0 0 0 0
0.17175293 0.030914307 -0.36230469 0 0 0 0
0.17407227 0.030914307 -0.36230469 0 0 0 0
0.17626953 0.030914307 -0.36230469 0 0 0 0
0.17810059 0.030822754 -0.36132812 0 0 0 0
0.18029785 0.030822754 -0.36132812 0 0 0 0
0.18200684 0.03074646 -0.36035156 0 0 0 0
0.18432617 0.03074646 -0.36035156 0 0 0 0
0.18603516 0.030654907 -0.359375 0 0 0 0
0.18823242 0.030654907 -0.359375 0 0 0 0
0.18994141 0.030563354 -0.35839844 0 0 0 0
0.19213867 0.030563354 -0.35839844 0 0 0 0
0.19433594 0.030563354 -0.35839844 0 0 0 0
0.19665527 0.030563354 -0.35839844 0 0 0 0
0.19885254 0.030563354 -0.35839844 0 0 0 0
0.2010498 0.030563354 -0.35839844 0 0 0 0
0.20324707 0.030563354 -0.35839844 0 0 0 0
0.2130127 0.030059814 -0.35229492 0 0 0 0
0.21520996 0.030059814 -0.35229492 0 0 0 0
0.21740723 0.030059814 -0.35229492 0 0 0 0
0.21960449 0.030059814 -0.35229492 0 0 0 0
0.22180176 0.030059814 -0.35229492 0 0 0 0
0.22399902 0.030059814 -0.35229492 0 0 0 0
0.22619629 0.030059814 -0.35229492 0 0 0 0
-0.011665344 0.031677246 -0.40039062 0 0 0 0
-0.0091323853 0.031524658 -0.3984375 0 0 0 0
-0.0066223145 0.031341553 -0.39648438 0 0 0 0
-0.0041389465 0.031204224 -0.39453125 0 0 0 0
-0.0016880035 0.031204224 -0.39453125 0 0 0 0
0.00076341629 0.031204224 -0.39453125 0 0 0 0
0.0032215118 0.031280518 -0.39550781 0 0 0 0
0.005695343 0.031341553 -0.39648438 0 0 0 0
0.0081558228 0.031341553 -0.39648438 0 0 0 0
0.010643005 0.031433105 -0.39746094 0 0 0 0
0.013084412 0.031341553 -0.39648438 0 0 0 0
0.015548706 0.031341553 -0.39648438 0 0 0 0
0.017959595 0.031280518 -0.39550781 0 0 0 0
0.020370483 0.031204224 -0.39453125 0 0 0 0
0.022827148 0.031204224 -0.39453125 0 0 0 0
0.025268555 0.031204224 -0.39453125 0 0 0 0
0.027648926 0.031112671 -0.39331055 0 0 0 0
0.030181885 0.031204224 -0.39453125 0 0 0 0
0.032531738 0.031112671 -0.39331055 0 0 0 0
0.035064697 0.031204224 -0.39453125 0 0 0 0
0.086975098 0.030487061 -0.38549805 0 0 0 0
0.089355469 0.030487061 -0.38549805 0 0 0 0
0.091491699 0.030410767 -0.38427734 0 0 0 0
0.09362793 0.030319214 -0.38330078 0 0 0 0
0.09552002 0.030166626 -0.38134766 0 0 0 0
0.09765625 0.030090332 -0.38037109 0 0 0 0
0.099731445 0.030014038 -0.37939453 0 0 0 0
0.10180664 0.029922485 -0.37841797 0 0 0 0
0.10388184 0.029846191 -0.37744141 0 0 0 0
0.10595703 0.029769897 -0.37646484 0 0 0 0
0.10827637 0.029769897 -0.37646484 0 0 0 0
0.11035156 0.029693604 -0.37524414 0 0 0 0
0.1126709 0.029693604 -0.37524414 0 0 0 0
0.11468506 0.02961731 -0.37426758 0 0 0 0
0.11669922 0.029525757 -0.37329102 0 0 0 0
0.11871338 0.029449463 -0.37231445 0 0 0 0
0.16955566 0.028656006 -0.36230469 0 0 0 0
0.17175293 0.028656006 -0.36230469 0 0 0 0
0.17358398 0.028579712 -0.36132812 0 0 0 0
0.17578125 0.028579712 -0.36132812 0 0 0 0
0.1776123 0.028503418 -0.36035156 0 0 0 0
0.17980957 0.028503418 -0.36035156 0 0 0 0
0.18151855 0.028427124 -0.359375 0 0 0 0
0.18371582 0.028427124 -0.359375 0 0 0 0
0.1854248 0.028335571 -0.35839844 0 0 0 0
0.18774414 0.028335571 -0.35839844 0 0 0 0
0.18994141 0.028335571 -0.35839844 0 0 0 0
0.19213867 0.028335571 -0.35839844 0 0 0 0
0.19433594 0.028335571 -0.35839844 0 0 0 0
0.19665527 0.028335571 -0.35839844 0 0 0 0
0.19885254 0.028335571 -0.35839844 0 0 0 0
0.21020508 0.027786255 -0.35131836 0 0 0 0
0.21240234 0.027786255 -0.35131836 0 0 0 0
0.21459961 0.027786255 -0.35131836 0 0 0 0
0.21679688 0.027786255 -0.35131836 0 0 0 0
0.21899414 0.027786255 -0.35131836 0 0 0 0
0.22180176 0.027862549 -0.35229492 0 0 0 0
0.22399902 0.027862549 -0.35229492 0 0 0 0
0.22619629 0.027862549 -0.35229492 0 0 0 0
0.22766113 0.027786255 -0.35131836 0 0 0 0
-0.011665344 0.029190063 -0.40039062 0 0 0 0
-0.0091094971 0.028961182 -0.39746094 0 0 0 0
-0.0066070557 0.028823853 -0.39550781 0 0 0 0
-0.0041389465 0.028747559 -0.39453125 0 0 0 0
-0.0016880035 0.028747559 -0.39453125 0 0 0 0
0.00076341629 0.028747559 -0.39453125 0 0 0 0
0.0032138824 0.028747559 -0.39453125 0 0 0 0
0.005695343 0.028900146 -0.39648438 0 0 0 0
0.0081787109 0.028961182 -0.39746094 0 0 0 0
0.010643005 0.028961182 -0.39746094 0 0 0 0
0.013114929 0.028961182 -0.39746094 0 0 0 0
0.015548706 0.028900146 -0.39648438 0 0 0 0
0.017959595 0.028823853 -0.39550781 0 0 0 0
0.02041626 0.028823853 -0.39550781 0 0 0 0
0.022827148 0.028747559 -0.39453125 0 0 0 0
0.02520752 0.028671265 -0.39331055 0 0 0 0
0.027587891 0.028594971 -0.39233398 0 0 0 0
0.030014038 0.028594971 -0.39233398 0 0 0 0
0.032440186 0.028594971 -0.39233398 0 0 0 0
0.035064697 0.028747559 -0.39453125 0 0 0 0
0.086730957 0.028015137 -0.38427734 0 0 0 0
0.089111328 0.028015137 -0.38427734 0 0 0 0
0.091247559 0.027938843 -0.38330078 0 0 0 0
0.093383789 0.027862549 -0.38232422 0 0 0 0
0.09552002 0.027801514 -0.38134766 0 0 0 0
0.09765625 0.02772522 -0.38037109 0 0 0 0
0.099731445 0.027648926 -0.37939453 0 0 0 0
0.10180664 0.027572632 -0.37841797 0 0 0 0
0.10388184 0.027511597 -0.37744141 0 0 0 0
0.10595703 0.027435303 -0.37646484 0 0 0 0
0.10827637 0.027435303 -0.37646484 0 0 0 0
0.11035156 0.027359009 -0.37524414 0 0 0 0
0.1126709 0.027359009 -0.37524414 0 0 0 0
0.11468506 0.027282715 -0.37426758 0 0 0 0
0.11700439 0.027282715 -0.37426758 0 0 0 0
0.16723633 0.026412964 -0.36230469 0 0 0 0
0.16906738 0.02633667 -0.36132812 0 0 0 0
0.17126465 0.02633667 -0.36132812 0 0 0 0
0.17358398 0.02633667 -0.36132812 0 0 0 0
0.17529297 0.026260376 -0.36035156 0 0 0 0
0.17700195 0.026184082 -0.359375 0 0 0 0
0.17932129 0.026184082 -0.359375 0 0 0 0
0.18103027 0.026107788 -0.35839844 0 0 0 0
0.18322754 0.026107788 -0.35839844 0 0 0 0
0.1854248 0.026107788 -0.35839844 0 0 0 0
0.18774414 0.026107788 -0.35839844 0 0 0 0
0.18994141 0.026107788 -0.35839844 0 0 0 0
0.19213867 0.026107788 -0.35839844 0 0 0 0
0.19433594 0.026107788 -0.35839844 0 0 0 0
0.19665527 0.026107788 -0.35839844 0 0 0 0
0.20739746 0.025527954 -0.3503418 0 0 0 0
0.20959473 0.025527954 -0.3503418 0 0 0 0
0.21240234 0.025604248 -0.35131836 0 0 0 0
0.21459961 0.025604248 -0.35131836 0 0 0 0
0.21679688 0.025604248 -0.35131836 0 0 0 0
0.21899414 0.025604248 -0.35131836 0 0 0 0
0.22119141 0.025604248 -0.35131836 0 0 0 0
0.2232666 0.025604248 -0.35131836 0 0 0 0
0.22546387 0.025604248 -0.35131836 0 0 0 0
0.22766113 0.025604248 -0.35131836 0 0 0 0
-0.011634827 0.026626587 -0.39941406 0 0 0 0
-0.0090866089 0.026428223 -0.39648438 0 0 0 0
-0.0065879822 0.026290894 -0.39453125 0 0 0 0
-0.0041275024 0.026229858 -0.39331055 0 0 0 0
-0.0016832352 0.026229858 -0.39331055 0 0 0 0
0.00076150894 0.026229858 -0.39331055 0 0 0 0
0.0032138824 0.026290894 -0.39453125 0 0 0 0
0.005695343 0.026428223 -0.39648438 0 0 0 0
0.0081787109 0.026504517 -0.39746094 0 0 0 0
0.010673523 0.026565552 -0.3984375 0 0 0 0
0.013153076 0.026565552 -0.3984375 0 0 0 0
0.015586853 0.026504517 -0.39746094 0 0 0 0
0.018005371 0.026428223 -0.39648438 0 0 0 0
0.02041626 0.026367188 -0.39550781 0 0 0 0
0.022872925 0.026367188 -0.39550781 0 0 0 0
0.025268555 0.026290894 -0.39453125 0 0 0 0
0.027587891 0.026168823 -0.39233398 0 0 0 0
0.030014038 0.026168823 -0.39233398 0 0 0 0
0.032440186 0.026168823 -0.39233398 0 0 0 0
0.086730957 0.025634766 -0.38427734 0 0 0 0
0.088867188 0.025558472 -0.38330078 0 0 0 0
0.091003418 0.025497437 -0.38232422 0 0 0 0
0.093139648 0.025421143 -0.38134766 0 0 0 0
0.095275879 0.025360107 -0.38037109 0 0 0 0
0.097351074 0.025299072 -0.37939453 0 0 0 0
0.099487305 0.025222778 -0.37841797 0 0 0 0
0.1015625 0.025161743 -0.37744141 0 0 0 0
0.1036377 0.025085449 -0.37646484 0 0 0 0
0.10595703 0.025085449 -0.37646484 0 0 0 0
0.10803223 0.025024414 -0.37524414 0 0 0 0
0.11035156 0.025024414 -0.37524414 0 0 0 0
0.1126709 0.025024414 -0.37524414 0 0 0 0
0.11499023 0.025024414 -0.37524414 0 0 0 0
0.11700439 0.024963379 -0.37426758 0 0 0 0
0.16455078 0.024093628 -0.36132812 0 0 0 0
0.16687012 0.024093628 -0.36132812 0 0 0 0
0.16906738 0.024093628 -0.36132812 0 0 0 0
0.17077637 0.024017334 -0.36035156 0 0 0 0
0.1730957 0.024017334 -0.36035156 0 0 0 0
0.17480469 0.023956299 -0.359375 0 0 0 0
0.17700195 0.023956299 -0.359375 0 0 0 0
0.17883301 0.023880005 -0.35839844 0 0 0 0
0.18103027 0.023880005 -0.35839844 0 0 0 0
0.18273926 0.02381897 -0.35717773 0 0 0 0
0.18493652 0.02381897 -0.35717773 0 0 0 0
0.18713379 0.02381897 -0.35717773 0 0 0 0
0.18945312 0.02381897 -0.35717773 0 0 0 0
0.19213867 0.023880005 -0.35839844 0 0 0 0
0.19433594 0.023880005 -0.35839844 0 0 0 0
0.203125 0.023345947 -0.3503418 0 0 0 0
0.20532227 0.023345947 -0.3503418 0 0 0 0
0.20739746 0.023345947 -0.3503418 0 0 0 0
0.20959473 0.023345947 -0.3503418 0 0 0 0
0.21179199 0.023345947 -0.3503418 0 0 0 0
0.21459961 0.023422241 -0.35131836 0 0 0 0
0.21679688 0.023422241 -0.35131836 0 0 0 0
0.21899414 0.023422241 -0.35131836 0 0 0 0
0.22119141 0.023422241 -0.35131836 0 0 0 0
0.2232666 0.023422241 -0.35131836 0 0 0 0
0.22546387 0.023422241 -0.35131836 0 0 0 0
0.22766113 0.023422241 -0.35131836 0 0 0 0
-0.011604309 0.024093628 -0.3984375 0 0 0 0
-0.0090637207 0.023910522 -0.39550781 0 0 0 0
-0.0065727234 0.023788452 -0.39331055 0 0 0 0
-0.0041160583 0.023727417 -0.39233398 0 0 0 0
-0.0016794205 0.023727417 -0.39233398 0 0 0 0
0.00075912476 0.023727417 -0.39233398 0 0 0 0
0.0032062531 0.023788452 -0.39331055 0 0 0 0
0.005695343 0.023971558 -0.39648438 0 0 0 0
0.0081939697 0.024093628 -0.3984375 0 0 0 0
0.010704041 0.024154663 -0.39941406 0 0 0 0
0.013183594 0.024154663 -0.39941406 0 0 0 0
0.015655518 0.024154663 -0.39941406 0 0 0 0
0.018096924 0.024093628 -0.3984375 0 0 0 0
0.020523071 0.024032593 -0.39746094 0 0 0 0
0.02293396 0.023971558 -0.39648438 0 0 0 0
0.025405884 0.023971558 -0.39648438 0 0 0 0
0.027648926 0.023788452 -0.39331055 0 0 0 0
0.030014038 0.023727417 -0.39233398 0 0 0 0
0.086486816 0.023178101 -0.38330078 0 0 0 0
0.088623047 0.023117065 -0.38232422 0 0 0 0
0.090759277 0.02305603 -0.38134766 0 0 0 0
0.092895508 0.022994995 -0.38037109 0 0 0 0
0.095031738 0.02293396 -0.37939453 0 0 0 0
0.097106934 0.022872925 -0.37841797 0 0 0 0
0.099182129 0.02281189 -0.37744141 0 0 0 0
0.1015625 0.02281189 -0.37744141 0 0 0 0
0.1036377 0.022750854 -0.37646484 0 0 0 0
0.10565186 0.022689819 -0.37524414 0 0 0 0
0.10803223 0.022689819 -0.37524414 0 0 0 0
0.11035156 0.022689819 -0.37524414 0 0 0 0
0.1126709 0.022689819 -0.37524414 0 0 0 0
0.11499023 0.022689819 -0.37524414 0 0 0 0
0.11737061 0.022689819 -0.37524414 0 0 0 0
0.16003418 0.021835327 -0.36132812 0 0 0 0
0.16235352 0.021835327 -0.36132812 0 0 0 0
0.16455078 0.021835327 -0.36132812 0 0 0 0
0.16638184 0.021774292 -0.36035156 0 0 0 0
0.1685791 0.021774292 -0.36035156 0 0 0 0
0.17041016 0.021713257 -0.359375 0 0 0 0
0.17260742 0.021713257 -0.359375 0 0 0 0
0.17431641 0.02166748 -0.35839844 0 0 0 0
0.17651367 0.02166748 -0.35839844 0 0 0 0
0.17834473 0.021606445 -0.35717773 0 0 0 0
0.18054199 0.021606445 -0.35717773 0 0 0 0
0.18273926 0.021606445 -0.35717773 0 0 0 0
0.18493652 0.021606445 -0.35717773 0 0 0 0
0.18713379 0.021606445 -0.35717773 0 0 0 0
0.18945312 0.021606445 -0.35717773 0 0 0 0
0.19165039 0.021606445 -0.35717773 0 0 0 0
0.20092773 0.021179199 -0.3503418 0 0 0 0
0.203125 0.021179199 -0.3503418 0 0 0 0
0.20532227 0.021179199 -0.3503418 0 0 0 0
0.20739746 0.021179199 -0.3503418 0 0 0 0
0.20959473 0.021179199 -0.3503418 0 0 0 0
0.21179199 0.021179199 -0.3503418 0 0 0 0
0.21398926 0.021179199 -0.3503418 0 0 0 0
0.21679688 0.021240234 -0.35131836 0 0 0 0
0.21899414 0.021240234 -0.35131836 0 0 0 0
0.22119141 0.021240234 -0.35131836 0 0 0 0
0.2232666 0.021240234 -0.35131836 0 0 0 0
0.22619629 0.02130127 -0.35229492 0 0 0 0
0.22839355 0.02130127 -0.35229492 0 0 0 0
-0.011581421 0.021560669 -0.39746094 0 0 0 0
-0.0090408325 0.021392822 -0.39453125 0 0 0 0
-0.0065574646 0.021286011 -0.39233398 0 0 0 0
-0.0041046143 0.021224976 -0.39135742 0 0 0 0
-0.0016746521 0.021224976 -0.39135742 0 0 0 0
0.00075721741 0.021224976 -0.39135742 0 0 0 0
0.0031986237 0.021286011 -0.39233398 0 0 0 0
0.0057067871 0.021560669 -0.39746094 0 0 0 0
0.0082168579 0.02166748 -0.39941406 0 0 0 0
0.010726929 0.021713257 -0.40039062 0 0 0 0
0.018188477 0.021713257 -0.40039062 0 0 0 0
0.020675659 0.021713257 -0.40039062 0 0 0 0
0.023117065 0.02166748 -0.39941406 0 0 0 0
0.025588989 0.02166748 -0.39941406 0 0 0 0
0.086242676 0.020736694 -0.38232422 0 0 0 0
0.088623047 0.020736694 -0.38232422 0 0 0 0
0.090759277 0.020690918 -0.38134766 0 0 0 0
0.092895508 0.020629883 -0.38037109 0 0 0 0
0.095031738 0.020584106 -0.37939453 0 0 0 0
0.097106934 0.020523071 -0.37841797 0 0 0 0
0.099182129 0.020462036 -0.37744141 0 0 0 0
0.10125732 0.02041626 -0.37646484 0 0 0 0
0.1036377 0.02041626 -0.37646484 0 0 0 0
0.10565186 0.020355225 -0.37524414 0 0 0 0
0.10803223 0.020355225 -0.37524414 0 0 0 0
0.11035156 0.020355225 -0.37524414 0 0 0 0
0.1126709 0.020355225 -0.37524414 0 0 0 0
0.11499023 0.020355225 -0.37524414 0 0 0 0
0.15783691 0.019592285 -0.36132812 0 0 0 0
0.16003418 0.019592285 -0.36132812 0 0 0 0
0.16186523 0.019546509 -0.36035156 0 0 0 0
0.1640625 0.019546509 -0.36035156 0 0 0 0
0.16638184 0.019546509 -0.36035156 0 0 0 0
0.16809082 0.019485474 -0.359375 0 0 0 0
0.17041016 0.019485474 -0.359375 0 0 0 0
0.17211914 0.019439697 -0.35839844 0 0 0 0
0.17431641 0.019439697 -0.35839844 0 0 0 0
0.17602539 0.019378662 -0.35717773 0 0 0 0
0.17834473 0.019378662 -0.35717773 0 0 0 0
0.18054199 0.019378662 -0.35717773 0 0 0 0
0.18273926 0.019378662 -0.35717773 0 0 0 0
0.18493652 0.019378662 -0.35717773 0 0 0 0
0.18713379 0.019378662 -0.35717773 0 0 0 0
0.18945312 0.019378662 -0.35717773 0 0 0 0
0.19873047 0.018997192 -0.3503418 0 0 0 0
0.20092773 0.018997192 -0.3503418 0 0 0 0
0.203125 0.018997192 -0.3503418 0 0 0 0
0.20532227 0.018997192 -0.3503418 0 0 0 0
0.20739746 0.018997192 -0.3503418 0 0 0 0
0.20959473 0.018997192 -0.3503418 0 0 0 0
0.21179199 0.018997192 -0.3503418 0 0 0 0
0.21459961 0.019058228 -0.35131836 0 0 0 0
0.21679688 0.019058228 -0.35131836 0 0 0 0
0.21899414 0.019058228 -0.35131836 0 0 0 0
0.22119141 0.019058228 -0.35131836 0 0 0 0
0.22399902 0.019104004 -0.35229492 0 0 0 0
0.22619629 0.019104004 -0.35229492 0 0 0 0
0.22839355 0.019104004 -0.35229492 0 0 0 0
-0.011581421 0.019088745 -0.39746094 0 0 0 0
-0.0089950562 0.018844604 -0.39233398 0 0 0 0
-0.0065231323 0.018753052 -0.39038086 0 0 0 0
-0.0040969849 0.018753052 -0.39038086 0 0 0 0
-0.001666069 0.018707275 -0.3894043 0 0 0 0
0.00075531006 0.018753052 -0.39038086 0 0 0 0
0.0031986237 0.018844604 -0.39233398 0 0 0 0
0.0057373047 0.019180298 -0.39941406 0 0 0 0
0.086242676 0.018356323 -0.38232422 0 0 0 0
0.088439941 0.018310547 -0.38134766 0 0 0 0
0.090576172 0.018264771 -0.38037109 0 0 0 0
0.092651367 0.018218994 -0.37939453 0 0 0 0
0.095031738 0.018218994 -0.37939453 0 0 0 0
0.097106934 0.018173218 -0.37841797 0 0 0 0
0.099182129 0.018127441 -0.37744141 0 0 0 0
0.10125732 0.018066406 -0.37646484 0 0 0 0
0.10333252 0.01802063 -0.37524414 0 0 0 0
0.10565186 0.01802063 -0.37524414 0 0 0 0
0.10803223 0.01802063 -0.37524414 0 0 0 0
0.11035156 0.01802063 -0.37524414 0 0 0 0
0.11236572 0.017974854 -0.37426758 0 0 0 0
0.11468506 0.017974854 -0.37426758 0 0 0 0
0.11700439 0.017974854 -0.37426758 0 0 0 0
0.15332031 0.017349243 -0.36132812 0 0 0 0
0.15563965 0.017349243 -0.36132812 0 0 0 0
0.15734863 0.017303467 -0.36035156 0 0 0 0
0.15966797 0.017303467 -0.36035156 0 0 0 0
0.16186523 0.017303467 -0.36035156 0 0 0 0
0.16369629 0.01725769 -0.359375 0 0 0 0
0.16589355 0.01725769 -0.359375 0 0 0 0
0.16760254 0.017211914 -0.35839844 0 0 0 0
0.16992188 0.017211914 -0.35839844 0 0 0 0
0.17163086 0.017150879 -0.35717773 0 0 0 0
0.17382812 0.017150879 -0.35717773 0 0 0 0
0.17602539 0.017150879 -0.35717773 0 0 0 0
0.17773438 0.017105103 -0.35620117 0 0 0 0
0.18005371 0.017105103 -0.35620117 0 0 0 0
0.18273926 0.017150879 -0.35717773 0 0 0 0
0.18493652 0.017150879 -0.35717773 0 0 0 0
0.18713379 0.017150879 -0.35717773 0 0 0 0
0.19494629 0.016860962 -0.35131836 0 0 0 0
0.1965332 0.016815186 -0.3503418 0 0 0 0
0.19873047 0.016815186 -0.3503418 0 0 0 0
0.20092773 0.016815186 -0.3503418 0 0 0 0
0.203125 0.016815186 -0.3503418 0 0 0 0
0.20532227 0.016815186 -0.3503418 0 0 0 0
0.20739746 0.016815186 -0.3503418 0 0 0 0
0.21020508 0.016860962 -0.35131836 0 0 0 0
0.21240234 0.016860962 -0.35131836 0 0 0 0
0.21459961 0.016860962 -0.35131836 0 0 0 0
0.21679688 0.016860962 -0.35131836 0 0 0 0
0.21899414 0.016860962 -0.35131836 0 0 0 0
0.22180176 0.016921997 -0.35229492 0 0 0 0
0.22399902 0.016921997 -0.35229492 0 0 0 0
0.22619629 0.016921997 -0.35229492 0 0 0 0
0.22839355 0.016921997 -0.35229492 0 0 0 0
-0.008972168 0.016357422 -0.39135742 0 0 0 0
-0.0065040588 0.016281128 -0.3894043 0 0 0 0
-0.0040740967 0.016235352 -0.38842773 0 0 0 0
-0.0016622543 0.016235352 -0.38842773 0 0 0 0
0.00075340271 0.016281128 -0.3894043 0 0 0 0
0.0031814575 0.016326904 -0.39038086 0 0 0 0
0.086242676 0.015991211 -0.38232422 0 0 0 0
0.088439941 0.015945435 -0.38134766 0 0 0 0
0.090576172 0.015899658 -0.38037109 0 0 0 0
0.092651367 0.015853882 -0.37939453 0 0 0 0
0.094787598 0.015823364 -0.37841797 0 0 0 0
0.096862793 0.015777588 -0.37744141 0 0 0 0
0.099182129 0.015777588 -0.37744141 0 0 0 0
0.10125732 0.015731812 -0.37646484 0 0 0 0
0.10333252 0.015686035 -0.37524414 0 0 0 0
0.10565186 0.015686035 -0.37524414 0 0 0 0
0.10803223 0.015686035 -0.37524414 0 0 0 0
0.11004639 0.015655518 -0.37426758 0 0 0 0
0.11236572 0.015655518 -0.37426758 0 0 0 0
0.11468506 0.015655518 -0.37426758 0 0 0 0
0.11700439 0.015655518 -0.37426758 0 0 0 0
0.15112305 0.015106201 -0.36132812 0 0 0 0
0.1529541 0.015068054 -0.36035156 0 0 0 0
0.15515137 0.015068054 -0.36035156 0 0 0 0
0.15734863 0.015068054 -0.36035156 0 0 0 0
0.15917969 0.015022278 -0.359375 0 0 0 0
0.16137695 0.015022278 -0.359375 0 0 0 0
0.16369629 0.015022278 -0.359375 0 0 0 0
0.16540527 0.014984131 -0.35839844 0 0 0 0
0.16760254 0.014984131 -0.35839844 0 0 0 0
0.16943359 0.014938354 -0.35717773 0 0 0 0
0.17163086 0.014938354 -0.35717773 0 0 0 0
0.17333984 0.014900208 -0.35620117 0 0 0 0
0.17553711 0.014900208 -0.35620117 0 0 0 0
0.17773438 0.014900208 -0.35620117 0 0 0 0
0.18005371 0.014900208 -0.35620117 0 0 0 0
0.18225098 0.014900208 -0.35620117 0 0 0 0
0.18444824 0.014900208 -0.35620117 0 0 0 0
0.18664551 0.014900208 -0.35620117 0 0 0 0
0.18884277 0.014900208 -0.35620117 0 0 0 0
0.19055176 0.014854431 -0.35522461 0 0 0 0
0.19274902 0.014686584 -0.35131836 0 0 0 0
0.19494629 0.014686584 -0.35131836 0 0 0 0
0.19714355 0.014686584 -0.35131836 0 0 0 0
0.19873047 0.014648438 -0.3503418 0 0 0 0
0.20092773 0.014648438 -0.3503418 0 0 0 0
0.20361328 0.014686584 -0.35131836 0 0 0 0
0.20581055 0.014686584 -0.35131836 0 0 0 0
0.20800781 0.014686584 -0.35131836 0 0 0 0
0.21020508 0.014686584 -0.35131836 0 0 0 0
0.21240234 0.014686584 -0.35131836 0 0 0 0
0.21459961 0.014686584 -0.35131836 0 0 0 0
0.21740723 0.014732361 -0.35229492 0 0 0 0
0.21960449 0.014732361 -0.35229492 0 0 0 0
0.22180176 0.014732361 -0.35229492 0 0 0 0
0.22399902 0.014732361 -0.35229492 0 0 0 0
0.22619629 0.014732361 -0.35229492 0 0 0 0
0.22839355 0.014732361 -0.35229492 0 0 0 0
-0.0064888 0.013824463 -0.38842773 0 0 0 0
-0.0040740967 0.013824463 -0.38842773 0 0 0 0
-0.0016622543 0.013824463 -0.38842773 0 0 0 0
0.00075149536 0.013824463 -0.38842773 0 0 0 0
0.088195801 0.013542175 -0.38037109 0 0 0 0
0.090576172 0.013542175 -0.38037109 0 0 0 0
0.092651367 0.013504028 -0.37939453 0 0 0 0
0.094787598 0.013473511 -0.37841797 0 0 0 0
0.096862793 0.013435364 -0.37744141 0 0 0 0
0.098937988 0.013397217 -0.37646484 0 0 0 0
0.10125732 0.013397217 -0.37646484 0 0 0 0
0.10333252 0.013366699 -0.37524414 0 0 0 0
0.10565186 0.013366699 -0.37524414 0 0 0 0
0.10803223 0.013366699 -0.37524414 0 0 0 0
0.11035156 0.013366699 -0.37524414 0 0 0 0
0.1126709 0.013366699 -0.37524414 0 0 0 0
0.11499023 0.013366699 -0.37524414 0 0 0 0
0.11700439 0.013328552 -0.37426758 0 0 0 0
0.1484375 0.012825012 -0.36035156 0 0 0 0
0.15063477 0.012825012 -0.36035156 0 0 0 0
0.1529541 0.012825012 -0.36035156 0 0 0 0
0.15478516 0.012794495 -0.359375 0 0 0 0
0.15698242 0.012794495 -0.359375 0 0 0 0
0.15917969 0.012794495 -0.359375 0 0 0 0
0.16101074 0.012756348 -0.35839844 0 0 0 0
0.16320801 0.012756348 -0.35839844 0 0 0 0
0.16491699 0.012718201 -0.35717773 0 0 0 0
0.16723633 0.012718201 -0.35717773 0 0 0 0
0.16894531 0.012687683 -0.35620117 0 0 0 0
0.17114258 0.012687683 -0.35620117 0 0 0 0
0.17333984 0.012687683 -0.35620117 0 0 0 0
0.17553711 0.012687683 -0.35620117 0 0 0 0
0.17773438 0.012687683 -0.35620117 0 0 0 0
0.18005371 0.012687683 -0.35620117 0 0 0 0
0.18225098 0.012687683 -0.35620117 0 0 0 0
0.18444824 0.012687683 -0.35620117 0 0 0 0
0.18664551 0.012687683 -0.35620117 0 0 0 0
0.18835449 0.012649536 -0.35522461 0 0 0 0
0.18994141 0.012611389 -0.35424805 0 0 0 0
0.19165039 0.012580872 -0.35327148 0 0 0 0
0.19335938 0.012542725 -0.35229492 0 0 0 0
0.19494629 0.012504578 -0.35131836 0 0 0 0
0.19714355 0.012504578 -0.35131836 0 0 0 0
0.19934082 0.012504578 -0.35131836 0 0 0 0
0.20153809 0.012504578 -0.35131836 0 0 0 0
0.20361328 0.012504578 -0.35131836 0 0 0 0
0.20581055 0.012504578 -0.35131836 0 0 0 0
0.20800781 0.012504578 -0.35131836 0 0 0 0
0.21020508 0.012504578 -0.35131836 0 0 0 0
0.2130127 0.012542725 -0.35229492 0 0 0 0
0.21520996 0.012542725 -0.35229492 0 0 0 0
0.21740723 0.012542725 -0.35229492 0 0 0 0
0.21960449 0.012542725 -0.35229492 0 0 0 0
0.22180176 0.012542725 -0.35229492 0 0 0 0
0.22460938 0.012580872 -0.35327148 0 0 0 0
0.22680664 0.012580872 -0.35327148 0 0 0 0
0.088195801 0.011177063 -0.38037109 0 0 0 0
0.090576172 0.011177063 -0.38037109 0 0 0 0
0.092651367 0.011146545 -0.37939453 0 0 0 0
0.094787598 0.011116028 -0.37841797 0 0 0 0
0.096862793 0.01109314 -0.37744141 0 0 0 0
0.099182129 0.01109314 -0.37744141 0 0 0 0
0.10125732 0.011062622 -0.37646484 0 0 0 0
0.10333252 0.011032104 -0.37524414 0 0 0 0
0.10565186 0.011032104 -0.37524414 0 0 0 0
0.10803223 0.011032104 -0.37524414 0 0 0 0
0.11035156 0.011032104 -0.37524414 0 0 0 0
0.1126709 0.011032104 -0.37524414 0 0 0 0
0.11499023 0.011032104 -0.37524414 0 0 0 0
0.11700439 0.011001587 -0.37426758 0 0 0 0
0.14538574 0.010528564 -0.35839844 0 0 0 0
0.14807129 0.010559082 -0.359375 0 0 0 0
0.15026855 0.010559082 -0.359375 0 0 0 0
0.15246582 0.010559082 -0.359375 0 0 0 0
0.15429688 0.010528564 -0.35839844 0 0 0 0
0.15649414 0.010528564 -0.35839844 0 0 0 0
0.15869141 0.010528564 -0.35839844 0 0 0 0
0.16052246 0.010498047 -0.35717773 0 0 0 0
0.16271973 0.010498047 -0.35717773 0 0 0 0
0.16455078 0.010467529 -0.35620117 0 0 0 0
0.16674805 0.010467529 -0.35620117 0 0 0 0
0.16894531 0.010467529 -0.35620117 0 0 0 0
0.17114258 0.010467529 -0.35620117 0 0 0 0
0.17333984 0.010467529 -0.35620117 0 0 0 0
0.17553711 0.010467529 -0.35620117 0 0 0 0
0.17773438 0.010467529 -0.35620117 0 0 0 0
0.18005371 0.010467529 -0.35620117 0 0 0 0
0.18225098 0.010467529 -0.35620117 0 0 0 0
0.18395996 0.010437012 -0.35522461 0 0 0 0
0.18615723 0.010437012 -0.35522461 0 0 0 0
0.18774414 0.010414124 -0.35424805 0 0 0 0
0.18945312 0.010383606 -0.35327148 0 0 0 0
0.19116211 0.010353088 -0.35229492 0 0 0 0
0.19335938 0.010353088 -0.35229492 0 0 0 0
0.19494629 0.010322571 -0.35131836 0 0 0 0
0.19714355 0.010322571 -0.35131836 0 0 0 0
0.19934082 0.010322571 -0.35131836 0 0 0 0
0.20153809 0.010322571 -0.35131836 0 0 0 0
0.20361328 0.010322571 -0.35131836 0 0 0 0
0.20581055 0.010322571 -0.35131836 0 0 0 0
0.20800781 0.010322571 -0.35131836 0 0 0 0
0.21081543 0.010353088 -0.35229492 0 0 0 0
0.2130127 0.010353088 -0.35229492 0 0 0 0
0.21520996 0.010353088 -0.35229492 0 0 0 0
0.21740723 0.010353088 -0.35229492 0 0 0 0
0.22021484 0.010383606 -0.35327148 0 0 0 0
0.22241211 0.010383606 -0.35327148 0 0 0 0
0.22460938 0.010383606 -0.35327148 0 0 0 0
0.090332031 0.0087890625 -0.37939453 0 0 0 0
0.092651367 0.0087890625 -0.37939453 0 0 0 0
0.094787598 0.0087661743 -0.37841797 0 0 0 0
0.096862793 0.0087432861 -0.37744141 0 0 0 0
0.099182129 0.0087432861 -0.37744141 0 0 0 0
0.10125732 0.0087203979 -0.37646484 0 0 0 0
0.1036377 0.0087203979 -0.37646484 0 0 0 0
0.10565186 0.0086975098 -0.37524414 0 0 0 0
0.10803223 0.0086975098 -0.37524414 0 0 0 0
0.11035156 0.0086975098 -0.37524414 0 0 0 0
0.1126709 0.0086975098 -0.37524414 0 0 0 0
0.11499023 0.0086975098 -0.37524414 0 0 0 0
0.14099121 0.0083007812 -0.35839844 0 0 0 0
0.14318848 0.0083007812 -0.35839844 0 0 0 0
0.14538574 0.0083007812 -0.35839844 0 0 0 0
0.14758301 0.0083007812 -0.35839844 0 0 0 0
0.14978027 0.0083007812 -0.35839844 0 0 0 0
0.15209961 0.0083007812 -0.35839844 0 0 0 0
0.15380859 0.0082778931 -0.35717773 0 0 0 0
0.15612793 0.0082778931 -0.35717773 0 0 0 0
0.1583252 0.0082778931 -0.35717773 0 0 0 0
0.16003418 0.0082550049 -0.35620117 0 0 0 0
0.16223145 0.0082550049 -0.35620117 0 0 0 0
0.16455078 0.0082550049 -0.35620117 0 0 0 0
0.16625977 0.0082321167 -0.35522461 0 0 0 0
