ply
format ascii 1.0
comment PCL generated
element vertex 1048
property float x
property float y
property float z
property float nx
property float ny
property float nz
property float curvature
element face 0
element camera 0
property float view_px
property float view_py
property float view_pz
property float x_axisx
property float x_axisy
property float x_axisz
property float y_axisx
property float y_axisy
property float y_axisz
property float z_axisx
property float z_axisy
property float z_axisz
property float focal
property float scalex
property float scaley
property float centerx
property float centery
property int viewportx
property int viewporty
property float k1
property float k2
end_header
-0.094238281 -0.033691406 -0.35522461 0 0 0 0
-0.092041016 -0.033691406 -0.35522461 0 0 0 0
-0.08984375 -0.033691406 -0.35522461 0 0 0 0
-0.087585449 -0.033691406 -0.35522461 0 0 0 0
-0.085388184 -0.033691406 -0.35522461 0 0 0 0
-0.083190918 -0.033691406 -0.35522461 0 0 0 0
-0.080993652 -0.033691406 -0.35522461 0 0 0 0
-0.078796387 -0.033691406 -0.35522461 0 0 0 0
-0.076599121 -0.033691406 -0.35522461 0 0 0 0
-0.07434082 -0.033691406 -0.35522461 0 0 0 0
-0.072143555 -0.033691406 -0.35522461 0 0 0 0
-0.069946289 -0.033691406 -0.35522461 0 0 0 0
-0.067749023 -0.033691406 -0.35522461 0 0 0 0
-0.065551758 -0.033691406 -0.35522461 0 0 0 0
-0.063293457 -0.033691406 -0.35522461 0 0 0 0
-0.060943604 -0.033599854 -0.35424805 0 0 0 0
-0.058746338 -0.033599854 -0.35424805 0 0 0 0
-0.056549072 -0.033599854 -0.35424805 0 0 0 0
-0.054351807 -0.033599854 -0.35424805 0 0 0 0
-0.052154541 -0.033599854 -0.35424805 0 0 0 0
-0.049957275 -0.033599854 -0.35424805 0 0 0 0
-0.047607422 -0.033508301 -0.35327148 0 0 0 0
-0.045410156 -0.033508301 -0.35327148 0 0 0 0
-0.043212891 -0.033508301 -0.35327148 0 0 0 0
-0.041015625 -0.033508301 -0.35327148 0 0 0 0
-0.038818359 -0.033508301 -0.35327148 0 0 0 0
-0.036621094 -0.033508301 -0.35327148 0 0 0 0
-0.034423828 -0.033508301 -0.35327148 0 0 0 0
-0.032318115 -0.033599854 -0.35424805 0 0 0 0
-0.030136108 -0.033599854 -0.35424805 0 0 0 0
-0.027938843 -0.033599854 -0.35424805 0 0 0 0
-0.025726318 -0.033599854 -0.35424805 0 0 0 0
-0.023529053 -0.033599854 -0.35424805 0 0 0 0
-0.021331787 -0.033599854 -0.35424805 0 0 0 0
0.0032215118 -0.037506104 -0.39550781 0 0 0 0
0.0056648254 -0.037414551 -0.39453125 0 0 0 0
0.0081176758 -0.037414551 -0.39453125 0 0 0 0
0.010536194 -0.037322998 -0.39331055 0 0 0 0
0.012985229 -0.037322998 -0.39331055 0 0 0 0
0.015388489 -0.037231445 -0.39233398 0 0 0 0
0.017822266 -0.037231445 -0.39233398 0 0 0 0
0.020217896 -0.037139893 -0.39135742 0 0 0 0
0.022583008 -0.03704834 -0.39038086 0 0 0 0
0.02494812 -0.036956787 -0.3894043 0 0 0 0
0.027297974 -0.036834717 -0.38842773 0 0 0 0
0.029556274 -0.036651611 -0.38647461 0 0 0 0
0.031860352 -0.036560059 -0.38549805 0 0 0 0
0.034179688 -0.036468506 -0.38427734 0 0 0 0
0.036468506 -0.036376953 -0.38330078 0 0 0 0
0.038757324 -0.0362854 -0.38232422 0 0 0 0
0.041015625 -0.036193848 -0.38134766 0 0 0 0
0.043273926 -0.036102295 -0.38037109 0 0 0 0
0.045532227 -0.035980225 -0.37939453 0 0 0 0
0.04788208 -0.035980225 -0.37939453 0 0 0 0
0.050231934 -0.035980225 -0.37939453 0 0 0 0
0.052581787 -0.035980225 -0.37939453 0 0 0 0
0.054962158 -0.035980225 -0.37939453 0 0 0 0
0.0574646 -0.036102295 -0.38037109 0 0 0 0
0.059997559 -0.036193848 -0.38134766 0 0 0 0
0.062347412 -0.036193848 -0.38134766 0 0 0 0
0.064880371 -0.0362854 -0.38232422 0 0 0 0
0.067626953 -0.036468506 -0.38427734 0 0 0 0
0.07019043 -0.036560059 -0.38549805 0 0 0 0
0.072937012 -0.036743164 -0.38745117 0 0 0 0
0.075744629 -0.036956787 -0.3894043 0 0 0 0
0.078552246 -0.037139893 -0.39135742 0 0 0 0
-0.12512207 -0.035919189 -0.35522461 0 0 0 0
-0.1229248 -0.035919189 -0.35522461 0 0 0 0
-0.12072754 -0.035919189 -0.35522461 0 0 0 0
-0.11853027 -0.035919189 -0.35522461 0 0 0 0
-0.11633301 -0.035919189 -0.35522461 0 0 0 0
-0.11413574 -0.035919189 -0.35522461 0 0 0 0
-0.11187744 -0.035919189 -0.35522461 0 0 0 0
-0.10968018 -0.035919189 -0.35522461 0 0 0 0
-0.10748291 -0.035919189 -0.35522461 0 0 0 0
-0.10528564 -0.035919189 -0.35522461 0 0 0 0
-0.10308838 -0.035919189 -0.35522461 0 0 0 0
-0.10089111 -0.035919189 -0.35522461 0 0 0 0
-0.098632812 -0.035919189 -0.35522461 0 0 0 0
-0.096435547 -0.035919189 -0.35522461 0 0 0 0
-0.094238281 -0.035919189 -0.35522461 0 0 0 0
-0.092041016 -0.035919189 -0.35522461 0 0 0 0
-0.08984375 -0.035919189 -0.35522461 0 0 0 0
-0.087585449 -0.035919189 -0.35522461 0 0 0 0
-0.085388184 -0.035919189 -0.35522461 0 0 0 0
-0.083190918 -0.035919189 -0.35522461 0 0 0 0
-0.080993652 -0.035919189 -0.35522461 0 0 0 0
-0.078796387 -0.035919189 -0.35522461 0 0 0 0
-0.076599121 -0.035919189 -0.35522461 0 0 0 0
-0.07434082 -0.035919189 -0.35522461 0 0 0 0
-0.072143555 -0.035919189 -0.35522461 0 0 0 0
-0.069946289 -0.035919189 -0.35522461 0 0 0 0
-0.067565918 -0.035827637 -0.35424805 0 0 0 0
-0.065368652 -0.035827637 -0.35424805 0 0 0 0
-0.063171387 -0.035827637 -0.35424805 0 0 0 0
-0.060943604 -0.035827637 -0.35424805 0 0 0 0
-0.058746338 -0.035827637 -0.35424805 0 0 0 0
-0.056549072 -0.035827637 -0.35424805 0 0 0 0
-0.054351807 -0.035827637 -0.35424805 0 0 0 0
-0.052154541 -0.035827637 -0.35424805 0 0 0 0
-0.049804688 -0.035705566 -0.35327148 0 0 0 0
-0.047607422 -0.035705566 -0.35327148 0 0 0 0
-0.045410156 -0.035705566 -0.35327148 0 0 0 0
-0.043212891 -0.035705566 -0.35327148 0 0 0 0
-0.041015625 -0.035705566 -0.35327148 0 0 0 0
-0.038818359 -0.035705566 -0.35327148 0 0 0 0
-0.036621094 -0.035705566 -0.35327148 0 0 0 0
-0.034423828 -0.035705566 -0.35327148 0 0 0 0
-0.032226562 -0.035705566 -0.35327148 0 0 0 0
-0.030044556 -0.035705566 -0.35327148 0 0 0 0
-0.027938843 -0.035827637 -0.35424805 0 0 0 0
-0.025726318 -0.035827637 -0.35424805 0 0 0 0
-0.023529053 -0.035827637 -0.35424805 0 0 0 0
-0.021331787 -0.035827637 -0.35424805 0 0 0 0
0.00076341629 -0.039886475 -0.39453125 0 0 0 0
0.0032062531 -0.039764404 -0.39331055 0 0 0 0
0.0056495667 -0.039764404 -0.39331055 0 0 0 0
0.0080947876 -0.039764404 -0.39331055 0 0 0 0
0.010513306 -0.039672852 -0.39233398 0 0 0 0
0.012954712 -0.039672852 -0.39233398 0 0 0 0
0.015388489 -0.039672852 -0.39233398 0 0 0 0
0.017776489 -0.039581299 -0.39135742 0 0 0 0
0.02015686 -0.039459229 -0.39038086 0 0 0 0
0.022583008 -0.039459229 -0.39038086 0 0 0 0
0.024887085 -0.039276123 -0.38842773 0 0 0 0
0.02722168 -0.039154053 -0.38745117 0 0 0 0
0.029556274 -0.0390625 -0.38647461 0 0 0 0
0.031799316 -0.038848877 -0.38427734 0 0 0 0
0.034088135 -0.038757324 -0.38330078 0 0 0 0
0.036376953 -0.038665771 -0.38232422 0 0 0 0
0.038635254 -0.038543701 -0.38134766 0 0 0 0
0.040924072 -0.038452148 -0.38037109 0 0 0 0
0.043151855 -0.038360596 -0.37939453 0 0 0 0
0.045410156 -0.038238525 -0.37841797 0 0 0 0
0.047637939 -0.038146973 -0.37744141 0 0 0 0
0.049957275 -0.038146973 -0.37744141 0 0 0 0
0.052307129 -0.038146973 -0.37744141 0 0 0 0
0.054656982 -0.038146973 -0.37744141 0 0 0 0
0.057159424 -0.038238525 -0.37841797 0 0 0 0
0.059661865 -0.038360596 -0.37939453 0 0 0 0
0.062011719 -0.038360596 -0.37939453 0 0 0 0
0.06451416 -0.038452148 -0.38037109 0 0 0 0
0.067077637 -0.038543701 -0.38134766 0 0 0 0
0.069824219 -0.038757324 -0.38330078 0 0 0 0
0.072570801 -0.038970947 -0.38549805 0 0 0 0
0.075195312 -0.0390625 -0.38647461 0 0 0 0
0.07800293 -0.039276123 -0.38842773 0 0 0 0
-0.12695312 -0.038024902 -0.35424805 0 0 0 0
-0.12512207 -0.038116455 -0.35522461 0 0 0 0
-0.1229248 -0.038116455 -0.35522461 0 0 0 0
-0.12072754 -0.038116455 -0.35522461 0 0 0 0
-0.11853027 -0.038116455 -0.35522461 0 0 0 0
-0.11633301 -0.038116455 -0.35522461 0 0 0 0
-0.11413574 -0.038116455 -0.35522461 0 0 0 0
-0.11187744 -0.038116455 -0.35522461 0 0 0 0
-0.10968018 -0.038116455 -0.35522461 0 0 0 0
-0.10748291 -0.038116455 -0.35522461 0 0 0 0
-0.10528564 -0.038116455 -0.35522461 0 0 0 0
-0.10308838 -0.038116455 -0.35522461 0 0 0 0
-0.10089111 -0.038116455 -0.35522461 0 0 0 0
-0.098632812 -0.038116455 -0.35522461 0 0 0 0
-0.096435547 -0.038116455 -0.35522461 0 0 0 0
-0.094238281 -0.038116455 -0.35522461 0 0 0 0
-0.091796875 -0.038024902 -0.35424805 0 0 0 0
-0.089538574 -0.038024902 -0.35424805 0 0 0 0
-0.087341309 -0.038024902 -0.35424805 0 0 0 0
-0.085144043 -0.038024902 -0.35424805 0 0 0 0
-0.082946777 -0.038024902 -0.35424805 0 0 0 0
-0.080749512 -0.038024902 -0.35424805 0 0 0 0
-0.078552246 -0.038024902 -0.35424805 0 0 0 0
-0.076599121 -0.038116455 -0.35522461 0 0 0 0
-0.074157715 -0.038024902 -0.35424805 0 0 0 0
-0.071960449 -0.038024902 -0.35424805 0 0 0 0
-0.069763184 -0.038024902 -0.35424805 0 0 0 0
-0.067565918 -0.038024902 -0.35424805 0 0 0 0
-0.065368652 -0.038024902 -0.35424805 0 0 0 0
-0.063171387 -0.038024902 -0.35424805 0 0 0 0
-0.060943604 -0.038024902 -0.35424805 0 0 0 0
-0.058746338 -0.038024902 -0.35424805 0 0 0 0
-0.056549072 -0.038024902 -0.35424805 0 0 0 0
-0.054351807 -0.038024902 -0.35424805 0 0 0 0
-0.052001953 -0.037902832 -0.35327148 0 0 0 0
-0.049804688 -0.037902832 -0.35327148 0 0 0 0
-0.047607422 -0.037902832 -0.35327148 0 0 0 0
-0.045410156 -0.037902832 -0.35327148 0 0 0 0
-0.043212891 -0.037902832 -0.35327148 0 0 0 0
-0.041015625 -0.037902832 -0.35327148 0 0 0 0
-0.038818359 -0.037902832 -0.35327148 0 0 0 0
-0.036621094 -0.037902832 -0.35327148 0 0 0 0
-0.034423828 -0.037902832 -0.35327148 0 0 0 0
-0.032226562 -0.037902832 -0.35327148 0 0 0 0
-0.030044556 -0.037902832 -0.35327148 0 0 0 0
-0.02784729 -0.037902832 -0.35327148 0 0 0 0
-0.025665283 -0.037902832 -0.35327148 0 0 0 0
-0.023529053 -0.038024902 -0.35424805 0 0 0 0
-0.001666069 -0.041778564 -0.3894043 0 0 0 0
0.00075721741 -0.041992188 -0.39135742 0 0 0 0
0.0031890869 -0.041992188 -0.39135742 0 0 0 0
0.0056228638 -0.041992188 -0.39135742 0 0 0 0
0.0080490112 -0.041992188 -0.39135742 0 0 0 0
0.010482788 -0.041992188 -0.39135742 0 0 0 0
0.012916565 -0.041992188 -0.39135742 0 0 0 0
0.015350342 -0.041992188 -0.39135742 0 0 0 0
0.017776489 -0.041992188 -0.39135742 0 0 0 0
0.02015686 -0.041900635 -0.39038086 0 0 0 0
0.022521973 -0.041778564 -0.3894043 0 0 0 0
0.024887085 -0.041687012 -0.38842773 0 0 0 0
0.02722168 -0.041564941 -0.38745117 0 0 0 0
0.02947998 -0.041351318 -0.38549805 0 0 0 0
0.031799316 -0.041259766 -0.38427734 0 0 0 0
0.033996582 -0.041046143 -0.38232422 0 0 0 0
0.0362854 -0.040924072 -0.38134766 0 0 0 0
0.038543701 -0.040802002 -0.38037109 0 0 0 0
0.040802002 -0.040710449 -0.37939453 0 0 0 0
0.043060303 -0.040588379 -0.37841797 0 0 0 0
0.045288086 -0.040496826 -0.37744141 0 0 0 0
0.047485352 -0.040374756 -0.37646484 0 0 0 0
0.049835205 -0.040374756 -0.37646484 0 0 0 0
0.052185059 -0.040374756 -0.37646484 0 0 0 0
0.054504395 -0.040374756 -0.37646484 0 0 0 0
0.057006836 -0.040496826 -0.37744141 0 0 0 0
0.059356689 -0.040496826 -0.37744141 0 0 0 0
0.061859131 -0.040588379 -0.37841797 0 0 0 0
0.06439209 -0.040710449 -0.37939453 0 0 0 0
0.066894531 -0.040802002 -0.38037109 0 0 0 0
0.069458008 -0.040924072 -0.38134766 0 0 0 0
0.072021484 -0.041046143 -0.38232422 0 0 0 0
0.074584961 -0.041137695 -0.38330078 0 0 0 0
0.077148438 -0.041259766 -0.38427734 0 0 0 0
0.078491211 -0.040710449 -0.37939453 0 0 0 0
0.080444336 -0.040496826 -0.37744141 0 0 0 0
0.082580566 -0.040374756 -0.37646484 0 0 0 0
0.084655762 -0.040283203 -0.37524414 0 0 0 0
0.086791992 -0.040161133 -0.37426758 0 0 0 0
0.088867188 -0.04006958 -0.37329102 0 0 0 0
0.091186523 -0.04006958 -0.37329102 0 0 0 0
0.093261719 -0.03994751 -0.37231445 0 0 0 0
0.095581055 -0.03994751 -0.37231445 0 0 0 0
0.097900391 -0.03994751 -0.37231445 0 0 0 0
0.10021973 -0.03994751 -0.37231445 0 0 0 0
0.10253906 -0.03994751 -0.37231445 0 0 0 0
0.1048584 -0.03994751 -0.37231445 0 0 0 0
0.10717773 -0.03994751 -0.37231445 0 0 0 0
0.10919189 -0.039855957 -0.37133789 0 0 0 0
-0.12695312 -0.040222168 -0.35424805 0 0 0 0
-0.12512207 -0.040344238 -0.35522461 0 0 0 0
-0.1229248 -0.040344238 -0.35522461 0 0 0 0
-0.12072754 -0.040344238 -0.35522461 0 0 0 0
-0.11853027 -0.040344238 -0.35522461 0 0 0 0
-0.11633301 -0.040344238 -0.35522461 0 0 0 0
-0.11413574 -0.040344238 -0.35522461 0 0 0 0
-0.11187744 -0.040344238 -0.35522461 0 0 0 0
-0.10968018 -0.040344238 -0.35522461 0 0 0 0
-0.10748291 -0.040344238 -0.35522461 0 0 0 0
-0.10528564 -0.040344238 -0.35522461 0 0 0 0
-0.10308838 -0.040344238 -0.35522461 0 0 0 0
-0.10089111 -0.040344238 -0.35522461 0 0 0 0
-0.098388672 -0.040222168 -0.35424805 0 0 0 0
-0.096191406 -0.040222168 -0.35424805 0 0 0 0
-0.093994141 -0.040222168 -0.35424805 0 0 0 0
-0.091796875 -0.040222168 -0.35424805 0 0 0 0
-0.089538574 -0.040222168 -0.35424805 0 0 0 0
-0.087341309 -0.040222168 -0.35424805 0 0 0 0
-0.085144043 -0.040222168 -0.35424805 0 0 0 0
-0.082946777 -0.040222168 -0.35424805 0 0 0 0
-0.080749512 -0.040222168 -0.35424805 0 0 0 0
-0.078552246 -0.040222168 -0.35424805 0 0 0 0
-0.07635498 -0.040222168 -0.35424805 0 0 0 0
-0.074157715 -0.040222168 -0.35424805 0 0 0 0
-0.071960449 -0.040222168 -0.35424805 0 0 0 0
-0.069763184 -0.040222168 -0.35424805 0 0 0 0
-0.067565918 -0.040222168 -0.35424805 0 0 0 0
-0.065368652 -0.040222168 -0.35424805 0 0 0 0
-0.063171387 -0.040222168 -0.35424805 0 0 0 0
-0.060943604 -0.040222168 -0.35424805 0 0 0 0
-0.058746338 -0.040222168 -0.35424805 0 0 0 0
-0.056549072 -0.040222168 -0.35424805 0 0 0 0
-0.054199219 -0.040100098 -0.35327148 0 0 0 0
-0.052001953 -0.040100098 -0.35327148 0 0 0 0
-0.049804688 -0.040100098 -0.35327148 0 0 0 0
-0.047607422 -0.040100098 -0.35327148 0 0 0 0
-0.045410156 -0.040100098 -0.35327148 0 0 0 0
-0.043212891 -0.040100098 -0.35327148 0 0 0 0
-0.041015625 -0.040100098 -0.35327148 0 0 0 0
-0.038818359 -0.040100098 -0.35327148 0 0 0 0
-0.036621094 -0.040100098 -0.35327148 0 0 0 0
-0.034423828 -0.040100098 -0.35327148 0 0 0 0
-0.032226562 -0.040100098 -0.35327148 0 0 0 0
-0.030044556 -0.040100098 -0.35327148 0 0 0 0
-0.02784729 -0.040100098 -0.35327148 0 0 0 0
-0.025665283 -0.040100098 -0.35327148 0 0 0 0
-0.023468018 -0.040100098 -0.35327148 0 0 0 0
-0.0041389465 -0.044769287 -0.39453125 0 0 0 0
-0.0016622543 -0.0440979 -0.38842773 0 0 0 0
0.00075340271 -0.044219971 -0.3894043 0 0 0 0
0.0031738281 -0.044219971 -0.3894043 0 0 0 0
0.0055923462 -0.044219971 -0.3894043 0 0 0 0
0.0080337524 -0.044311523 -0.39038086 0 0 0 0
0.0104599 -0.044311523 -0.39038086 0 0 0 0
0.012886047 -0.044311523 -0.39038086 0 0 0 0
0.015312195 -0.044311523 -0.39038086 0 0 0 0
0.017730713 -0.044311523 -0.39038086 0 0 0 0
0.020111084 -0.044219971 -0.3894043 0 0 0 0
0.022521973 -0.044219971 -0.3894043 0 0 0 0
0.02482605 -0.04397583 -0.38745117 0 0 0 0
0.027160645 -0.04385376 -0.38647461 0 0 0 0
0.029403687 -0.043640137 -0.38427734 0 0 0 0
0.031707764 -0.043518066 -0.38330078 0 0 0 0
0.033996582 -0.043395996 -0.38232422 0 0 0 0
0.036193848 -0.043182373 -0.38037109 0 0 0 0
0.038452148 -0.043060303 -0.37939453 0 0 0 0
0.040710449 -0.042938232 -0.37841797 0 0 0 0
0.042938232 -0.04284668 -0.37744141 0 0 0 0
0.045166016 -0.042724609 -0.37646484 0 0 0 0
0.047485352 -0.042724609 -0.37646484 0 0 0 0
0.049713135 -0.042602539 -0.37524414 0 0 0 0
0.052032471 -0.042602539 -0.37524414 0 0 0 0
0.054382324 -0.042602539 -0.37524414 0 0 0 0
0.056854248 -0.042724609 -0.37646484 0 0 0 0
0.059204102 -0.042724609 -0.37646484 0 0 0 0
0.061706543 -0.04284668 -0.37744141 0 0 0 0
0.064025879 -0.04284668 -0.37744141 0 0 0 0
0.06652832 -0.042938232 -0.37841797 0 0 0 0
0.069091797 -0.043060303 -0.37939453 0 0 0 0
0.071655273 -0.043182373 -0.38037109 0 0 0 0
0.07421875 -0.043304443 -0.38134766 0 0 0 0
0.076538086 -0.043304443 -0.38134766 0 0 0 0
0.078308105 -0.042938232 -0.37841797 0 0 0 0
0.08026123 -0.042724609 -0.37646484 0 0 0 0
0.082336426 -0.042602539 -0.37524414 0 0 0 0
0.084472656 -0.042510986 -0.37426758 0 0 0 0
0.086547852 -0.042388916 -0.37329102 0 0 0 0
0.088623047 -0.042266846 -0.37231445 0 0 0 0
0.090698242 -0.042144775 -0.37133789 0 0 0 0
0.093017578 -0.042144775 -0.37133789 0 0 0 0
0.095336914 -0.042144775 -0.37133789 0 0 0 0
0.09765625 -0.042144775 -0.37133789 0 0 0 0
0.099914551 -0.042144775 -0.37133789 0 0 0 0
0.10223389 -0.042144775 -0.37133789 0 0 0 0
0.10455322 -0.042144775 -0.37133789 0 0 0 0
0.10687256 -0.042144775 -0.37133789 0 0 0 0
0.10888672 -0.042053223 -0.37036133 0 0 0 0
0.11114502 -0.042053223 -0.37036133 0 0 0 0
-0.12695312 -0.042419434 -0.35424805 0 0 0 0
-0.12512207 -0.042541504 -0.35522461 0 0 0 0
-0.1229248 -0.042541504 -0.35522461 0 0 0 0
-0.12072754 -0.042541504 -0.35522461 0 0 0 0
-0.11853027 -0.042541504 -0.35522461 0 0 0 0
-0.11633301 -0.042541504 -0.35522461 0 0 0 0
-0.11413574 -0.042541504 -0.35522461 0 0 0 0
-0.11187744 -0.042541504 -0.35522461 0 0 0 0
-0.10968018 -0.042541504 -0.35522461 0 0 0 0
-0.10748291 -0.042541504 -0.35522461 0 0 0 0
-0.10498047 -0.042419434 -0.35424805 0 0 0 0
-0.1027832 -0.042419434 -0.35424805 0 0 0 0
-0.10058594 -0.042419434 -0.35424805 0 0 0 0
-0.098388672 -0.042419434 -0.35424805 0 0 0 0
-0.096191406 -0.042419434 -0.35424805 0 0 0 0
-0.093994141 -0.042419434 -0.35424805 0 0 0 0
-0.091796875 -0.042419434 -0.35424805 0 0 0 0
-0.089538574 -0.042419434 -0.35424805 0 0 0 0
-0.087341309 -0.042419434 -0.35424805 0 0 0 0
-0.085144043 -0.042419434 -0.35424805 0 0 0 0
-0.082946777 -0.042419434 -0.35424805 0 0 0 0
-0.080749512 -0.042419434 -0.35424805 0 0 0 0
-0.078552246 -0.042419434 -0.35424805 0 0 0 0
-0.07635498 -0.042419434 -0.35424805 0 0 0 0
-0.074157715 -0.042419434 -0.35424805 0 0 0 0
-0.071960449 -0.042419434 -0.35424805 0 0 0 0
-0.069763184 -0.042419434 -0.35424805 0 0 0 0
-0.067565918 -0.042419434 -0.35424805 0 0 0 0
-0.065368652 -0.042419434 -0.35424805 0 0 0 0
-0.063171387 -0.042419434 -0.35424805 0 0 0 0
-0.060943604 -0.042419434 -0.35424805 0 0 0 0
-0.05859375 -0.042297363 -0.35327148 0 0 0 0
-0.056396484 -0.042297363 -0.35327148 0 0 0 0
-0.054199219 -0.042297363 -0.35327148 0 0 0 0
-0.052001953 -0.042297363 -0.35327148 0 0 0 0
-0.049804688 -0.042297363 -0.35327148 0 0 0 0
-0.047607422 -0.042297363 -0.35327148 0 0 0 0
-0.045410156 -0.042297363 -0.35327148 0 0 0 0
-0.043212891 -0.042297363 -0.35327148 0 0 0 0
-0.041015625 -0.042297363 -0.35327148 0 0 0 0
-0.038818359 -0.042297363 -0.35327148 0 0 0 0
-0.036621094 -0.042297363 -0.35327148 0 0 0 0
-0.034423828 -0.042297363 -0.35327148 0 0 0 0
-0.032226562 -0.042297363 -0.35327148 0 0 0 0
-0.030044556 -0.042297363 -0.35327148 0 0 0 0
-0.02784729 -0.042297363 -0.35327148 0 0 0 0
-0.025665283 -0.042297363 -0.35327148 0 0 0 0
-0.0040740967 -0.046508789 -0.38842773 0 0 0 0
-0.0016622543 -0.046508789 -0.38842773 0 0 0 0
0.00075149536 -0.046508789 -0.38842773 0 0 0 0
0.0031642914 -0.046508789 -0.38842773 0 0 0 0
0.0055770874 -0.046508789 -0.38842773 0 0 0 0
0.0080108643 -0.046630859 -0.3894043 0 0 0 0
0.0104599 -0.04675293 -0.39038086 0 0 0 0
0.012886047 -0.04675293 -0.39038086 0 0 0 0
0.015312195 -0.04675293 -0.39038086 0 0 0 0
0.017730713 -0.04675293 -0.39038086 0 0 0 0
0.020111084 -0.046630859 -0.3894043 0 0 0 0
0.022476196 -0.046508789 -0.38842773 0 0 0 0
0.02482605 -0.046386719 -0.38745117 0 0 0 0
0.027084351 -0.046142578 -0.38549805 0 0 0 0
0.029403687 -0.046020508 -0.38427734 0 0 0 0
0.031616211 -0.045776367 -0.38232422 0 0 0 0
0.033905029 -0.045654297 -0.38134766 0 0 0 0
0.036193848 -0.045532227 -0.38037109 0 0 0 0
0.038452148 -0.045410156 -0.37939453 0 0 0 0
0.040710449 -0.045318604 -0.37841797 0 0 0 0
0.042938232 -0.045196533 -0.37744141 0 0 0 0
0.045166016 -0.045074463 -0.37646484 0 0 0 0
0.047485352 -0.045074463 -0.37646484 0 0 0 0
0.049713135 -0.044952393 -0.37524414 0 0 0 0
0.052032471 -0.044952393 -0.37524414 0 0 0 0
0.054382324 -0.044952393 -0.37524414 0 0 0 0
0.05670166 -0.044952393 -0.37524414 0 0 0 0
0.059204102 -0.045074463 -0.37646484 0 0 0 0
0.061523438 -0.045074463 -0.37646484 0 0 0 0
0.064025879 -0.045196533 -0.37744141 0 0 0 0
0.06652832 -0.045318604 -0.37841797 0 0 0 0
0.068908691 -0.045318604 -0.37841797 0 0 0 0
0.071472168 -0.045410156 -0.37939453 0 0 0 0
0.073791504 -0.045410156 -0.37939453 0 0 0 0
0.076171875 -0.045410156 -0.37939453 0 0 0 0
0.078125 -0.045196533 -0.37744141 0 0 0 0
0.08001709 -0.044952393 -0.37524414 0 0 0 0
0.08215332 -0.044830322 -0.37426758 0 0 0 0
0.084228516 -0.044708252 -0.37329102 0 0 0 0
0.086303711 -0.044586182 -0.37231445 0 0 0 0
0.088378906 -0.044464111 -0.37133789 0 0 0 0
0.090698242 -0.044464111 -0.37133789 0 0 0 0
0.092773438 -0.044342041 -0.37036133 0 0 0 0
0.095031738 -0.044342041 -0.37036133 0 0 0 0
0.097351074 -0.044342041 -0.37036133 0 0 0 0
0.09967041 -0.044342041 -0.37036133 0 0 0 0
0.10198975 -0.044342041 -0.37036133 0 0 0 0
0.10424805 -0.044342041 -0.37036133 0 0 0 0
0.10656738 -0.044342041 -0.37036133 0 0 0 0
0.10888672 -0.044342041 -0.37036133 0 0 0 0
0.11114502 -0.044342041 -0.37036133 0 0 0 0
0.11315918 -0.044219971 -0.36938477 0 0 0 0
-0.12695312 -0.044616699 -0.35424805 0 0 0 0
-0.12481689 -0.044616699 -0.35424805 0 0 0 0
-0.12261963 -0.044616699 -0.35424805 0 0 0 0
-0.12042236 -0.044616699 -0.35424805 0 0 0 0
-0.11816406 -0.044616699 -0.35424805 0 0 0 0
-0.1159668 -0.044616699 -0.35424805 0 0 0 0
-0.11376953 -0.044616699 -0.35424805 0 0 0 0
-0.11157227 -0.044616699 -0.35424805 0 0 0 0
-0.109375 -0.044616699 -0.35424805 0 0 0 0
-0.10717773 -0.044616699 -0.35424805 0 0 0 0
-0.10498047 -0.044616699 -0.35424805 0 0 0 0
-0.1027832 -0.044616699 -0.35424805 0 0 0 0
-0.10058594 -0.044616699 -0.35424805 0 0 0 0
-0.098388672 -0.044616699 -0.35424805 0 0 0 0
-0.096191406 -0.044616699 -0.35424805 0 0 0 0
-0.093994141 -0.044616699 -0.35424805 0 0 0 0
-0.091796875 -0.044616699 -0.35424805 0 0 0 0
-0.089538574 -0.044616699 -0.35424805 0 0 0 0
-0.087341309 -0.044616699 -0.35424805 0 0 0 0
-0.085144043 -0.044616699 -0.35424805 0 0 0 0
-0.082946777 -0.044616699 -0.35424805 0 0 0 0
-0.080749512 -0.044616699 -0.35424805 0 0 0 0
-0.078552246 -0.044616699 -0.35424805 0 0 0 0
-0.07635498 -0.044616699 -0.35424805 0 0 0 0
-0.074157715 -0.044616699 -0.35424805 0 0 0 0
-0.071960449 -0.044616699 -0.35424805 0 0 0 0
-0.069763184 -0.044616699 -0.35424805 0 0 0 0
-0.067565918 -0.044616699 -0.35424805 0 0 0 0
-0.065368652 -0.044616699 -0.35424805 0 0 0 0
-0.062988281 -0.044494629 -0.35327148 0 0 0 0
-0.060791016 -0.044494629 -0.35327148 0 0 0 0
-0.05859375 -0.044494629 -0.35327148 0 0 0 0
-0.056396484 -0.044494629 -0.35327148 0 0 0 0
-0.054199219 -0.044494629 -0.35327148 0 0 0 0
-0.052001953 -0.044494629 -0.35327148 0 0 0 0
-0.049804688 -0.044494629 -0.35327148 0 0 0 0
-0.047607422 -0.044494629 -0.35327148 0 0 0 0
-0.045410156 -0.044494629 -0.35327148 0 0 0 0
-0.043212891 -0.044494629 -0.35327148 0 0 0 0
-0.041015625 -0.044494629 -0.35327148 0 0 0 0
-0.038818359 -0.044494629 -0.35327148 0 0 0 0
-0.036621094 -0.044494629 -0.35327148 0 0 0 0
-0.034423828 -0.044494629 -0.35327148 0 0 0 0
-0.032226562 -0.044494629 -0.35327148 0 0 0 0
-0.030044556 -0.044494629 -0.35327148 0 0 0 0
-0.02784729 -0.044494629 -0.35327148 0 0 0 0
-0.025665283 -0.044494629 -0.35327148 0 0 0 0
-0.0065879822 -0.049682617 -0.39453125 0 0 0 0
-0.0040855408 -0.049041748 -0.3894043 0 0 0 0
-0.0016622543 -0.048919678 -0.38842773 0 0 0 0
0.00075149536 -0.048919678 -0.38842773 0 0 0 0
0.0031642914 -0.048919678 -0.38842773 0 0 0 0
0.0055770874 -0.048919678 -0.38842773 0 0 0 0
0.0080108643 -0.049041748 -0.3894043 0 0 0 0
0.010482788 -0.049285889 -0.39135742 0 0 0 0
0.012916565 -0.049285889 -0.39135742 0 0 0 0
0.015350342 -0.049285889 -0.39135742 0 0 0 0
0.017730713 -0.049163818 -0.39038086 0 0 0 0
0.02015686 -0.049163818 -0.39038086 0 0 0 0
0.022521973 -0.049041748 -0.3894043 0 0 0 0
0.02482605 -0.048797607 -0.38745117 0 0 0 0
0.027084351 -0.048553467 -0.38549805 0 0 0 0
0.029403687 -0.048400879 -0.38427734 0 0 0 0
0.031616211 -0.048156738 -0.38232422 0 0 0 0
0.033905029 -0.048034668 -0.38134766 0 0 0 0
0.036193848 -0.047912598 -0.38037109 0 0 0 0
0.038452148 -0.047790527 -0.37939453 0 0 0 0
0.040710449 -0.047668457 -0.37841797 0 0 0 0
0.042938232 -0.047515869 -0.37744141 0 0 0 0
0.045166016 -0.047393799 -0.37646484 0 0 0 0
0.047485352 -0.047393799 -0.37646484 0 0 0 0
0.049713135 -0.047271729 -0.37524414 0 0 0 0
0.052032471 -0.047271729 -0.37524414 0 0 0 0
0.054382324 -0.047271729 -0.37524414 0 0 0 0
0.05670166 -0.047271729 -0.37524414 0 0 0 0
0.059204102 -0.047393799 -0.37646484 0 0 0 0
0.061523438 -0.047393799 -0.37646484 0 0 0 0
0.064025879 -0.047515869 -0.37744141 0 0 0 0
0.066345215 -0.047515869 -0.37744141 0 0 0 0
0.068908691 -0.047668457 -0.37841797 0 0 0 0
0.071228027 -0.047668457 -0.37841797 0 0 0 0
0.073608398 -0.047668457 -0.37841797 0 0 0 0
0.075927734 -0.047668457 -0.37841797 0 0 0 0
0.077880859 -0.047393799 -0.37646484 0 0 0 0
0.08001709 -0.047271729 -0.37524414 0 0 0 0
0.08190918 -0.047027588 -0.37329102 0 0 0 0
0.083984375 -0.046905518 -0.37231445 0 0 0 0
0.08605957 -0.046783447 -0.37133789 0 0 0 0
0.088134766 -0.046630859 -0.37036133 0 0 0 0
0.090454102 -0.046630859 -0.37036133 0 0 0 0
0.092529297 -0.046508789 -0.36938477 0 0 0 0
0.094787598 -0.046508789 -0.36938477 0 0 0 0
0.097106934 -0.046508789 -0.36938477 0 0 0 0
0.099365234 -0.046508789 -0.36938477 0 0 0 0
0.10168457 -0.046508789 -0.36938477 0 0 0 0
0.10400391 -0.046508789 -0.36938477 0 0 0 0
0.10626221 -0.046508789 -0.36938477 0 0 0 0
0.10858154 -0.046508789 -0.36938477 0 0 0 0
0.11090088 -0.046508789 -0.36938477 0 0 0 0
0.11315918 -0.046508789 -0.36938477 0 0 0 0
0.11547852 -0.046508789 -0.36938477 0 0 0 0
-0.12695312 -0.046813965 -0.35424805 0 0 0 0
-0.12481689 -0.046813965 -0.35424805 0 0 0 0
-0.12261963 -0.046813965 -0.35424805 0 0 0 0
-0.12042236 -0.046813965 -0.35424805 0 0 0 0
-0.11816406 -0.046813965 -0.35424805 0 0 0 0
-0.1159668 -0.046813965 -0.35424805 0 0 0 0
-0.11376953 -0.046813965 -0.35424805 0 0 0 0
-0.11157227 -0.046813965 -0.35424805 0 0 0 0
-0.109375 -0.046813965 -0.35424805 0 0 0 0
-0.10717773 -0.046813965 -0.35424805 0 0 0 0
-0.10498047 -0.046813965 -0.35424805 0 0 0 0
-0.1027832 -0.046813965 -0.35424805 0 0 0 0
-0.10058594 -0.046813965 -0.35424805 0 0 0 0
-0.098388672 -0.046813965 -0.35424805 0 0 0 0
-0.096191406 -0.046813965 -0.35424805 0 0 0 0
-0.093994141 -0.046813965 -0.35424805 0 0 0 0
-0.091796875 -0.046813965 -0.35424805 0 0 0 0
-0.089538574 -0.046813965 -0.35424805 0 0 0 0
-0.087341309 -0.046813965 -0.35424805 0 0 0 0
-0.085144043 -0.046813965 -0.35424805 0 0 0 0
-0.082946777 -0.046813965 -0.35424805 0 0 0 0
-0.080749512 -0.046813965 -0.35424805 0 0 0 0
-0.078552246 -0.046813965 -0.35424805 0 0 0 0
-0.07635498 -0.046813965 -0.35424805 0 0 0 0
-0.074157715 -0.046813965 -0.35424805 0 0 0 0
-0.071960449 -0.046813965 -0.35424805 0 0 0 0
-0.069763184 -0.046813965 -0.35424805 0 0 0 0
-0.067565918 -0.046813965 -0.35424805 0 0 0 0
-0.065185547 -0.046691895 -0.35327148 0 0 0 0
-0.062988281 -0.046691895 -0.35327148 0 0 0 0
-0.060791016 -0.046691895 -0.35327148 0 0 0 0
-0.05859375 -0.046691895 -0.35327148 0 0 0 0
-0.056396484 -0.046691895 -0.35327148 0 0 0 0
-0.054199219 -0.046691895 -0.35327148 0 0 0 0
-0.052001953 -0.046691895 -0.35327148 0 0 0 0
-0.049804688 -0.046691895 -0.35327148 0 0 0 0
-0.047607422 -0.046691895 -0.35327148 0 0 0 0
-0.045410156 -0.046691895 -0.35327148 0 0 0 0
-0.043212891 -0.046691895 -0.35327148 0 0 0 0
-0.041015625 -0.046691895 -0.35327148 0 0 0 0
-0.038818359 -0.046691895 -0.35327148 0 0 0 0
-0.036621094 -0.046691895 -0.35327148 0 0 0 0
-0.034423828 -0.046691895 -0.35327148 0 0 0 0
-0.032226562 -0.046691895 -0.35327148 0 0 0 0
-0.030044556 -0.046691895 -0.35327148 0 0 0 0
-0.02784729 -0.046691895 -0.35327148 0 0 0 0
-0.0040969849 -0.051605225 -0.39038086 0 0 0 0
-0.001666069 -0.051452637 -0.3894043 0 0 0 0
0.00075340271 -0.051452637 -0.3894043 0 0 0 0
0.0031642914 -0.051330566 -0.38842773 0 0 0 0
0.0055770874 -0.051330566 -0.38842773 0 0 0 0
0.0080490112 -0.051727295 -0.39135742 0 0 0 0
0.010513306 -0.051849365 -0.39233398 0 0 0 0
0.012985229 -0.052001953 -0.39331055 0 0 0 0
0.015388489 -0.051849365 -0.39233398 0 0 0 0
0.017822266 -0.051849365 -0.39233398 0 0 0 0
0.020217896 -0.051727295 -0.39135742 0 0 0 0
0.022583008 -0.051605225 -0.39038086 0 0 0 0
0.02482605 -0.051208496 -0.38745117 0 0 0 0
0.027084351 -0.050933838 -0.38549805 0 0 0 0
0.029403687 -0.050811768 -0.38427734 0 0 0 0
0.031616211 -0.050537109 -0.38232422 0 0 0 0
0.033905029 -0.050415039 -0.38134766 0 0 0 0
0.036193848 -0.050262451 -0.38037109 0 0 0 0
0.038452148 -0.050140381 -0.37939453 0 0 0 0
0.040710449 -0.050018311 -0.37841797 0 0 0 0
0.042938232 -0.049865723 -0.37744141 0 0 0 0
0.045288086 -0.049865723 -0.37744141 0 0 0 0
0.047485352 -0.049743652 -0.37646484 0 0 0 0
0.049835205 -0.049743652 -0.37646484 0 0 0 0
0.052185059 -0.049743652 -0.37646484 0 0 0 0
0.054504395 -0.049743652 -0.37646484 0 0 0 0
0.056854248 -0.049743652 -0.37646484 0 0 0 0
0.059204102 -0.049743652 -0.37646484 0 0 0 0
0.061523438 -0.049743652 -0.37646484 0 0 0 0
0.064025879 -0.049865723 -0.37744141 0 0 0 0
0.066345215 -0.049865723 -0.37744141 0 0 0 0
0.068725586 -0.049865723 -0.37744141 0 0 0 0
0.071228027 -0.050018311 -0.37841797 0 0 0 0
0.073425293 -0.049865723 -0.37744141 0 0 0 0
0.075744629 -0.049865723 -0.37744141 0 0 0 0
0.077697754 -0.049621582 -0.37524414 0 0 0 0
0.079833984 -0.049468994 -0.37426758 0 0 0 0
0.08190918 -0.049346924 -0.37329102 0 0 0 0
0.083984375 -0.049224854 -0.37231445 0 0 0 0
0.08605957 -0.049072266 -0.37133789 0 0 0 0
0.088134766 -0.048950195 -0.37036133 0 0 0 0
0.090209961 -0.048797607 -0.36938477 0 0 0 0
0.092285156 -0.048675537 -0.3684082 0 0 0 0
0.094543457 -0.048675537 -0.3684082 0 0 0 0
0.096862793 -0.048675537 -0.3684082 0 0 0 0
0.099121094 -0.048675537 -0.3684082 0 0 0 0
0.10144043 -0.048675537 -0.3684082 0 0 0 0
0.10369873 -0.048675537 -0.3684082 0 0 0 0
0.10601807 -0.048675537 -0.3684082 0 0 0 0
0.10827637 -0.048675537 -0.3684082 0 0 0 0
0.1105957 -0.048675537 -0.3684082 0 0 0 0
0.112854 -0.048675537 -0.3684082 0 0 0 0
0.11517334 -0.048675537 -0.3684082 0 0 0 0
0.11743164 -0.048675537 -0.3684082 0 0 0 0
-0.1295166 -0.049163818 -0.35522461 0 0 0 0
-0.12695312 -0.04901123 -0.35424805 0 0 0 0
-0.12481689 -0.04901123 -0.35424805 0 0 0 0
-0.12261963 -0.04901123 -0.35424805 0 0 0 0
-0.12042236 -0.04901123 -0.35424805 0 0 0 0
-0.11816406 -0.04901123 -0.35424805 0 0 0 0
-0.1159668 -0.04901123 -0.35424805 0 0 0 0
-0.11376953 -0.04901123 -0.35424805 0 0 0 0
-0.11157227 -0.04901123 -0.35424805 0 0 0 0
-0.109375 -0.04901123 -0.35424805 0 0 0 0
-0.10717773 -0.04901123 -0.35424805 0 0 0 0
-0.10498047 -0.04901123 -0.35424805 0 0 0 0
-0.1027832 -0.04901123 -0.35424805 0 0 0 0
-0.10058594 -0.04901123 -0.35424805 0 0 0 0
-0.098388672 -0.04901123 -0.35424805 0 0 0 0
-0.096191406 -0.04901123 -0.35424805 0 0 0 0
-0.093994141 -0.04901123 -0.35424805 0 0 0 0
-0.091796875 -0.04901123 -0.35424805 0 0 0 0
-0.089538574 -0.04901123 -0.35424805 0 0 0 0
-0.087341309 -0.04901123 -0.35424805 0 0 0 0
-0.085144043 -0.04901123 -0.35424805 0 0 0 0
-0.082946777 -0.04901123 -0.35424805 0 0 0 0
-0.080749512 -0.04901123 -0.35424805 0 0 0 0
-0.078552246 -0.04901123 -0.35424805 0 0 0 0
-0.07635498 -0.04901123 -0.35424805 0 0 0 0
-0.074157715 -0.04901123 -0.35424805 0 0 0 0
-0.071960449 -0.04901123 -0.35424805 0 0 0 0
-0.069763184 -0.04901123 -0.35424805 0 0 0 0
-0.067382812 -0.04888916 -0.35327148 0 0 0 0
-0.065185547 -0.04888916 -0.35327148 0 0 0 0
-0.062988281 -0.04888916 -0.35327148 0 0 0 0
-0.060791016 -0.04888916 -0.35327148 0 0 0 0
-0.05859375 -0.04888916 -0.35327148 0 0 0 0
-0.056396484 -0.04888916 -0.35327148 0 0 0 0
-0.054199219 -0.04888916 -0.35327148 0 0 0 0
-0.052001953 -0.04888916 -0.35327148 0 0 0 0
-0.049804688 -0.04888916 -0.35327148 0 0 0 0
-0.047607422 -0.04888916 -0.35327148 0 0 0 0
-0.045410156 -0.04888916 -0.35327148 0 0 0 0
-0.04309082 -0.048736572 -0.35229492 0 0 0 0
-0.040893555 -0.048736572 -0.35229492 0 0 0 0
-0.038818359 -0.04888916 -0.35327148 0 0 0 0
-0.036621094 -0.04888916 -0.35327148 0 0 0 0
-0.034423828 -0.04888916 -0.35327148 0 0 0 0
-0.032226562 -0.04888916 -0.35327148 0 0 0 0
-0.030044556 -0.04888916 -0.35327148 0 0 0 0
-0.0016746521 -0.054168701 -0.39135742 0 0 0 0
0.00075531006 -0.054016113 -0.39038086 0 0 0 0
0.0031814575 -0.054016113 -0.39038086 0 0 0 0
0.0055923462 -0.053894043 -0.3894043 0 0 0 0
0.017913818 -0.054595947 -0.39453125 0 0 0 0
0.020309448 -0.054443359 -0.39331055 0 0 0 0
0.022705078 -0.054290771 -0.39233398 0 0 0 0
0.02482605 -0.053619385 -0.38745117 0 0 0 0
0.027084351 -0.053344727 -0.38549805 0 0 0 0
0.029327393 -0.053039551 -0.38330078 0 0 0 0
0.031616211 -0.05291748 -0.38232422 0 0 0 0
0.033905029 -0.052764893 -0.38134766 0 0 0 0
0.036193848 -0.052642822 -0.38037109 0 0 0 0
0.038452148 -0.052490234 -0.37939453 0 0 0 0
0.040710449 -0.052368164 -0.37841797 0 0 0 0
0.042938232 -0.052215576 -0.37744141 0 0 0 0
0.045288086 -0.052215576 -0.37744141 0 0 0 0
0.047637939 -0.052215576 -0.37744141 0 0 0 0
0.049957275 -0.052215576 -0.37744141 0 0 0 0
0.052185059 -0.052093506 -0.37646484 0 0 0 0
0.054504395 -0.052093506 -0.37646484 0 0 0 0
0.056854248 -0.052093506 -0.37646484 0 0 0 0
0.059356689 -0.052215576 -0.37744141 0 0 0 0
0.061706543 -0.052215576 -0.37744141 0 0 0 0
0.064025879 -0.052215576 -0.37744141 0 0 0 0
0.066345215 -0.052215576 -0.37744141 0 0 0 0
0.068908691 -0.052368164 -0.37841797 0 0 0 0
0.071228027 -0.052368164 -0.37841797 0 0 0 0
0.073425293 -0.052215576 -0.37744141 0 0 0 0
0.075561523 -0.052093506 -0.37646484 0 0 0 0
0.077697754 -0.051940918 -0.37524414 0 0 0 0
0.079833984 -0.05178833 -0.37426758 0 0 0 0
0.081665039 -0.051513672 -0.37231445 0 0 0 0
0.08380127 -0.051391602 -0.37133789 0 0 0 0
0.085876465 -0.051239014 -0.37036133 0 0 0 0
0.087890625 -0.051116943 -0.36938477 0 0 0 0
0.090209961 -0.051116943 -0.36938477 0 0 0 0
0.092285156 -0.050964355 -0.3684082 0 0 0 0
0.094543457 -0.050964355 -0.3684082 0 0 0 0
0.096862793 -0.050964355 -0.3684082 0 0 0 0
0.099121094 -0.050964355 -0.3684082 0 0 0 0
0.10144043 -0.050964355 -0.3684082 0 0 0 0
0.10369873 -0.050964355 -0.3684082 0 0 0 0
0.10601807 -0.050964355 -0.3684082 0 0 0 0
0.10827637 -0.050964355 -0.3684082 0 0 0 0
0.1105957 -0.050964355 -0.3684082 0 0 0 0
0.112854 -0.050964355 -0.3684082 0 0 0 0
0.11517334 -0.050964355 -0.3684082 0 0 0 0
0.11743164 -0.050964355 -0.3684082 0 0 0 0
0.11975098 -0.050964355 -0.3684082 0 0 0 0
-0.13171387 -0.051361084 -0.35522461 0 0 0 0
-0.12915039 -0.051239014 -0.35424805 0 0 0 0
-0.12695312 -0.051239014 -0.35424805 0 0 0 0
-0.12481689 -0.051239014 -0.35424805 0 0 0 0
-0.12261963 -0.051239014 -0.35424805 0 0 0 0
-0.12042236 -0.051239014 -0.35424805 0 0 0 0
-0.11816406 -0.051239014 -0.35424805 0 0 0 0
-0.1159668 -0.051239014 -0.35424805 0 0 0 0
-0.11376953 -0.051239014 -0.35424805 0 0 0 0
-0.11157227 -0.051239014 -0.35424805 0 0 0 0
-0.109375 -0.051239014 -0.35424805 0 0 0 0
-0.10717773 -0.051239014 -0.35424805 0 0 0 0
-0.10498047 -0.051239014 -0.35424805 0 0 0 0
-0.1027832 -0.051239014 -0.35424805 0 0 0 0
-0.10058594 -0.051239014 -0.35424805 0 0 0 0
-0.098388672 -0.051239014 -0.35424805 0 0 0 0
-0.096191406 -0.051239014 -0.35424805 0 0 0 0
-0.093688965 -0.051086426 -0.35327148 0 0 0 0
-0.091491699 -0.051086426 -0.35327148 0 0 0 0
-0.089294434 -0.051086426 -0.35327148 0 0 0 0
-0.087097168 -0.051086426 -0.35327148 0 0 0 0
-0.084899902 -0.051086426 -0.35327148 0 0 0 0
-0.082702637 -0.051086426 -0.35327148 0 0 0 0
-0.080749512 -0.051239014 -0.35424805 0 0 0 0
-0.078552246 -0.051239014 -0.35424805 0 0 0 0
-0.07635498 -0.051239014 -0.35424805 0 0 0 0
-0.074157715 -0.051239014 -0.35424805 0 0 0 0
-0.071716309 -0.051086426 -0.35327148 0 0 0 0
-0.069580078 -0.051086426 -0.35327148 0 0 0 0
-0.067382812 -0.051086426 -0.35327148 0 0 0 0
-0.065185547 -0.051086426 -0.35327148 0 0 0 0
-0.062988281 -0.051086426 -0.35327148 0 0 0 0
-0.060791016 -0.051086426 -0.35327148 0 0 0 0
-0.05859375 -0.051086426 -0.35327148 0 0 0 0
-0.056396484 -0.051086426 -0.35327148 0 0 0 0
-0.054199219 -0.051086426 -0.35327148 0 0 0 0
-0.052001953 -0.051086426 -0.35327148 0 0 0 0
-0.049804688 -0.051086426 -0.35327148 0 0 0 0
-0.047485352 -0.050933838 -0.35229492 0 0 0 0
-0.045288086 -0.050933838 -0.35229492 0 0 0 0
-0.04309082 -0.050933838 -0.35229492 0 0 0 0
-0.040893555 -0.050933838 -0.35229492 0 0 0 0
-0.038726807 -0.050933838 -0.35229492 0 0 0 0
-0.036621094 -0.051086426 -0.35327148 0 0 0 0
-0.034423828 -0.051086426 -0.35327148 0 0 0 0
-0.032226562 -0.051086426 -0.35327148 0 0 0 0
-0.030044556 -0.051086426 -0.35327148 0 0 0 0
0.040710449 -0.054718018 -0.37841797 0 0 0 0
0.042938232 -0.05456543 -0.37744141 0 0 0 0
0.045288086 -0.05456543 -0.37744141 0 0 0 0
0.047637939 -0.05456543 -0.37744141 0 0 0 0
0.049957275 -0.05456543 -0.37744141 0 0 0 0
0.052307129 -0.05456543 -0.37744141 0 0 0 0
0.054656982 -0.05456543 -0.37744141 0 0 0 0
0.057006836 -0.05456543 -0.37744141 0 0 0 0
0.059356689 -0.05456543 -0.37744141 0 0 0 0
0.061859131 -0.054718018 -0.37841797 0 0 0 0
0.064208984 -0.054718018 -0.37841797 0 0 0 0
0.06652832 -0.054718018 -0.37841797 0 0 0 0
0.068908691 -0.054718018 -0.37841797 0 0 0 0
0.071228027 -0.054718018 -0.37841797 0 0 0 0
0.073425293 -0.05456543 -0.37744141 0 0 0 0
0.075561523 -0.054412842 -0.37646484 0 0 0 0
0.077697754 -0.054260254 -0.37524414 0 0 0 0
0.079589844 -0.053985596 -0.37329102 0 0 0 0
0.081665039 -0.053833008 -0.37231445 0 0 0 0
0.08380127 -0.05368042 -0.37133789 0 0 0 0
0.085876465 -0.05355835 -0.37036133 0 0 0 0
0.087890625 -0.053405762 -0.36938477 0 0 0 0
0.090209961 -0.053405762 -0.36938477 0 0 0 0
0.092285156 -0.053253174 -0.3684082 0 0 0 0
0.094543457 -0.053253174 -0.3684082 0 0 0 0
0.096862793 -0.053253174 -0.3684082 0 0 0 0
0.099121094 -0.053253174 -0.3684082 0 0 0 0
0.10144043 -0.053253174 -0.3684082 0 0 0 0
0.10369873 -0.053253174 -0.3684082 0 0 0 0
0.10571289 -0.053100586 -0.36743164 0 0 0 0
0.10797119 -0.053100586 -0.36743164 0 0 0 0
0.11029053 -0.053100586 -0.36743164 0 0 0 0
0.112854 -0.053253174 -0.3684082 0 0 0 0
0.11517334 -0.053253174 -0.3684082 0 0 0 0
0.11743164 -0.053253174 -0.3684082 0 0 0 0
0.11975098 -0.053253174 -0.3684082 0 0 0 0
-0.13134766 -0.053436279 -0.35424805 0 0 0 0
-0.12915039 -0.053436279 -0.35424805 0 0 0 0
-0.12695312 -0.053436279 -0.35424805 0 0 0 0
-0.12481689 -0.053436279 -0.35424805 0 0 0 0
-0.12261963 -0.053436279 -0.35424805 0 0 0 0
-0.12042236 -0.053436279 -0.35424805 0 0 0 0
-0.11816406 -0.053436279 -0.35424805 0 0 0 0
-0.1159668 -0.053436279 -0.35424805 0 0 0 0
-0.11376953 -0.053436279 -0.35424805 0 0 0 0
-0.11157227 -0.053436279 -0.35424805 0 0 0 0
-0.109375 -0.053436279 -0.35424805 0 0 0 0
-0.10717773 -0.053436279 -0.35424805 0 0 0 0
-0.10498047 -0.053436279 -0.35424805 0 0 0 0
-0.10247803 -0.053283691 -0.35327148 0 0 0 0
-0.10028076 -0.053283691 -0.35327148 0 0 0 0
-0.098083496 -0.053283691 -0.35327148 0 0 0 0
-0.09588623 -0.053283691 -0.35327148 0 0 0 0
-0.093688965 -0.053283691 -0.35327148 0 0 0 0
-0.091491699 -0.053283691 -0.35327148 0 0 0 0
-0.089294434 -0.053283691 -0.35327148 0 0 0 0
-0.087097168 -0.053283691 -0.35327148 0 0 0 0
-0.084899902 -0.053283691 -0.35327148 0 0 0 0
-0.082702637 -0.053283691 -0.35327148 0 0 0 0
-0.080505371 -0.053283691 -0.35327148 0 0 0 0
-0.078308105 -0.053283691 -0.35327148 0 0 0 0
-0.07611084 -0.053283691 -0.35327148 0 0 0 0
-0.073913574 -0.053283691 -0.35327148 0 0 0 0
-0.071716309 -0.053283691 -0.35327148 0 0 0 0
-0.069580078 -0.053283691 -0.35327148 0 0 0 0
-0.067382812 -0.053283691 -0.35327148 0 0 0 0
-0.065185547 -0.053283691 -0.35327148 0 0 0 0
-0.062988281 -0.053283691 -0.35327148 0 0 0 0
-0.060791016 -0.053283691 -0.35327148 0 0 0 0
-0.05859375 -0.053283691 -0.35327148 0 0 0 0
-0.056396484 -0.053283691 -0.35327148 0 0 0 0
-0.054199219 -0.053283691 -0.35327148 0 0 0 0
-0.051849365 -0.053131104 -0.35229492 0 0 0 0
-0.0496521 -0.053131104 -0.35229492 0 0 0 0
-0.047485352 -0.053131104 -0.35229492 0 0 0 0
-0.045288086 -0.053131104 -0.35229492 0 0 0 0
-0.04309082 -0.053131104 -0.35229492 0 0 0 0
-0.040893555 -0.053131104 -0.35229492 0 0 0 0
-0.038726807 -0.053131104 -0.35229492 0 0 0 0
-0.036529541 -0.053131104 -0.35229492 0 0 0 0
-0.034332275 -0.053131104 -0.35229492 0 0 0 0
-0.032226562 -0.053283691 -0.35327148 0 0 0 0
0.045410156 -0.057067871 -0.37841797 0 0 0 0
0.04776001 -0.057067871 -0.37841797 0 0 0 0
0.050109863 -0.057067871 -0.37841797 0 0 0 0
0.052581787 -0.057220459 -0.37939453 0 0 0 0
0.05480957 -0.057067871 -0.37841797 0 0 0 0
0.057159424 -0.057067871 -0.37841797 0 0 0 0
0.059509277 -0.057067871 -0.37841797 0 0 0 0
0.062011719 -0.057220459 -0.37939453 0 0 0 0
0.06439209 -0.057220459 -0.37939453 0 0 0 0
0.066711426 -0.057220459 -0.37939453 0 0 0 0
0.069091797 -0.057220459 -0.37939453 0 0 0 0
0.071228027 -0.057067871 -0.37841797 0 0 0 0
0.073425293 -0.056915283 -0.37744141 0 0 0 0
0.075561523 -0.056762695 -0.37646484 0 0 0 0
0.077697754 -0.056610107 -0.37524414 0 0 0 0
0.079589844 -0.056304932 -0.37329102 0 0 0 0
0.081665039 -0.056152344 -0.37231445 0 0 0 0
0.08380127 -0.055999756 -0.37133789 0 0 0 0
0.08605957 -0.055999756 -0.37133789 0 0 0 0
0.088134766 -0.055847168 -0.37036133 0 0 0 0
0.090209961 -0.05569458 -0.36938477 0 0 0 0
0.092529297 -0.05569458 -0.36938477 0 0 0 0
0.094543457 -0.055541992 -0.3684082 0 0 0 0
0.096862793 -0.055541992 -0.3684082 0 0 0 0
0.099121094 -0.055541992 -0.3684082 0 0 0 0
0.10144043 -0.055541992 -0.3684082 0 0 0 0
0.10369873 -0.055541992 -0.3684082 0 0 0 0
0.10571289 -0.055389404 -0.36743164 0 0 0 0
0.10797119 -0.055389404 -0.36743164 0 0 0 0
0.11029053 -0.055389404 -0.36743164 0 0 0 0
0.11254883 -0.055389404 -0.36743164 0 0 0 0
0.11517334 -0.055541992 -0.3684082 0 0 0 0
0.11743164 -0.055541992 -0.3684082 0 0 0 0
0.11975098 -0.055541992 -0.3684082 0 0 0 0
-0.13391113 -0.055786133 -0.35522461 0 0 0 0
-0.13134766 -0.055633545 -0.35424805 0 0 0 0
-0.12915039 -0.055633545 -0.35424805 0 0 0 0
-0.12695312 -0.055633545 -0.35424805 0 0 0 0
-0.12481689 -0.055633545 -0.35424805 0 0 0 0
-0.12261963 -0.055633545 -0.35424805 0 0 0 0
-0.12042236 -0.055633545 -0.35424805 0 0 0 0
-0.11816406 -0.055633545 -0.35424805 0 0 0 0
-0.1159668 -0.055633545 -0.35424805 0 0 0 0
-0.11376953 -0.055633545 -0.35424805 0 0 0 0
-0.11157227 -0.055633545 -0.35424805 0 0 0 0
-0.10906982 -0.055480957 -0.35327148 0 0 0 0
-0.10687256 -0.055480957 -0.35327148 0 0 0 0
-0.10467529 -0.055480957 -0.35327148 0 0 0 0
-0.10247803 -0.055480957 -0.35327148 0 0 0 0
-0.10028076 -0.055480957 -0.35327148 0 0 0 0
-0.098083496 -0.055480957 -0.35327148 0 0 0 0
-0.09588623 -0.055480957 -0.35327148 0 0 0 0
-0.093688965 -0.055480957 -0.35327148 0 0 0 0
-0.091491699 -0.055480957 -0.35327148 0 0 0 0
-0.089294434 -0.055480957 -0.35327148 0 0 0 0
-0.087097168 -0.055480957 -0.35327148 0 0 0 0
-0.084899902 -0.055480957 -0.35327148 0 0 0 0
-0.082702637 -0.055480957 -0.35327148 0 0 0 0
-0.080505371 -0.055480957 -0.35327148 0 0 0 0
-0.078308105 -0.055480957 -0.35327148 0 0 0 0
-0.07611084 -0.055480957 -0.35327148 0 0 0 0
-0.073913574 -0.055480957 -0.35327148 0 0 0 0
-0.071716309 -0.055480957 -0.35327148 0 0 0 0
-0.069580078 -0.055480957 -0.35327148 0 0 0 0
-0.067382812 -0.055480957 -0.35327148 0 0 0 0
-0.065185547 -0.055480957 -0.35327148 0 0 0 0
-0.062988281 -0.055480957 -0.35327148 0 0 0 0
-0.060791016 -0.055480957 -0.35327148 0 0 0 0
-0.05859375 -0.055480957 -0.35327148 0 0 0 0
-0.056243896 -0.055328369 -0.35229492 0 0 0 0
-0.054046631 -0.055328369 -0.35229492 0 0 0 0
-0.051849365 -0.055328369 -0.35229492 0 0 0 0
-0.0496521 -0.055328369 -0.35229492 0 0 0 0
-0.047485352 -0.055328369 -0.35229492 0 0 0 0
-0.045288086 -0.055328369 -0.35229492 0 0 0 0
-0.04309082 -0.055328369 -0.35229492 0 0 0 0
-0.040893555 -0.055328369 -0.35229492 0 0 0 0
-0.038726807 -0.055328369 -0.35229492 0 0 0 0
-0.036529541 -0.055328369 -0.35229492 0 0 0 0
-0.034332275 -0.055328369 -0.35229492 0 0 0 0
-0.03213501 -0.055328369 -0.35229492 0 0 0 0
0.050231934 -0.059570312 -0.37939453 0 0 0 0
0.052734375 -0.0597229 -0.38037109 0 0 0 0
0.055084229 -0.0597229 -0.38037109 0 0 0 0
0.057312012 -0.059570312 -0.37939453 0 0 0 0
0.059661865 -0.059570312 -0.37939453 0 0 0 0
0.062011719 -0.059570312 -0.37939453 0 0 0 0
0.06451416 -0.0597229 -0.38037109 0 0 0 0
0.066894531 -0.0597229 -0.38037109 0 0 0 0
0.069091797 -0.059570312 -0.37939453 0 0 0 0
0.071472168 -0.059570312 -0.37939453 0 0 0 0
0.073608398 -0.059417725 -0.37841797 0 0 0 0
0.075561523 -0.059112549 -0.37646484 0 0 0 0
0.077697754 -0.058929443 -0.37524414 0 0 0 0
0.079589844 -0.058624268 -0.37329102 0 0 0 0
0.081665039 -0.05847168 -0.37231445 0 0 0 0
0.083984375 -0.05847168 -0.37231445 0 0 0 0
0.08605957 -0.058319092 -0.37133789 0 0 0 0
0.088378906 -0.058319092 -0.37133789 0 0 0 0
0.090454102 -0.058166504 -0.37036133 0 0 0 0
0.092773438 -0.058166504 -0.37036133 0 0 0 0
0.094787598 -0.057983398 -0.36938477 0 0 0 0
0.097106934 -0.057983398 -0.36938477 0 0 0 0
0.099365234 -0.057983398 -0.36938477 0 0 0 0
0.10144043 -0.057830811 -0.3684082 0 0 0 0
0.10369873 -0.057830811 -0.3684082 0 0 0 0
0.10601807 -0.057830811 -0.3684082 0 0 0 0
0.10797119 -0.057678223 -0.36743164 0 0 0 0
0.11029053 -0.057678223 -0.36743164 0 0 0 0
0.11254883 -0.057678223 -0.36743164 0 0 0 0
0.11517334 -0.057830811 -0.3684082 0 0 0 0
0.11743164 -0.057830811 -0.3684082 0 0 0 0
0.11975098 -0.057830811 -0.3684082 0 0 0 0
-0.13354492 -0.057830811 -0.35424805 0 0 0 0
-0.13134766 -0.057830811 -0.35424805 0 0 0 0
-0.12915039 -0.057830811 -0.35424805 0 0 0 0
-0.12695312 -0.057830811 -0.35424805 0 0 0 0
-0.12481689 -0.057830811 -0.35424805 0 0 0 0
-0.12261963 -0.057830811 -0.35424805 0 0 0 0
-0.12042236 -0.057830811 -0.35424805 0 0 0 0
-0.11785889 -0.057678223 -0.35327148 0 0 0 0
-0.11566162 -0.057678223 -0.35327148 0 0 0 0
-0.11346436 -0.057678223 -0.35327148 0 0 0 0
-0.11126709 -0.057678223 -0.35327148 0 0 0 0
-0.10906982 -0.057678223 -0.35327148 0 0 0 0
-0.10687256 -0.057678223 -0.35327148 0 0 0 0
-0.10467529 -0.057678223 -0.35327148 0 0 0 0
-0.10247803 -0.057678223 -0.35327148 0 0 0 0
-0.10028076 -0.057678223 -0.35327148 0 0 0 0
-0.098083496 -0.057678223 -0.35327148 0 0 0 0
-0.09588623 -0.057678223 -0.35327148 0 0 0 0
-0.093688965 -0.057678223 -0.35327148 0 0 0 0
-0.091491699 -0.057678223 -0.35327148 0 0 0 0
-0.089294434 -0.057678223 -0.35327148 0 0 0 0
-0.087097168 -0.057678223 -0.35327148 0 0 0 0
-0.084899902 -0.057678223 -0.35327148 0 0 0 0
-0.082702637 -0.057678223 -0.35327148 0 0 0 0
-0.080505371 -0.057678223 -0.35327148 0 0 0 0
-0.078308105 -0.057678223 -0.35327148 0 0 0 0
-0.07611084 -0.057678223 -0.35327148 0 0 0 0
-0.073913574 -0.057678223 -0.35327148 0 0 0 0
-0.071716309 -0.057678223 -0.35327148 0 0 0 0
-0.069580078 -0.057678223 -0.35327148 0 0 0 0
-0.067382812 -0.057678223 -0.35327148 0 0 0 0
-0.065185547 -0.057678223 -0.35327148 0 0 0 0
-0.062988281 -0.057678223 -0.35327148 0 0 0 0
-0.06060791 -0.057495117 -0.35229492 0 0 0 0
-0.058410645 -0.057495117 -0.35229492 0 0 0 0
-0.056243896 -0.057495117 -0.35229492 0 0 0 0
-0.054046631 -0.057495117 -0.35229492 0 0 0 0
-0.051849365 -0.057495117 -0.35229492 0 0 0 0
-0.0496521 -0.057495117 -0.35229492 0 0 0 0
-0.047485352 -0.057495117 -0.35229492 0 0 0 0
-0.045288086 -0.057495117 -0.35229492 0 0 0 0
-0.04309082 -0.057495117 -0.35229492 0 0 0 0
-0.040893555 -0.057495117 -0.35229492 0 0 0 0
-0.038726807 -0.057495117 -0.35229492 0 0 0 0
-0.036529541 -0.057495117 -0.35229492 0 0 0 0
-0.034332275 -0.057495117 -0.35229492 0 0 0 0
-0.03213501 -0.057495117 -0.35229492 0 0 0 0
-0.01259613 -0.058166504 -0.35620117 0 0 0 0
-0.010353088 -0.057983398 -0.35522461 0 0 0 0
-0.0081634521 -0.058166504 -0.35620117 0 0 0 0
-0.0059509277 -0.058166504 -0.35620117 0 0 0 0
-0.0037384033 -0.058166504 -0.35620117 0 0 0 0
0.042602539 -0.061096191 -0.37426758 0 0 0 0
0.044921875 -0.061096191 -0.37426758 0 0 0 0
0.04776001 -0.061767578 -0.37841797 0 0 0 0
0.050231934 -0.061920166 -0.37939453 0 0 0 0
0.052734375 -0.062103271 -0.38037109 0 0 0 0
0.055084229 -0.062103271 -0.38037109 0 0 0 0
0.0574646 -0.062103271 -0.38037109 0 0 0 0
0.059814453 -0.062103271 -0.38037109 0 0 0 0
0.062194824 -0.062103271 -0.38037109 0 0 0 0
0.06451416 -0.062103271 -0.38037109 0 0 0 0
0.066894531 -0.062103271 -0.38037109 0 0 0 0
0.069274902 -0.062103271 -0.38037109 0 0 0 0
0.071655273 -0.062103271 -0.38037109 0 0 0 0
0.073974609 -0.062103271 -0.38037109 0 0 0 0
0.079589844 -0.060943604 -0.37329102 0 0 0 0
