ply
format ascii 1.0
comment PCL generated
element vertex 1068
property float x
property float y
property float z
property float nx
property float ny
property float nz
property float curvature
element face 0
element camera 0
property float view_px
property float view_py
property float view_pz
property float x_axisx
property float x_axisy
property float x_axisz
property float y_axisx
property float y_axisy
property float y_axisz
property float z_axisx
property float z_axisy
property float z_axisz
property float focal
property float scalex
property float scaley
property float centerx
property float centery
property int viewportx
property int viewporty
property float k1
property float k2
end_header
0.13232422 -0.0049819946 -0.35327148 0 0 0 0
0.13452148 -0.0049819946 -0.35327148 0 0 0 0
0.13671875 -0.0049819946 -0.35327148 0 0 0 0
0.13891602 -0.0049819946 -0.35327148 0 0 0 0
0.14111328 -0.0049819946 -0.35327148 0 0 0 0
0.14331055 -0.0049819946 -0.35327148 0 0 0 0
0.14550781 -0.0049819946 -0.35327148 0 0 0 0
0.14770508 -0.0049819946 -0.35327148 0 0 0 0
0.14990234 -0.0049819946 -0.35327148 0 0 0 0
0.15209961 -0.0049819946 -0.35327148 0 0 0 0
0.15429688 -0.0049819946 -0.35327148 0 0 0 0
0.15649414 -0.0049819946 -0.35327148 0 0 0 0
0.15869141 -0.0049819946 -0.35327148 0 0 0 0
0.16088867 -0.0049819946 -0.35327148 0 0 0 0
0.16308594 -0.0049819946 -0.35327148 0 0 0 0
0.16479492 -0.0049705505 -0.35229492 0 0 0 0
0.16699219 -0.0049705505 -0.35229492 0 0 0 0
0.16918945 -0.0049705505 -0.35229492 0 0 0 0
0.17138672 -0.0049705505 -0.35229492 0 0 0 0
0.17358398 -0.0049705505 -0.35229492 0 0 0 0
0.17578125 -0.0049705505 -0.35229492 0 0 0 0
0.17797852 -0.0049705505 -0.35229492 0 0 0 0
0.18017578 -0.0049705505 -0.35229492 0 0 0 0
0.18237305 -0.0049705505 -0.35229492 0 0 0 0
0.18457031 -0.0049705505 -0.35229492 0 0 0 0
0.18676758 -0.0049705505 -0.35229492 0 0 0 0
0.18896484 -0.0049705505 -0.35229492 0 0 0 0
0.19116211 -0.0049705505 -0.35229492 0 0 0 0
0.19335938 -0.0049705505 -0.35229492 0 0 0 0
0.19543457 -0.0049705505 -0.35229492 0 0 0 0
0.19763184 -0.0049705505 -0.35229492 0 0 0 0
0.1998291 -0.0049705505 -0.35229492 0 0 0 0
0.20202637 -0.0049705505 -0.35229492 0 0 0 0
0.20422363 -0.0049705505 -0.35229492 0 0 0 0
0.20581055 -0.0049552917 -0.35131836 0 0 0 0
0.20800781 -0.0049552917 -0.35131836 0 0 0 0
0.21020508 -0.0049552917 -0.35131836 0 0 0 0
0.21240234 -0.0049552917 -0.35131836 0 0 0 0
0.21459961 -0.0049552917 -0.35131836 0 0 0 0
0.21679688 -0.0049552917 -0.35131836 0 0 0 0
0.037414551 -0.0079956055 -0.39331055 0 0 0 0
0.039245605 -0.0078735352 -0.38745117 0 0 0 0
0.041442871 -0.0078277588 -0.38549805 0 0 0 0
0.043609619 -0.0077896118 -0.38330078 0 0 0 0
0.04586792 -0.0077705383 -0.38232422 0 0 0 0
0.048126221 -0.0077514648 -0.38134766 0 0 0 0
0.050384521 -0.0077285767 -0.38037109 0 0 0 0
0.052734375 -0.0077285767 -0.38037109 0 0 0 0
0.055084229 -0.0077285767 -0.38037109 0 0 0 0
0.0574646 -0.0077285767 -0.38037109 0 0 0 0
0.059814453 -0.0077285767 -0.38037109 0 0 0 0
0.062194824 -0.0077285767 -0.38037109 0 0 0 0
0.064697266 -0.0077514648 -0.38134766 0 0 0 0
0.067077637 -0.0077514648 -0.38134766 0 0 0 0
0.069641113 -0.0077705383 -0.38232422 0 0 0 0
0.07220459 -0.0077896118 -0.38330078 0 0 0 0
0.074951172 -0.0078277588 -0.38549805 0 0 0 0
0.077575684 -0.007850647 -0.38647461 0 0 0 0
0.080200195 -0.0078735352 -0.38745117 0 0 0 0
0.082580566 -0.0078735352 -0.38745117 0 0 0 0
0.085205078 -0.0078887939 -0.38842773 0 0 0 0
0.087646484 -0.0078887939 -0.38842773 0 0 0 0
0.089782715 -0.0078735352 -0.38745117 0 0 0 0
0.092224121 -0.0078735352 -0.38745117 0 0 0 0
0.094360352 -0.007850647 -0.38647461 0 0 0 0
0.096557617 -0.0078277588 -0.38549805 0 0 0 0
0.098937988 -0.0078277588 -0.38549805 0 0 0 0
0.10107422 -0.0078125 -0.38427734 0 0 0 0
0.10345459 -0.0078125 -0.38427734 0 0 0 0
0.10559082 -0.0077896118 -0.38330078 0 0 0 0
0.10797119 -0.0077896118 -0.38330078 0 0 0 0
0.11004639 -0.0077705383 -0.38232422 0 0 0 0
0.11242676 -0.0077705383 -0.38232422 0 0 0 0
0.11920166 -0.0071792603 -0.35327148 0 0 0 0
0.12139893 -0.0071792603 -0.35327148 0 0 0 0
0.12359619 -0.0071792603 -0.35327148 0 0 0 0
0.12573242 -0.0071792603 -0.35327148 0 0 0 0
0.12792969 -0.0071792603 -0.35327148 0 0 0 0
0.13012695 -0.0071792603 -0.35327148 0 0 0 0
0.13232422 -0.0071792603 -0.35327148 0 0 0 0
0.13452148 -0.0071792603 -0.35327148 0 0 0 0
0.13671875 -0.0071792603 -0.35327148 0 0 0 0
0.13891602 -0.0071792603 -0.35327148 0 0 0 0
0.14111328 -0.0071792603 -0.35327148 0 0 0 0
0.14331055 -0.0071792603 -0.35327148 0 0 0 0
0.14550781 -0.0071792603 -0.35327148 0 0 0 0
0.14770508 -0.0071792603 -0.35327148 0 0 0 0
0.14990234 -0.0071792603 -0.35327148 0 0 0 0
0.15209961 -0.0071792603 -0.35327148 0 0 0 0
0.15429688 -0.0071792603 -0.35327148 0 0 0 0
0.15649414 -0.0071792603 -0.35327148 0 0 0 0
0.15869141 -0.0071792603 -0.35327148 0 0 0 0
0.16088867 -0.0071792603 -0.35327148 0 0 0 0
0.16259766 -0.0071601868 -0.35229492 0 0 0 0
0.16479492 -0.0071601868 -0.35229492 0 0 0 0
0.16699219 -0.0071601868 -0.35229492 0 0 0 0
0.16918945 -0.0071601868 -0.35229492 0 0 0 0
0.17138672 -0.0071601868 -0.35229492 0 0 0 0
0.17358398 -0.0071601868 -0.35229492 0 0 0 0
0.17578125 -0.0071601868 -0.35229492 0 0 0 0
0.17797852 -0.0071601868 -0.35229492 0 0 0 0
0.18017578 -0.0071601868 -0.35229492 0 0 0 0
0.18237305 -0.0071601868 -0.35229492 0 0 0 0
0.18457031 -0.0071601868 -0.35229492 0 0 0 0
0.18676758 -0.0071601868 -0.35229492 0 0 0 0
0.18896484 -0.0071601868 -0.35229492 0 0 0 0
0.19116211 -0.0071601868 -0.35229492 0 0 0 0
0.19335938 -0.0071601868 -0.35229492 0 0 0 0
0.19494629 -0.0071372986 -0.35131836 0 0 0 0
0.19714355 -0.0071372986 -0.35131836 0 0 0 0
0.19934082 -0.0071372986 -0.35131836 0 0 0 0
0.20153809 -0.0071372986 -0.35131836 0 0 0 0
0.20361328 -0.0071372986 -0.35131836 0 0 0 0
0.20581055 -0.0071372986 -0.35131836 0 0 0 0
0.20800781 -0.0071372986 -0.35131836 0 0 0 0
0.21020508 -0.0071372986 -0.35131836 0 0 0 0
0.21240234 -0.0071372986 -0.35131836 0 0 0 0
0.21459961 -0.0071372986 -0.35131836 0 0 0 0
0.21679688 -0.0071372986 -0.35131836 0 0 0 0
0.21899414 -0.0071372986 -0.35131836 0 0 0 0
0.037414551 -0.010437012 -0.39331055 0 0 0 0
0.0390625 -0.010223389 -0.38549805 0 0 0 0
0.041229248 -0.010169983 -0.38330078 0 0 0 0
0.043518066 -0.010147095 -0.38232422 0 0 0 0
0.045776367 -0.010116577 -0.38134766 0 0 0 0
0.04800415 -0.010093689 -0.38037109 0 0 0 0
0.050384521 -0.010093689 -0.38037109 0 0 0 0
0.052734375 -0.010093689 -0.38037109 0 0 0 0
0.055236816 -0.010116577 -0.38134766 0 0 0 0
0.057617188 -0.010116577 -0.38134766 0 0 0 0
0.060150146 -0.010147095 -0.38232422 0 0 0 0
0.0625 -0.010147095 -0.38232422 0 0 0 0
0.064880371 -0.010147095 -0.38232422 0 0 0 0
0.067443848 -0.010169983 -0.38330078 0 0 0 0
0.070007324 -0.0102005 -0.38427734 0 0 0 0
0.072387695 -0.0102005 -0.38427734 0 0 0 0
0.075195312 -0.010253906 -0.38647461 0 0 0 0
0.077575684 -0.010253906 -0.38647461 0 0 0 0
0.080200195 -0.010276794 -0.38745117 0 0 0 0
0.082824707 -0.010307312 -0.38842773 0 0 0 0
0.085205078 -0.010307312 -0.38842773 0 0 0 0
0.087646484 -0.010307312 -0.38842773 0 0 0 0
0.090026855 -0.010307312 -0.38842773 0 0 0 0
0.092468262 -0.010307312 -0.38842773 0 0 0 0
0.094604492 -0.010276794 -0.38745117 0 0 0 0
0.097045898 -0.010276794 -0.38745117 0 0 0 0
0.099182129 -0.010253906 -0.38647461 0 0 0 0
0.1015625 -0.010253906 -0.38647461 0 0 0 0
0.10369873 -0.010223389 -0.38549805 0 0 0 0
0.10614014 -0.010223389 -0.38549805 0 0 0 0
0.10852051 -0.010223389 -0.38549805 0 0 0 0
0.1105957 -0.0102005 -0.38427734 0 0 0 0
0.11328125 -0.010223389 -0.38549805 0 0 0 0
0.1159668 -0.010253906 -0.38647461 0 0 0 0
0.11669922 -0.0093460083 -0.35229492 0 0 0 0
0.11889648 -0.0093460083 -0.35229492 0 0 0 0
0.12139893 -0.0093765259 -0.35327148 0 0 0 0
0.12359619 -0.0093765259 -0.35327148 0 0 0 0
0.12573242 -0.0093765259 -0.35327148 0 0 0 0
0.12792969 -0.0093765259 -0.35327148 0 0 0 0
0.13012695 -0.0093765259 -0.35327148 0 0 0 0
0.13232422 -0.0093765259 -0.35327148 0 0 0 0
0.13452148 -0.0093765259 -0.35327148 0 0 0 0
0.13671875 -0.0093765259 -0.35327148 0 0 0 0
0.13891602 -0.0093765259 -0.35327148 0 0 0 0
0.14111328 -0.0093765259 -0.35327148 0 0 0 0
0.14331055 -0.0093765259 -0.35327148 0 0 0 0
0.14550781 -0.0093765259 -0.35327148 0 0 0 0
0.14770508 -0.0093765259 -0.35327148 0 0 0 0
0.14990234 -0.0093765259 -0.35327148 0 0 0 0
0.15209961 -0.0093765259 -0.35327148 0 0 0 0
0.15429688 -0.0093765259 -0.35327148 0 0 0 0
0.15649414 -0.0093765259 -0.35327148 0 0 0 0
0.15869141 -0.0093765259 -0.35327148 0 0 0 0
0.16040039 -0.0093460083 -0.35229492 0 0 0 0
0.16259766 -0.0093460083 -0.35229492 0 0 0 0
0.16479492 -0.0093460083 -0.35229492 0 0 0 0
0.16699219 -0.0093460083 -0.35229492 0 0 0 0
0.16918945 -0.0093460083 -0.35229492 0 0 0 0
0.17138672 -0.0093460083 -0.35229492 0 0 0 0
0.17358398 -0.0093460083 -0.35229492 0 0 0 0
0.17578125 -0.0093460083 -0.35229492 0 0 0 0
0.17797852 -0.0093460083 -0.35229492 0 0 0 0
0.18017578 -0.0093460083 -0.35229492 0 0 0 0
0.18237305 -0.0093460083 -0.35229492 0 0 0 0
0.18457031 -0.0093460083 -0.35229492 0 0 0 0
0.18676758 -0.0093460083 -0.35229492 0 0 0 0
0.18896484 -0.0093460083 -0.35229492 0 0 0 0
0.19116211 -0.0093460083 -0.35229492 0 0 0 0
0.19274902 -0.0093231201 -0.35131836 0 0 0 0
0.19494629 -0.0093231201 -0.35131836 0 0 0 0
0.19714355 -0.0093231201 -0.35131836 0 0 0 0
0.19934082 -0.0093231201 -0.35131836 0 0 0 0
0.20153809 -0.0093231201 -0.35131836 0 0 0 0
0.20361328 -0.0093231201 -0.35131836 0 0 0 0
0.20581055 -0.0093231201 -0.35131836 0 0 0 0
0.20800781 -0.0093231201 -0.35131836 0 0 0 0
0.21020508 -0.0093231201 -0.35131836 0 0 0 0
0.21240234 -0.0093231201 -0.35131836 0 0 0 0
0.21459961 -0.0093231201 -0.35131836 0 0 0 0
0.21679688 -0.0093231201 -0.35131836 0 0 0 0
0.21899414 -0.0093231201 -0.35131836 0 0 0 0
0.22119141 -0.0093231201 -0.35131836 0 0 0 0
0.037231445 -0.012817383 -0.39135742 0 0 0 0
0.038757324 -0.012519836 -0.38232422 0 0 0 0
0.041015625 -0.012489319 -0.38134766 0 0 0 0
0.043273926 -0.012458801 -0.38037109 0 0 0 0
0.045532227 -0.012420654 -0.37939453 0 0 0 0
0.04788208 -0.012420654 -0.37939453 0 0 0 0
0.050231934 -0.012420654 -0.37939453 0 0 0 0
0.052581787 -0.012420654 -0.37939453 0 0 0 0
0.055236816 -0.012489319 -0.38134766 0 0 0 0
0.057769775 -0.012519836 -0.38232422 0 0 0 0
0.060302734 -0.012557983 -0.38330078 0 0 0 0
0.062805176 -0.012588501 -0.38427734 0 0 0 0
0.065246582 -0.012588501 -0.38427734 0 0 0 0
0.067810059 -0.012619019 -0.38549805 0 0 0 0
0.07019043 -0.012619019 -0.38549805 0 0 0 0
0.072753906 -0.012657166 -0.38647461 0 0 0 0
0.075195312 -0.012657166 -0.38647461 0 0 0 0
0.077758789 -0.012687683 -0.38745117 0 0 0 0
0.080383301 -0.012718201 -0.38842773 0 0 0 0
0.082824707 -0.012718201 -0.38842773 0 0 0 0
0.085449219 -0.012748718 -0.3894043 0 0 0 0
0.08782959 -0.012748718 -0.3894043 0 0 0 0
0.090270996 -0.012748718 -0.3894043 0 0 0 0
0.092468262 -0.012718201 -0.38842773 0 0 0 0
0.094848633 -0.012718201 -0.38842773 0 0 0 0
0.097290039 -0.012718201 -0.38842773 0 0 0 0
0.09967041 -0.012718201 -0.38842773 0 0 0 0
0.10211182 -0.012718201 -0.38842773 0 0 0 0
0.10455322 -0.012718201 -0.38842773 0 0 0 0
0.10668945 -0.012687683 -0.38745117 0 0 0 0
0.10906982 -0.012687683 -0.38745117 0 0 0 0
0.11206055 -0.012748718 -0.3894043 0 0 0 0
0.11450195 -0.012748718 -0.3894043 0 0 0 0
0.11657715 -0.012718201 -0.38842773 0 0 0 0
0.11450195 -0.011535645 -0.35229492 0 0 0 0
0.11669922 -0.011535645 -0.35229492 0 0 0 0
0.11889648 -0.011535645 -0.35229492 0 0 0 0
0.12109375 -0.011535645 -0.35229492 0 0 0 0
0.12329102 -0.011535645 -0.35229492 0 0 0 0
0.12536621 -0.011535645 -0.35229492 0 0 0 0
0.12792969 -0.011566162 -0.35327148 0 0 0 0
0.13012695 -0.011566162 -0.35327148 0 0 0 0
0.13232422 -0.011566162 -0.35327148 0 0 0 0
0.13452148 -0.011566162 -0.35327148 0 0 0 0
0.13671875 -0.011566162 -0.35327148 0 0 0 0
0.13891602 -0.011566162 -0.35327148 0 0 0 0
0.14111328 -0.011566162 -0.35327148 0 0 0 0
0.14331055 -0.011566162 -0.35327148 0 0 0 0
0.14550781 -0.011566162 -0.35327148 0 0 0 0
0.14770508 -0.011566162 -0.35327148 0 0 0 0
0.14990234 -0.011566162 -0.35327148 0 0 0 0
0.15209961 -0.011566162 -0.35327148 0 0 0 0
0.15429688 -0.011566162 -0.35327148 0 0 0 0
0.15649414 -0.011566162 -0.35327148 0 0 0 0
0.15869141 -0.011566162 -0.35327148 0 0 0 0
0.16040039 -0.011535645 -0.35229492 0 0 0 0
0.16259766 -0.011535645 -0.35229492 0 0 0 0
0.16479492 -0.011535645 -0.35229492 0 0 0 0
0.16699219 -0.011535645 -0.35229492 0 0 0 0
0.16918945 -0.011535645 -0.35229492 0 0 0 0
0.17138672 -0.011535645 -0.35229492 0 0 0 0
0.17358398 -0.011535645 -0.35229492 0 0 0 0
0.17578125 -0.011535645 -0.35229492 0 0 0 0
0.17797852 -0.011535645 -0.35229492 0 0 0 0
0.18017578 -0.011535645 -0.35229492 0 0 0 0
0.18237305 -0.011535645 -0.35229492 0 0 0 0
0.18457031 -0.011535645 -0.35229492 0 0 0 0
0.18676758 -0.011535645 -0.35229492 0 0 0 0
0.18896484 -0.011535645 -0.35229492 0 0 0 0
0.19055176 -0.011505127 -0.35131836 0 0 0 0
0.19274902 -0.011505127 -0.35131836 0 0 0 0
0.19494629 -0.011505127 -0.35131836 0 0 0 0
0.19714355 -0.011505127 -0.35131836 0 0 0 0
0.19934082 -0.011505127 -0.35131836 0 0 0 0
0.20153809 -0.011505127 -0.35131836 0 0 0 0
0.20361328 -0.011505127 -0.35131836 0 0 0 0
0.20581055 -0.011505127 -0.35131836 0 0 0 0
0.20800781 -0.011505127 -0.35131836 0 0 0 0
0.21020508 -0.011505127 -0.35131836 0 0 0 0
0.21240234 -0.011505127 -0.35131836 0 0 0 0
0.21459961 -0.011505127 -0.35131836 0 0 0 0
0.21679688 -0.011505127 -0.35131836 0 0 0 0
0.21899414 -0.011505127 -0.35131836 0 0 0 0
0.22119141 -0.011505127 -0.35131836 0 0 0 0
0.2232666 -0.011505127 -0.35131836 0 0 0 0
0.035797119 -0.014663696 -0.37646484 0 0 0 0
0.038330078 -0.01473999 -0.37841797 0 0 0 0
0.040710449 -0.01473999 -0.37841797 0 0 0 0
0.043060303 -0.01473999 -0.37841797 0 0 0 0
0.045288086 -0.014701843 -0.37744141 0 0 0 0
0.047637939 -0.014701843 -0.37744141 0 0 0 0
0.050109863 -0.01473999 -0.37841797 0 0 0 0
0.052459717 -0.01473999 -0.37841797 0 0 0 0
0.055236816 -0.014862061 -0.38134766 0 0 0 0
0.057922363 -0.014938354 -0.38330078 0 0 0 0
0.06060791 -0.015014648 -0.38549805 0 0 0 0
0.063171387 -0.015052795 -0.38647461 0 0 0 0
0.065734863 -0.015090942 -0.38745117 0 0 0 0
0.068115234 -0.015090942 -0.38745117 0 0 0 0
0.070556641 -0.015090942 -0.38745117 0 0 0 0
0.072937012 -0.015090942 -0.38745117 0 0 0 0
0.075378418 -0.015090942 -0.38745117 0 0 0 0
0.07800293 -0.015136719 -0.38842773 0 0 0 0
0.080383301 -0.015136719 -0.38842773 0 0 0 0
0.082824707 -0.015136719 -0.38842773 0 0 0 0
0.085449219 -0.015174866 -0.3894043 0 0 0 0
0.08782959 -0.015174866 -0.3894043 0 0 0 0
0.090270996 -0.015174866 -0.3894043 0 0 0 0
0.092712402 -0.015174866 -0.3894043 0 0 0 0
0.095092773 -0.015174866 -0.3894043 0 0 0 0
0.09753418 -0.015174866 -0.3894043 0 0 0 0
0.099975586 -0.015174866 -0.3894043 0 0 0 0
0.10266113 -0.015213013 -0.39038086 0 0 0 0
0.1050415 -0.015213013 -0.39038086 0 0 0 0
0.10748291 -0.015213013 -0.39038086 0 0 0 0
0.11022949 -0.01525116 -0.39135742 0 0 0 0
0.11260986 -0.01525116 -0.39135742 0 0 0 0
0.11474609 -0.015213013 -0.39038086 0 0 0 0
0.11230469 -0.013725281 -0.35229492 0 0 0 0
0.11450195 -0.013725281 -0.35229492 0 0 0 0
0.11669922 -0.013725281 -0.35229492 0 0 0 0
0.11889648 -0.013725281 -0.35229492 0 0 0 0
0.12109375 -0.013725281 -0.35229492 0 0 0 0
0.12329102 -0.013725281 -0.35229492 0 0 0 0
0.12536621 -0.013725281 -0.35229492 0 0 0 0
0.12756348 -0.013725281 -0.35229492 0 0 0 0
0.12976074 -0.013725281 -0.35229492 0 0 0 0
0.13195801 -0.013725281 -0.35229492 0 0 0 0
0.13452148 -0.013763428 -0.35327148 0 0 0 0
0.13671875 -0.013763428 -0.35327148 0 0 0 0
0.13891602 -0.013763428 -0.35327148 0 0 0 0
0.14111328 -0.013763428 -0.35327148 0 0 0 0
0.14331055 -0.013763428 -0.35327148 0 0 0 0
0.14550781 -0.013763428 -0.35327148 0 0 0 0
0.14770508 -0.013763428 -0.35327148 0 0 0 0
0.14990234 -0.013763428 -0.35327148 0 0 0 0
0.15209961 -0.013763428 -0.35327148 0 0 0 0
0.15429688 -0.013763428 -0.35327148 0 0 0 0
0.15649414 -0.013763428 -0.35327148 0 0 0 0
0.1583252 -0.013725281 -0.35229492 0 0 0 0
0.16040039 -0.013725281 -0.35229492 0 0 0 0
0.16259766 -0.013725281 -0.35229492 0 0 0 0
0.16479492 -0.013725281 -0.35229492 0 0 0 0
0.16699219 -0.013725281 -0.35229492 0 0 0 0
0.16918945 -0.013725281 -0.35229492 0 0 0 0
0.17138672 -0.013725281 -0.35229492 0 0 0 0
0.17358398 -0.013725281 -0.35229492 0 0 0 0
0.17578125 -0.013725281 -0.35229492 0 0 0 0
0.17797852 -0.013725281 -0.35229492 0 0 0 0
0.18017578 -0.013725281 -0.35229492 0 0 0 0
0.18237305 -0.013725281 -0.35229492 0 0 0 0
0.18457031 -0.013725281 -0.35229492 0 0 0 0
0.18676758 -0.013725281 -0.35229492 0 0 0 0
0.18835449 -0.013687134 -0.35131836 0 0 0 0
0.19055176 -0.013687134 -0.35131836 0 0 0 0
0.19274902 -0.013687134 -0.35131836 0 0 0 0
0.19494629 -0.013687134 -0.35131836 0 0 0 0
0.19714355 -0.013687134 -0.35131836 0 0 0 0
0.19934082 -0.013687134 -0.35131836 0 0 0 0
0.20153809 -0.013687134 -0.35131836 0 0 0 0
0.20361328 -0.013687134 -0.35131836 0 0 0 0
0.20581055 -0.013687134 -0.35131836 0 0 0 0
0.20800781 -0.013687134 -0.35131836 0 0 0 0
0.21020508 -0.013687134 -0.35131836 0 0 0 0
0.21240234 -0.013687134 -0.35131836 0 0 0 0
0.21459961 -0.013687134 -0.35131836 0 0 0 0
0.21679688 -0.013687134 -0.35131836 0 0 0 0
0.21899414 -0.013687134 -0.35131836 0 0 0 0
0.22119141 -0.013687134 -0.35131836 0 0 0 0
0.2232666 -0.013687134 -0.35131836 0 0 0 0
0.22546387 -0.013687134 -0.35131836 0 0 0 0
0.22766113 -0.013687134 -0.35131836 0 0 0 0
0.028259277 -0.016677856 -0.36938477 0 0 0 0
0.030715942 -0.016769409 -0.37133789 0 0 0 0
0.033111572 -0.016815186 -0.37231445 0 0 0 0
0.035614014 -0.016906738 -0.37426758 0 0 0 0
0.038146973 -0.016998291 -0.37646484 0 0 0 0
0.040466309 -0.016998291 -0.37646484 0 0 0 0
0.042816162 -0.016998291 -0.37646484 0 0 0 0
0.045043945 -0.016952515 -0.37524414 0 0 0 0
0.047363281 -0.016952515 -0.37524414 0 0 0 0
0.049835205 -0.016998291 -0.37646484 0 0 0 0
0.052307129 -0.017044067 -0.37744141 0 0 0 0
0.055236816 -0.017227173 -0.38134766 0 0 0 0
0.058074951 -0.017364502 -0.38427734 0 0 0 0
0.060943604 -0.017501831 -0.38745117 0 0 0 0
0.063659668 -0.017593384 -0.3894043 0 0 0 0
0.066101074 -0.017593384 -0.3894043 0 0 0 0
0.068481445 -0.017593384 -0.3894043 0 0 0 0
0.070922852 -0.017593384 -0.3894043 0 0 0 0
0.073120117 -0.017547607 -0.38842773 0 0 0 0
0.075561523 -0.017547607 -0.38842773 0 0 0 0
0.07800293 -0.017547607 -0.38842773 0 0 0 0
0.080383301 -0.017547607 -0.38842773 0 0 0 0
0.082824707 -0.017547607 -0.38842773 0 0 0 0
0.085449219 -0.017593384 -0.3894043 0 0 0 0
0.08782959 -0.017593384 -0.3894043 0 0 0 0
0.090270996 -0.017593384 -0.3894043 0 0 0 0
0.092712402 -0.017593384 -0.3894043 0 0 0 0
0.095336914 -0.01763916 -0.39038086 0 0 0 0
0.09777832 -0.01763916 -0.39038086 0 0 0 0
0.10046387 -0.017684937 -0.39135742 0 0 0 0
0.10314941 -0.017730713 -0.39233398 0 0 0 0
0.10559082 -0.017730713 -0.39233398 0 0 0 0
0.1083374 -0.017776489 -0.39331055 0 0 0 0
0.11077881 -0.017776489 -0.39331055 0 0 0 0
0.11376953 -0.017868042 -0.39550781 0 0 0 0
0.11010742 -0.015914917 -0.35229492 0 0 0 0
0.11230469 -0.015914917 -0.35229492 0 0 0 0
0.11450195 -0.015914917 -0.35229492 0 0 0 0
0.11669922 -0.015914917 -0.35229492 0 0 0 0
0.11889648 -0.015914917 -0.35229492 0 0 0 0
0.12109375 -0.015914917 -0.35229492 0 0 0 0
0.12329102 -0.015914917 -0.35229492 0 0 0 0
0.12536621 -0.015914917 -0.35229492 0 0 0 0
0.12756348 -0.015914917 -0.35229492 0 0 0 0
0.12976074 -0.015914917 -0.35229492 0 0 0 0
0.13195801 -0.015914917 -0.35229492 0 0 0 0
0.13415527 -0.015914917 -0.35229492 0 0 0 0
0.13635254 -0.015914917 -0.35229492 0 0 0 0
0.13891602 -0.015960693 -0.35327148 0 0 0 0
0.14111328 -0.015960693 -0.35327148 0 0 0 0
0.14331055 -0.015960693 -0.35327148 0 0 0 0
0.14550781 -0.015960693 -0.35327148 0 0 0 0
0.14770508 -0.015960693 -0.35327148 0 0 0 0
0.14990234 -0.015960693 -0.35327148 0 0 0 0
0.15209961 -0.015960693 -0.35327148 0 0 0 0
0.15429688 -0.015960693 -0.35327148 0 0 0 0
0.15649414 -0.015960693 -0.35327148 0 0 0 0
0.1583252 -0.015914917 -0.35229492 0 0 0 0
0.16040039 -0.015914917 -0.35229492 0 0 0 0
0.16259766 -0.015914917 -0.35229492 0 0 0 0
0.16479492 -0.015914917 -0.35229492 0 0 0 0
0.16699219 -0.015914917 -0.35229492 0 0 0 0
0.16918945 -0.015914917 -0.35229492 0 0 0 0
0.17138672 -0.015914917 -0.35229492 0 0 0 0
0.17358398 -0.015914917 -0.35229492 0 0 0 0
0.17578125 -0.015914917 -0.35229492 0 0 0 0
0.17797852 -0.015914917 -0.35229492 0 0 0 0
0.18017578 -0.015914917 -0.35229492 0 0 0 0
0.18237305 -0.015914917 -0.35229492 0 0 0 0
0.18457031 -0.015914917 -0.35229492 0 0 0 0
0.18676758 -0.015914917 -0.35229492 0 0 0 0
0.18835449 -0.015869141 -0.35131836 0 0 0 0
0.19055176 -0.015869141 -0.35131836 0 0 0 0
0.19274902 -0.015869141 -0.35131836 0 0 0 0
0.19494629 -0.015869141 -0.35131836 0 0 0 0
0.19714355 -0.015869141 -0.35131836 0 0 0 0
0.19934082 -0.015869141 -0.35131836 0 0 0 0
0.20153809 -0.015869141 -0.35131836 0 0 0 0
0.20361328 -0.015869141 -0.35131836 0 0 0 0
0.20581055 -0.015869141 -0.35131836 0 0 0 0
0.20800781 -0.015869141 -0.35131836 0 0 0 0
0.21020508 -0.015869141 -0.35131836 0 0 0 0
0.21240234 -0.015869141 -0.35131836 0 0 0 0
0.21459961 -0.015869141 -0.35131836 0 0 0 0
0.21679688 -0.015869141 -0.35131836 0 0 0 0
0.21899414 -0.015869141 -0.35131836 0 0 0 0
0.22119141 -0.015869141 -0.35131836 0 0 0 0
0.2232666 -0.015869141 -0.35131836 0 0 0 0
0.22546387 -0.015869141 -0.35131836 0 0 0 0
0.22766113 -0.015869141 -0.35131836 0 0 0 0
0.2298584 -0.015869141 -0.35131836 0 0 0 0
0.018661499 -0.018569946 -0.36132812 0 0 0 0
0.020965576 -0.018615723 -0.36230469 0 0 0 0
0.023284912 -0.018661499 -0.36328125 0 0 0 0
0.025680542 -0.018768311 -0.36523438 0 0 0 0
0.028182983 -0.018920898 -0.3684082 0 0 0 0
0.030548096 -0.018981934 -0.36938477 0 0 0 0
0.03302002 -0.019073486 -0.37133789 0 0 0 0
0.035430908 -0.019134521 -0.37231445 0 0 0 0
0.03793335 -0.019241333 -0.37426758 0 0 0 0
0.040252686 -0.019241333 -0.37426758 0 0 0 0
0.042602539 -0.019241333 -0.37426758 0 0 0 0
0.044921875 -0.019241333 -0.37426758 0 0 0 0
0.047241211 -0.019241333 -0.37426758 0 0 0 0
0.049560547 -0.019241333 -0.37426758 0 0 0 0
0.0519104 -0.019241333 -0.37426758 0 0 0 0
0.062347412 -0.020370483 -0.39648438 0 0 0 0
0.064453125 -0.020263672 -0.39453125 0 0 0 0
0.066772461 -0.020217896 -0.39331055 0 0 0 0
0.069030762 -0.02015686 -0.39233398 0 0 0 0
0.071289062 -0.020111084 -0.39135742 0 0 0 0
0.073547363 -0.020065308 -0.39038086 0 0 0 0
0.075927734 -0.020065308 -0.39038086 0 0 0 0
0.078186035 -0.020004272 -0.3894043 0 0 0 0
0.080566406 -0.020004272 -0.3894043 0 0 0 0
0.082824707 -0.019958496 -0.38842773 0 0 0 0
0.085205078 -0.019958496 -0.38842773 0 0 0 0
0.087646484 -0.019958496 -0.38842773 0 0 0 0
0.090270996 -0.020004272 -0.3894043 0 0 0 0
0.092712402 -0.020004272 -0.3894043 0 0 0 0
0.095336914 -0.020065308 -0.39038086 0 0 0 0
0.098022461 -0.020111084 -0.39135742 0 0 0 0
0.10070801 -0.02015686 -0.39233398 0 0 0 0
0.10345459 -0.020217896 -0.39331055 0 0 0 0
0.10614014 -0.020263672 -0.39453125 0 0 0 0
0.10888672 -0.020324707 -0.39550781 0 0 0 0
0.11132812 -0.020324707 -0.39550781 0 0 0 0
0.11376953 -0.020324707 -0.39550781 0 0 0 0
0.10827637 -0.018157959 -0.35327148 0 0 0 0
0.11010742 -0.018096924 -0.35229492 0 0 0 0
0.11230469 -0.018096924 -0.35229492 0 0 0 0
0.11450195 -0.018096924 -0.35229492 0 0 0 0
0.11669922 -0.018096924 -0.35229492 0 0 0 0
0.11889648 -0.018096924 -0.35229492 0 0 0 0
0.12109375 -0.018096924 -0.35229492 0 0 0 0
0.12329102 -0.018096924 -0.35229492 0 0 0 0
0.12536621 -0.018096924 -0.35229492 0 0 0 0
0.12756348 -0.018096924 -0.35229492 0 0 0 0
0.12976074 -0.018096924 -0.35229492 0 0 0 0
0.13195801 -0.018096924 -0.35229492 0 0 0 0
0.13415527 -0.018096924 -0.35229492 0 0 0 0
0.13635254 -0.018096924 -0.35229492 0 0 0 0
0.1385498 -0.018096924 -0.35229492 0 0 0 0
0.14074707 -0.018096924 -0.35229492 0 0 0 0
0.14294434 -0.018096924 -0.35229492 0 0 0 0
0.1451416 -0.018096924 -0.35229492 0 0 0 0
0.14733887 -0.018096924 -0.35229492 0 0 0 0
0.14953613 -0.018096924 -0.35229492 0 0 0 0
0.1517334 -0.018096924 -0.35229492 0 0 0 0
0.15393066 -0.018096924 -0.35229492 0 0 0 0
0.15612793 -0.018096924 -0.35229492 0 0 0 0
0.1583252 -0.018096924 -0.35229492 0 0 0 0
0.16040039 -0.018096924 -0.35229492 0 0 0 0
0.16259766 -0.018096924 -0.35229492 0 0 0 0
0.16479492 -0.018096924 -0.35229492 0 0 0 0
0.16699219 -0.018096924 -0.35229492 0 0 0 0
0.16918945 -0.018096924 -0.35229492 0 0 0 0
0.17138672 -0.018096924 -0.35229492 0 0 0 0
0.17358398 -0.018096924 -0.35229492 0 0 0 0
0.17578125 -0.018096924 -0.35229492 0 0 0 0
0.17797852 -0.018096924 -0.35229492 0 0 0 0
0.18017578 -0.018096924 -0.35229492 0 0 0 0
0.18237305 -0.018096924 -0.35229492 0 0 0 0
0.18395996 -0.018051147 -0.35131836 0 0 0 0
0.18615723 -0.018051147 -0.35131836 0 0 0 0
0.18835449 -0.018051147 -0.35131836 0 0 0 0
0.19055176 -0.018051147 -0.35131836 0 0 0 0
0.19274902 -0.018051147 -0.35131836 0 0 0 0
0.19494629 -0.018051147 -0.35131836 0 0 0 0
0.19714355 -0.018051147 -0.35131836 0 0 0 0
0.19934082 -0.018051147 -0.35131836 0 0 0 0
0.20153809 -0.018051147 -0.35131836 0 0 0 0
0.20361328 -0.018051147 -0.35131836 0 0 0 0
0.20581055 -0.018051147 -0.35131836 0 0 0 0
0.20800781 -0.018051147 -0.35131836 0 0 0 0
0.21020508 -0.018051147 -0.35131836 0 0 0 0
0.21240234 -0.018051147 -0.35131836 0 0 0 0
0.21459961 -0.018051147 -0.35131836 0 0 0 0
0.21679688 -0.018051147 -0.35131836 0 0 0 0
0.21899414 -0.018051147 -0.35131836 0 0 0 0
0.22119141 -0.018051147 -0.35131836 0 0 0 0
0.2232666 -0.018051147 -0.35131836 0 0 0 0
0.22546387 -0.018051147 -0.35131836 0 0 0 0
0.22766113 -0.018051147 -0.35131836 0 0 0 0
0.2298584 -0.018051147 -0.35131836 0 0 0 0
0.014091492 -0.020690918 -0.359375 0 0 0 0
0.016326904 -0.020690918 -0.359375 0 0 0 0
0.018600464 -0.020751953 -0.36035156 0 0 0 0
0.020904541 -0.020812988 -0.36132812 0 0 0 0
0.023284912 -0.0209198 -0.36328125 0 0 0 0
0.025604248 -0.020980835 -0.36425781 0 0 0 0
0.028030396 -0.021102905 -0.36621094 0 0 0 0
0.030471802 -0.021209717 -0.3684082 0 0 0 0
0.032836914 -0.021270752 -0.36938477 0 0 0 0
0.035339355 -0.021392822 -0.37133789 0 0 0 0
0.037719727 -0.021453857 -0.37231445 0 0 0 0
0.040039062 -0.021453857 -0.37231445 0 0 0 0
0.042358398 -0.021453857 -0.37231445 0 0 0 0
0.044677734 -0.021453857 -0.37231445 0 0 0 0
0.04699707 -0.021453857 -0.37231445 0 0 0 0
0.049316406 -0.021453857 -0.37231445 0 0 0 0
0.051605225 -0.021453857 -0.37231445 0 0 0 0
0.069580078 -0.022781372 -0.39550781 0 0 0 0
0.071838379 -0.022720337 -0.39453125 0 0 0 0
0.073913574 -0.022598267 -0.39233398 0 0 0 0
0.076171875 -0.02255249 -0.39135742 0 0 0 0
0.078369141 -0.022491455 -0.39038086 0 0 0 0
0.080566406 -0.02243042 -0.3894043 0 0 0 0
0.083007812 -0.02243042 -0.3894043 0 0 0 0
0.085205078 -0.022369385 -0.38842773 0 0 0 0
0.087646484 -0.022369385 -0.38842773 0 0 0 0
0.090026855 -0.022369385 -0.38842773 0 0 0 0
0.092712402 -0.02243042 -0.3894043 0 0 0 0
0.095336914 -0.022491455 -0.39038086 0 0 0 0
0.098022461 -0.02255249 -0.39135742 0 0 0 0
0.10101318 -0.022659302 -0.39331055 0 0 0 0
0.10369873 -0.022720337 -0.39453125 0 0 0 0
0.10644531 -0.022781372 -0.39550781 0 0 0 0
0.1060791 -0.020355225 -0.35327148 0 0 0 0
0.10827637 -0.020355225 -0.35327148 0 0 0 0
0.1104126 -0.020355225 -0.35327148 0 0 0 0
0.11230469 -0.020294189 -0.35229492 0 0 0 0
0.11450195 -0.020294189 -0.35229492 0 0 0 0
0.11669922 -0.020294189 -0.35229492 0 0 0 0
0.11889648 -0.020294189 -0.35229492 0 0 0 0
0.12109375 -0.020294189 -0.35229492 0 0 0 0
0.12329102 -0.020294189 -0.35229492 0 0 0 0
0.12536621 -0.020294189 -0.35229492 0 0 0 0
0.12756348 -0.020294189 -0.35229492 0 0 0 0
0.12976074 -0.020294189 -0.35229492 0 0 0 0
0.13195801 -0.020294189 -0.35229492 0 0 0 0
0.13415527 -0.020294189 -0.35229492 0 0 0 0
0.13635254 -0.020294189 -0.35229492 0 0 0 0
0.1385498 -0.020294189 -0.35229492 0 0 0 0
0.14074707 -0.020294189 -0.35229492 0 0 0 0
0.14294434 -0.020294189 -0.35229492 0 0 0 0
0.1451416 -0.020294189 -0.35229492 0 0 0 0
0.14733887 -0.020294189 -0.35229492 0 0 0 0
0.14953613 -0.020294189 -0.35229492 0 0 0 0
0.1517334 -0.020294189 -0.35229492 0 0 0 0
0.15393066 -0.020294189 -0.35229492 0 0 0 0
0.15612793 -0.020294189 -0.35229492 0 0 0 0
0.1583252 -0.020294189 -0.35229492 0 0 0 0
0.16040039 -0.020294189 -0.35229492 0 0 0 0
0.16259766 -0.020294189 -0.35229492 0 0 0 0
0.16479492 -0.020294189 -0.35229492 0 0 0 0
0.16699219 -0.020294189 -0.35229492 0 0 0 0
0.16918945 -0.020294189 -0.35229492 0 0 0 0
0.17138672 -0.020294189 -0.35229492 0 0 0 0
0.17358398 -0.020294189 -0.35229492 0 0 0 0
0.17578125 -0.020294189 -0.35229492 0 0 0 0
0.17749023 -0.020233154 -0.35131836 0 0 0 0
0.1796875 -0.020233154 -0.35131836 0 0 0 0
0.18188477 -0.020233154 -0.35131836 0 0 0 0
0.18395996 -0.020233154 -0.35131836 0 0 0 0
0.18615723 -0.020233154 -0.35131836 0 0 0 0
0.18835449 -0.020233154 -0.35131836 0 0 0 0
0.19055176 -0.020233154 -0.35131836 0 0 0 0
0.19274902 -0.020233154 -0.35131836 0 0 0 0
0.19494629 -0.020233154 -0.35131836 0 0 0 0
0.19714355 -0.020233154 -0.35131836 0 0 0 0
0.19934082 -0.020233154 -0.35131836 0 0 0 0
0.20153809 -0.020233154 -0.35131836 0 0 0 0
0.20361328 -0.020233154 -0.35131836 0 0 0 0
0.20581055 -0.020233154 -0.35131836 0 0 0 0
0.20800781 -0.020233154 -0.35131836 0 0 0 0
0.21020508 -0.020233154 -0.35131836 0 0 0 0
0.21240234 -0.020233154 -0.35131836 0 0 0 0
0.21459961 -0.020233154 -0.35131836 0 0 0 0
0.21679688 -0.020233154 -0.35131836 0 0 0 0
0.21899414 -0.020233154 -0.35131836 0 0 0 0
0.22119141 -0.020233154 -0.35131836 0 0 0 0
0.2232666 -0.020233154 -0.35131836 0 0 0 0
0.22546387 -0.020233154 -0.35131836 0 0 0 0
0.22766113 -0.020233154 -0.35131836 0 0 0 0
0.2298584 -0.020233154 -0.35131836 0 0 0 0
0.011825562 -0.022857666 -0.35839844 0 0 0 0
0.014053345 -0.022857666 -0.35839844 0 0 0 0
0.016326904 -0.02293396 -0.359375 0 0 0 0
0.018600464 -0.022994995 -0.36035156 0 0 0 0
0.020904541 -0.02305603 -0.36132812 0 0 0 0
0.023208618 -0.023117065 -0.36230469 0 0 0 0
0.025527954 -0.023178101 -0.36328125 0 0 0 0
0.027954102 -0.02331543 -0.36523438 0 0 0 0
0.030380249 -0.0234375 -0.36743164 0 0 0 0
0.032745361 -0.023498535 -0.3684082 0 0 0 0
0.035125732 -0.023574829 -0.36938477 0 0 0 0
0.037536621 -0.023635864 -0.37036133 0 0 0 0
0.03994751 -0.023696899 -0.37133789 0 0 0 0
0.042236328 -0.023696899 -0.37133789 0 0 0 0
0.044555664 -0.023696899 -0.37133789 0 0 0 0
0.046875 -0.023696899 -0.37133789 0 0 0 0
0.049163818 -0.023696899 -0.37133789 0 0 0 0
0.051483154 -0.023696899 -0.37133789 0 0 0 0
0.074279785 -0.025177002 -0.39453125 0 0 0 0
0.076538086 -0.025100708 -0.39331055 0 0 0 0
0.078552246 -0.024978638 -0.39135742 0 0 0 0
0.080810547 -0.024917603 -0.39038086 0 0 0 0
0.083007812 -0.024856567 -0.3894043 0 0 0 0
0.085205078 -0.024780273 -0.38842773 0 0 0 0
0.087646484 -0.024780273 -0.38842773 0 0 0 0
0.090026855 -0.024780273 -0.38842773 0 0 0 0
0.092468262 -0.024780273 -0.38842773 0 0 0 0
0.095092773 -0.024856567 -0.3894043 0 0 0 0
0.09777832 -0.024917603 -0.39038086 0 0 0 0
0.10101318 -0.025100708 -0.39331055 0 0 0 0
0.10394287 -0.025238037 -0.39550781 0 0 0 0
0.1060791 -0.022537231 -0.35327148 0 0 0 0
0.10827637 -0.022537231 -0.35327148 0 0 0 0
0.1104126 -0.022537231 -0.35327148 0 0 0 0
0.11230469 -0.022476196 -0.35229492 0 0 0 0
0.11450195 -0.022476196 -0.35229492 0 0 0 0
0.11669922 -0.022476196 -0.35229492 0 0 0 0
0.11889648 -0.022476196 -0.35229492 0 0 0 0
0.12109375 -0.022476196 -0.35229492 0 0 0 0
0.12329102 -0.022476196 -0.35229492 0 0 0 0
0.12536621 -0.022476196 -0.35229492 0 0 0 0
0.12756348 -0.022476196 -0.35229492 0 0 0 0
0.12976074 -0.022476196 -0.35229492 0 0 0 0
0.13195801 -0.022476196 -0.35229492 0 0 0 0
0.13415527 -0.022476196 -0.35229492 0 0 0 0
0.13635254 -0.022476196 -0.35229492 0 0 0 0
0.1385498 -0.022476196 -0.35229492 0 0 0 0
0.14074707 -0.022476196 -0.35229492 0 0 0 0
0.14294434 -0.022476196 -0.35229492 0 0 0 0
0.1451416 -0.022476196 -0.35229492 0 0 0 0
0.14733887 -0.022476196 -0.35229492 0 0 0 0
0.14953613 -0.022476196 -0.35229492 0 0 0 0
0.1517334 -0.022476196 -0.35229492 0 0 0 0
0.15393066 -0.022476196 -0.35229492 0 0 0 0
0.15612793 -0.022476196 -0.35229492 0 0 0 0
0.1583252 -0.022476196 -0.35229492 0 0 0 0
0.16040039 -0.022476196 -0.35229492 0 0 0 0
0.16259766 -0.022476196 -0.35229492 0 0 0 0
0.16479492 -0.022476196 -0.35229492 0 0 0 0
0.16699219 -0.022476196 -0.35229492 0 0 0 0
0.16918945 -0.022476196 -0.35229492 0 0 0 0
0.17138672 -0.022476196 -0.35229492 0 0 0 0
0.17358398 -0.022476196 -0.35229492 0 0 0 0
0.17529297 -0.022415161 -0.35131836 0 0 0 0
0.17749023 -0.022415161 -0.35131836 0 0 0 0
0.1796875 -0.022415161 -0.35131836 0 0 0 0
0.18188477 -0.022415161 -0.35131836 0 0 0 0
0.18395996 -0.022415161 -0.35131836 0 0 0 0
0.18615723 -0.022415161 -0.35131836 0 0 0 0
0.18835449 -0.022415161 -0.35131836 0 0 0 0
0.19055176 -0.022415161 -0.35131836 0 0 0 0
0.19274902 -0.022415161 -0.35131836 0 0 0 0
0.19494629 -0.022415161 -0.35131836 0 0 0 0
0.19714355 -0.022415161 -0.35131836 0 0 0 0
0.19934082 -0.022415161 -0.35131836 0 0 0 0
0.20153809 -0.022415161 -0.35131836 0 0 0 0
0.20361328 -0.022415161 -0.35131836 0 0 0 0
0.20581055 -0.022415161 -0.35131836 0 0 0 0
0.20800781 -0.022415161 -0.35131836 0 0 0 0
0.21020508 -0.022415161 -0.35131836 0 0 0 0
0.21240234 -0.022415161 -0.35131836 0 0 0 0
0.21459961 -0.022415161 -0.35131836 0 0 0 0
0.21679688 -0.022415161 -0.35131836 0 0 0 0
0.21899414 -0.022415161 -0.35131836 0 0 0 0
0.22119141 -0.022415161 -0.35131836 0 0 0 0
0.2232666 -0.022415161 -0.35131836 0 0 0 0
0.22546387 -0.022415161 -0.35131836 0 0 0 0
0.22766113 -0.022415161 -0.35131836 0 0 0 0
0.2298584 -0.022415161 -0.35131836 0 0 0 0
0.0073318481 -0.02494812 -0.35620117 0 0 0 0
0.0095443726 -0.02494812 -0.35620117 0 0 0 0
0.011795044 -0.025024414 -0.35717773 0 0 0 0
0.014015198 -0.025024414 -0.35717773 0 0 0 0
0.016281128 -0.025085449 -0.35839844 0 0 0 0
0.018554688 -0.025161743 -0.359375 0 0 0 0
0.020843506 -0.025238037 -0.36035156 0 0 0 0
0.023147583 -0.025299072 -0.36132812 0 0 0 0
0.025466919 -0.025375366 -0.36230469 0 0 0 0
0.027877808 -0.025512695 -0.36425781 0 0 0 0
0.030303955 -0.025650024 -0.36621094 0 0 0 0
0.032653809 -0.025726318 -0.36743164 0 0 0 0
0.03503418 -0.025787354 -0.3684082 0 0 0 0
0.037414551 -0.025863647 -0.36938477 0 0 0 0
0.039825439 -0.025939941 -0.37036133 0 0 0 0
0.042144775 -0.025939941 -0.37036133 0 0 0 0
0.044433594 -0.025939941 -0.37036133 0 0 0 0
0.046875 -0.026000977 -0.37133789 0 0 0 0
0.049163818 -0.026000977 -0.37133789 0 0 0 0
0.051483154 -0.026000977 -0.37133789 0 0 0 0
0.076721191 -0.027618408 -0.39453125 0 0 0 0
0.078796387 -0.027481079 -0.39233398 0 0 0 0
0.080810547 -0.02734375 -0.39038086 0 0 0 0
0.083007812 -0.027267456 -0.3894043 0 0 0 0
0.085205078 -0.027206421 -0.38842773 0 0 0 0
0.087402344 -0.027130127 -0.38745117 0 0 0 0
0.089782715 -0.027130127 -0.38745117 0 0 0 0
0.092224121 -0.027130127 -0.38745117 0 0 0 0
0.094848633 -0.027206421 -0.38842773 0 0 0 0
0.09753418 -0.027267456 -0.3894043 0 0 0 0
0.10070801 -0.027481079 -0.39233398 0 0 0 0
0.10394287 -0.027694702 -0.39550781 0 0 0 0
0.10168457 -0.024734497 -0.35327148 0 0 0 0
0.10388184 -0.024734497 -0.35327148 0 0 0 0
0.1060791 -0.024734497 -0.35327148 0 0 0 0
0.10827637 -0.024734497 -0.35327148 0 0 0 0
0.1104126 -0.024734497 -0.35327148 0 0 0 0
0.11230469 -0.024673462 -0.35229492 0 0 0 0
0.11450195 -0.024673462 -0.35229492 0 0 0 0
0.11669922 -0.024673462 -0.35229492 0 0 0 0
0.11889648 -0.024673462 -0.35229492 0 0 0 0
0.12109375 -0.024673462 -0.35229492 0 0 0 0
0.12329102 -0.024673462 -0.35229492 0 0 0 0
0.12536621 -0.024673462 -0.35229492 0 0 0 0
0.12756348 -0.024673462 -0.35229492 0 0 0 0
0.12976074 -0.024673462 -0.35229492 0 0 0 0
0.13195801 -0.024673462 -0.35229492 0 0 0 0
0.13415527 -0.024673462 -0.35229492 0 0 0 0
0.13635254 -0.024673462 -0.35229492 0 0 0 0
0.1385498 -0.024673462 -0.35229492 0 0 0 0
0.14074707 -0.024673462 -0.35229492 0 0 0 0
0.14294434 -0.024673462 -0.35229492 0 0 0 0
0.1451416 -0.024673462 -0.35229492 0 0 0 0
0.14733887 -0.024673462 -0.35229492 0 0 0 0
0.14953613 -0.024673462 -0.35229492 0 0 0 0
0.1517334 -0.024673462 -0.35229492 0 0 0 0
0.15393066 -0.024673462 -0.35229492 0 0 0 0
0.15612793 -0.024673462 -0.35229492 0 0 0 0
0.1583252 -0.024673462 -0.35229492 0 0 0 0
0.16040039 -0.024673462 -0.35229492 0 0 0 0
0.16259766 -0.024673462 -0.35229492 0 0 0 0
0.16479492 -0.024673462 -0.35229492 0 0 0 0
0.16699219 -0.024673462 -0.35229492 0 0 0 0
0.16918945 -0.024673462 -0.35229492 0 0 0 0
0.17089844 -0.024597168 -0.35131836 0 0 0 0
0.1730957 -0.024597168 -0.35131836 0 0 0 0
0.17529297 -0.024597168 -0.35131836 0 0 0 0
0.17749023 -0.024597168 -0.35131836 0 0 0 0
0.1796875 -0.024597168 -0.35131836 0 0 0 0
0.18188477 -0.024597168 -0.35131836 0 0 0 0
0.18395996 -0.024597168 -0.35131836 0 0 0 0
0.18615723 -0.024597168 -0.35131836 0 0 0 0
0.18835449 -0.024597168 -0.35131836 0 0 0 0
0.19055176 -0.024597168 -0.35131836 0 0 0 0
0.19274902 -0.024597168 -0.35131836 0 0 0 0
0.19494629 -0.024597168 -0.35131836 0 0 0 0
0.19714355 -0.024597168 -0.35131836 0 0 0 0
0.19934082 -0.024597168 -0.35131836 0 0 0 0
0.20153809 -0.024597168 -0.35131836 0 0 0 0
0.20361328 -0.024597168 -0.35131836 0 0 0 0
0.20581055 -0.024597168 -0.35131836 0 0 0 0
0.20800781 -0.024597168 -0.35131836 0 0 0 0
0.21020508 -0.024597168 -0.35131836 0 0 0 0
0.21240234 -0.024597168 -0.35131836 0 0 0 0
0.21459961 -0.024597168 -0.35131836 0 0 0 0
0.21679688 -0.024597168 -0.35131836 0 0 0 0
0.21899414 -0.024597168 -0.35131836 0 0 0 0
0.22119141 -0.024597168 -0.35131836 0 0 0 0
0.2232666 -0.024597168 -0.35131836 0 0 0 0
0.22546387 -0.024597168 -0.35131836 0 0 0 0
0.22766113 -0.024597168 -0.35131836 0 0 0 0
0.2298584 -0.024597168 -0.35131836 0 0 0 0
0.0051040649 -0.027084351 -0.35522461 0 0 0 0
0.00730896 -0.027084351 -0.35522461 0 0 0 0
0.0095443726 -0.027160645 -0.35620117 0 0 0 0
0.011756897 -0.027160645 -0.35620117 0 0 0 0
0.014015198 -0.027236938 -0.35717773 0 0 0 0
0.016235352 -0.027236938 -0.35717773 0 0 0 0
0.018508911 -0.027313232 -0.35839844 0 0 0 0
0.020782471 -0.027389526 -0.359375 0 0 0 0
0.023086548 -0.02746582 -0.36035156 0 0 0 0
0.025466919 -0.027618408 -0.36230469 0 0 0 0
0.027786255 -0.027694702 -0.36328125 0 0 0 0
0.030136108 -0.027770996 -0.36425781 0 0 0 0
0.032562256 -0.027923584 -0.36621094 0 0 0 0
0.034942627 -0.027999878 -0.36743164 0 0 0 0
0.037322998 -0.028076172 -0.3684082 0 0 0 0
0.039611816 -0.028076172 -0.3684082 0 0 0 0
0.042022705 -0.028167725 -0.36938477 0 0 0 0
0.044311523 -0.028167725 -0.36938477 0 0 0 0
0.04675293 -0.028244019 -0.37036133 0 0 0 0
0.049041748 -0.028244019 -0.37036133 0 0 0 0
0.076904297 -0.030151367 -0.39550781 0 0 0 0
0.078979492 -0.029998779 -0.39331055 0 0 0 0
0.080993652 -0.029846191 -0.39135742 0 0 0 0
0.083007812 -0.029693604 -0.3894043 0 0 0 0
0.085205078 -0.02961731 -0.38842773 0 0 0 0
0.087402344 -0.029541016 -0.38745117 0 0 0 0
0.089599609 -0.029464722 -0.38647461 0 0 0 0
0.09197998 -0.029464722 -0.38647461 0 0 0 0
0.094604492 -0.029541016 -0.38745117 0 0 0 0
0.097045898 -0.029541016 -0.38745117 0 0 0 0
0.10021973 -0.029769897 -0.39038086 0 0 0 0
0.099487305 -0.026931763 -0.35327148 0 0 0 0
0.10168457 -0.026931763 -0.35327148 0 0 0 0
0.10388184 -0.026931763 -0.35327148 0 0 0 0
0.1060791 -0.026931763 -0.35327148 0 0 0 0
0.10827637 -0.026931763 -0.35327148 0 0 0 0
0.11010742 -0.026855469 -0.35229492 0 0 0 0
0.11230469 -0.026855469 -0.35229492 0 0 0 0
0.11450195 -0.026855469 -0.35229492 0 0 0 0
0.11669922 -0.026855469 -0.35229492 0 0 0 0
0.11889648 -0.026855469 -0.35229492 0 0 0 0
0.12109375 -0.026855469 -0.35229492 0 0 0 0
0.12329102 -0.026855469 -0.35229492 0 0 0 0
0.12536621 -0.026855469 -0.35229492 0 0 0 0
0.12756348 -0.026855469 -0.35229492 0 0 0 0
0.12976074 -0.026855469 -0.35229492 0 0 0 0
0.13195801 -0.026855469 -0.35229492 0 0 0 0
0.13415527 -0.026855469 -0.35229492 0 0 0 0
0.13635254 -0.026855469 -0.35229492 0 0 0 0
0.1385498 -0.026855469 -0.35229492 0 0 0 0
0.14074707 -0.026855469 -0.35229492 0 0 0 0
0.14294434 -0.026855469 -0.35229492 0 0 0 0
0.1451416 -0.026855469 -0.35229492 0 0 0 0
0.14733887 -0.026855469 -0.35229492 0 0 0 0
0.14953613 -0.026855469 -0.35229492 0 0 0 0
0.1517334 -0.026855469 -0.35229492 0 0 0 0
0.15393066 -0.026855469 -0.35229492 0 0 0 0
0.15612793 -0.026855469 -0.35229492 0 0 0 0
0.1583252 -0.026855469 -0.35229492 0 0 0 0
0.16040039 -0.026855469 -0.35229492 0 0 0 0
0.16259766 -0.026855469 -0.35229492 0 0 0 0
0.16479492 -0.026855469 -0.35229492 0 0 0 0
0.16650391 -0.026779175 -0.35131836 0 0 0 0
0.16870117 -0.026779175 -0.35131836 0 0 0 0
0.17089844 -0.026779175 -0.35131836 0 0 0 0
0.1730957 -0.026779175 -0.35131836 0 0 0 0
0.17529297 -0.026779175 -0.35131836 0 0 0 0
0.17749023 -0.026779175 -0.35131836 0 0 0 0
0.1796875 -0.026779175 -0.35131836 0 0 0 0
0.18188477 -0.026779175 -0.35131836 0 0 0 0
0.18395996 -0.026779175 -0.35131836 0 0 0 0
0.18615723 -0.026779175 -0.35131836 0 0 0 0
0.18835449 -0.026779175 -0.35131836 0 0 0 0
0.19055176 -0.026779175 -0.35131836 0 0 0 0
0.19274902 -0.026779175 -0.35131836 0 0 0 0
0.19494629 -0.026779175 -0.35131836 0 0 0 0
0.1965332 -0.026702881 -0.3503418 0 0 0 0
0.19873047 -0.026702881 -0.3503418 0 0 0 0
0.20153809 -0.026779175 -0.35131836 0 0 0 0
0.20361328 -0.026779175 -0.35131836 0 0 0 0
0.20581055 -0.026779175 -0.35131836 0 0 0 0
0.20800781 -0.026779175 -0.35131836 0 0 0 0
0.21020508 -0.026779175 -0.35131836 0 0 0 0
0.21240234 -0.026779175 -0.35131836 0 0 0 0
0.21398926 -0.026702881 -0.3503418 0 0 0 0
0.21618652 -0.026702881 -0.3503418 0 0 0 0
0.21838379 -0.026702881 -0.3503418 0 0 0 0
0.22045898 -0.026702881 -0.3503418 0 0 0 0
0.2232666 -0.026779175 -0.35131836 0 0 0 0
0.22546387 -0.026779175 -0.35131836 0 0 0 0
0.22766113 -0.026779175 -0.35131836 0 0 0 0
0.0028877258 -0.029220581 -0.35424805 0 0 0 0
0.0050888062 -0.029220581 -0.35424805 0 0 0 0
0.0072898865 -0.029220581 -0.35424805 0 0 0 0
0.009513855 -0.029296875 -0.35522461 0 0 0 0
0.011726379 -0.029296875 -0.35522461 0 0 0 0
0.013969421 -0.029373169 -0.35620117 0 0 0 0
0.016235352 -0.029464722 -0.35717773 0 0 0 0
0.018508911 -0.029541016 -0.35839844 0 0 0 0
0.020721436 -0.029541016 -0.35839844 0 0 0 0
0.023086548 -0.029708862 -0.36035156 0 0 0 0
0.025390625 -0.029800415 -0.36132812 0 0 0 0
0.027709961 -0.029876709 -0.36230469 0 0 0 0
0.030044556 -0.029953003 -0.36328125 0 0 0 0
0.03237915 -0.030044556 -0.36425781 0 0 0 0
0.034851074 -0.030212402 -0.36621094 0 0 0 0
0.037109375 -0.030212402 -0.36621094 0 0 0 0
0.039520264 -0.030288696 -0.36743164 0 0 0 0
0.041900635 -0.030380249 -0.3684082 0 0 0 0
0.044189453 -0.030380249 -0.3684082 0 0 0 0
0.04675293 -0.030532837 -0.37036133 0 0 0 0
0.079162598 -0.032531738 -0.39453125 0 0 0 0
0.081237793 -0.032348633 -0.39233398 0 0 0 0
0.083007812 -0.032104492 -0.3894043 0 0 0 0
0.085205078 -0.032012939 -0.38842773 0 0 0 0
0.087158203 -0.031860352 -0.38647461 0 0 0 0
0.089355469 -0.031768799 -0.38549805 0 0 0 0
0.09173584 -0.031768799 -0.38549805 0 0 0 0
0.094116211 -0.031768799 -0.38549805 0 0 0 0
0.096801758 -0.031860352 -0.38647461 0 0 0 0
0.099182129 -0.031860352 -0.38647461 0 0 0 0
0.097290039 -0.029129028 -0.35327148 0 0 0 0
0.099487305 -0.029129028 -0.35327148 0 0 0 0
0.10168457 -0.029129028 -0.35327148 0 0 0 0
0.10388184 -0.029129028 -0.35327148 0 0 0 0
0.1060791 -0.029129028 -0.35327148 0 0 0 0
0.10827637 -0.029129028 -0.35327148 0 0 0 0
0.11010742 -0.029052734 -0.35229492 0 0 0 0
0.11230469 -0.029052734 -0.35229492 0 0 0 0
0.11450195 -0.029052734 -0.35229492 0 0 0 0
0.11669922 -0.029052734 -0.35229492 0 0 0 0
0.11889648 -0.029052734 -0.35229492 0 0 0 0
0.12109375 -0.029052734 -0.35229492 0 0 0 0
0.12329102 -0.029052734 -0.35229492 0 0 0 0
0.12536621 -0.029052734 -0.35229492 0 0 0 0
0.12756348 -0.029052734 -0.35229492 0 0 0 0
0.12976074 -0.029052734 -0.35229492 0 0 0 0
0.13195801 -0.029052734 -0.35229492 0 0 0 0
0.13415527 -0.029052734 -0.35229492 0 0 0 0
0.13635254 -0.029052734 -0.35229492 0 0 0 0
0.1385498 -0.029052734 -0.35229492 0 0 0 0
0.14074707 -0.029052734 -0.35229492 0 0 0 0
0.14294434 -0.029052734 -0.35229492 0 0 0 0
0.1451416 -0.029052734 -0.35229492 0 0 0 0
0.14733887 -0.029052734 -0.35229492 0 0 0 0
0.14953613 -0.029052734 -0.35229492 0 0 0 0
0.1517334 -0.029052734 -0.35229492 0 0 0 0
0.15393066 -0.029052734 -0.35229492 0 0 0 0
0.15612793 -0.029052734 -0.35229492 0 0 0 0
0.1583252 -0.029052734 -0.35229492 0 0 0 0
0.16040039 -0.029052734 -0.35229492 0 0 0 0
0.16223145 -0.028961182 -0.35131836 0 0 0 0
0.16430664 -0.028961182 -0.35131836 0 0 0 0
0.16650391 -0.028961182 -0.35131836 0 0 0 0
0.16870117 -0.028961182 -0.35131836 0 0 0 0
0.17089844 -0.028961182 -0.35131836 0 0 0 0
0.1730957 -0.028961182 -0.35131836 0 0 0 0
0.17529297 -0.028961182 -0.35131836 0 0 0 0
0.17749023 -0.028961182 -0.35131836 0 0 0 0
0.1796875 -0.028961182 -0.35131836 0 0 0 0
0.18188477 -0.028961182 -0.35131836 0 0 0 0
0.18395996 -0.028961182 -0.35131836 0 0 0 0
0.18615723 -0.028961182 -0.35131836 0 0 0 0
0.18835449 -0.028961182 -0.35131836 0 0 0 0
0.19055176 -0.028961182 -0.35131836 0 0 0 0
0.19213867 -0.028884888 -0.3503418 0 0 0 0
0.19433594 -0.028884888 -0.3503418 0 0 0 0
0.1965332 -0.028884888 -0.3503418 0 0 0 0
0.19873047 -0.028884888 -0.3503418 0 0 0 0
0.20092773 -0.028884888 -0.3503418 0 0 0 0
0.203125 -0.028884888 -0.3503418 0 0 0 0
0.20532227 -0.028884888 -0.3503418 0 0 0 0
0.20739746 -0.028884888 -0.3503418 0 0 0 0
0.20959473 -0.028884888 -0.3503418 0 0 0 0
0.21179199 -0.028884888 -0.3503418 0 0 0 0
0.21398926 -0.028884888 -0.3503418 0 0 0 0
0.21618652 -0.028884888 -0.3503418 0 0 0 0
0.21838379 -0.028884888 -0.3503418 0 0 0 0
0.22045898 -0.028884888 -0.3503418 0 0 0 0
0.22265625 -0.028884888 -0.3503418 0 0 0 0
0.22546387 -0.028961182 -0.35131836 0 0 0 0
0.00068378448 -0.031311035 -0.35327148 0 0 0 0
0.0028781891 -0.031311035 -0.35327148 0 0 0 0
0.0050888062 -0.031402588 -0.35424805 0 0 0 0
0.0072898865 -0.031402588 -0.35424805 0 0 0 0
0.0094909668 -0.031402588 -0.35424805 0 0 0 0
0.011695862 -0.031402588 -0.35424805 0 0 0 0
0.013931274 -0.031494141 -0.35522461 0 0 0 0
0.016189575 -0.031585693 -0.35620117 0 0 0 0
0.018447876 -0.031677246 -0.35717773 0 0 0 0
0.020721436 -0.031768799 -0.35839844 0 0 0 0
0.023025513 -0.031860352 -0.359375 0 0 0 0
0.02532959 -0.031951904 -0.36035156 0 0 0 0
0.027633667 -0.032043457 -0.36132812 0 0 0 0
0.029968262 -0.03213501 -0.36230469 0 0 0 0
0.032287598 -0.032196045 -0.36328125 0 0 0 0
0.034667969 -0.032287598 -0.36425781 0 0 0 0
0.037017822 -0.03237915 -0.36523438 0 0 0 0
0.039398193 -0.032470703 -0.36621094 0 0 0 0
0.041687012 -0.032470703 -0.36621094 0 0 0 0
0.044067383 -0.032562256 -0.36743164 0 0 0 0
0.081420898 -0.034881592 -0.39331055 0 0 0 0
0.083251953 -0.034606934 -0.39038086 0 0 0 0
0.085205078 -0.034423828 -0.38842773 0 0 0 0
0.087158203 -0.03427124 -0.38647461 0 0 0 0
0.089355469 -0.034179688 -0.38549805 0 0 0 0
0.091491699 -0.034088135 -0.38427734 0 0 0 0
0.09387207 -0.034088135 -0.38427734 0 0 0 0
0.096557617 -0.034179688 -0.38549805 0 0 0 0
0.095092773 -0.031311035 -0.35327148 0 0 0 0
0.097290039 -0.031311035 -0.35327148 0 0 0 0
0.099487305 -0.031311035 -0.35327148 0 0 0 0
0.10168457 -0.031311035 -0.35327148 0 0 0 0
0.10388184 -0.031311035 -0.35327148 0 0 0 0
0.10577393 -0.031234741 -0.35229492 0 0 0 0
0.10791016 -0.031234741 -0.35229492 0 0 0 0
0.11010742 -0.031234741 -0.35229492 0 0 0 0
0.11230469 -0.031234741 -0.35229492 0 0 0 0
0.11450195 -0.031234741 -0.35229492 0 0 0 0
0.11669922 -0.031234741 -0.35229492 0 0 0 0
0.11889648 -0.031234741 -0.35229492 0 0 0 0
0.12109375 -0.031234741 -0.35229492 0 0 0 0
0.12329102 -0.031234741 -0.35229492 0 0 0 0
0.12536621 -0.031234741 -0.35229492 0 0 0 0
0.12756348 -0.031234741 -0.35229492 0 0 0 0
0.12976074 -0.031234741 -0.35229492 0 0 0 0
0.13195801 -0.031234741 -0.35229492 0 0 0 0
0.13415527 -0.031234741 -0.35229492 0 0 0 0
0.13635254 -0.031234741 -0.35229492 0 0 0 0
0.1385498 -0.031234741 -0.35229492 0 0 0 0
0.14074707 -0.031234741 -0.35229492 0 0 0 0
0.14294434 -0.031234741 -0.35229492 0 0 0 0
0.1451416 -0.031234741 -0.35229492 0 0 0 0
0.14733887 -0.031234741 -0.35229492 0 0 0 0
0.14953613 -0.031234741 -0.35229492 0 0 0 0
0.1517334 -0.031234741 -0.35229492 0 0 0 0
