ply
format ascii 1.0
comment PCL generated
element vertex 1107
property float x
property float y
property float z
property float nx
property float ny
property float nz
property float curvature
element face 0
element camera 0
property float view_px
property float view_py
property float view_pz
property float x_axisx
property float x_axisy
property float x_axisz
property float y_axisx
property float y_axisy
property float y_axisz
property float z_axisx
property float z_axisy
property float z_axisz
property float focal
property float scalex
property float scaley
property float centerx
property float centery
property int viewportx
property int viewporty
property float k1
property float k2
end_header
0.082885742 0.12127686 -0.40039062 0 0 0 0
0.083862305 0.11914062 -0.39331055 0 0 0 0
0.085876465 0.11853027 -0.39135742 0 0 0 0
0.08807373 0.1182251 -0.39038086 0 0 0 0
0.090270996 0.11791992 -0.3894043 0 0 0 0
0.092712402 0.11791992 -0.3894043 0 0 0 0
0.13269043 0.1072998 -0.35424805 0 0 0 0
0.13452148 0.10699463 -0.35327148 0 0 0 0
0.13635254 0.10668945 -0.35229492 0 0 0 0
0.13818359 0.10638428 -0.35131836 0 0 0 0
0.13989258 0.1060791 -0.3503418 0 0 0 0
0.14172363 0.10577393 -0.34912109 0 0 0 0
0.1439209 0.10577393 -0.34912109 0 0 0 0
0.14611816 0.10577393 -0.34912109 0 0 0 0
0.14782715 0.10546875 -0.34814453 0 0 0 0
0.15002441 0.10546875 -0.34814453 0 0 0 0
0.15209961 0.10546875 -0.34814453 0 0 0 0
0.15380859 0.10516357 -0.34716797 0 0 0 0
0.15600586 0.10516357 -0.34716797 0 0 0 0
0.15771484 0.1048584 -0.34619141 0 0 0 0
0.15991211 0.1048584 -0.34619141 0 0 0 0
0.1619873 0.1048584 -0.34619141 0 0 0 0
0.16369629 0.10455322 -0.34521484 0 0 0 0
0.16589355 0.10455322 -0.34521484 0 0 0 0
0.053436279 0.11968994 -0.40356445 0 0 0 0
0.055664062 0.11907959 -0.40136719 0 0 0 0
0.057861328 0.11846924 -0.39941406 0 0 0 0
0.060180664 0.11816406 -0.3984375 0 0 0 0
0.0625 0.11785889 -0.39746094 0 0 0 0
0.064941406 0.11785889 -0.39746094 0 0 0 0
0.067626953 0.11816406 -0.3984375 0 0 0 0
0.070251465 0.11846924 -0.39941406 0 0 0 0
0.072937012 0.11877441 -0.40039062 0 0 0 0
0.075439453 0.11877441 -0.40039062 0 0 0 0
0.077880859 0.11877441 -0.40039062 0 0 0 0
0.080200195 0.11846924 -0.39941406 0 0 0 0
0.082458496 0.11816406 -0.3984375 0 0 0 0
0.083862305 0.11669922 -0.39331055 0 0 0 0
0.086120605 0.11639404 -0.39233398 0 0 0 0
0.088317871 0.11608887 -0.39135742 0 0 0 0
0.090515137 0.11578369 -0.39038086 0 0 0 0
0.092956543 0.11578369 -0.39038086 0 0 0 0
0.095092773 0.11547852 -0.3894043 0 0 0 0
0.11682129 0.10656738 -0.359375 0 0 0 0
0.11901855 0.10656738 -0.359375 0 0 0 0
0.12127686 0.10656738 -0.359375 0 0 0 0
0.12536621 0.10626221 -0.35839844 0 0 0 0
0.12756348 0.10626221 -0.35839844 0 0 0 0
0.12939453 0.10595703 -0.35717773 0 0 0 0
0.13122559 0.10565186 -0.35620117 0 0 0 0
0.13269043 0.1050415 -0.35424805 0 0 0 0
0.13452148 0.10479736 -0.35327148 0 0 0 0
0.13635254 0.10449219 -0.35229492 0 0 0 0
0.13818359 0.10418701 -0.35131836 0 0 0 0
0.13952637 0.10357666 -0.34912109 0 0 0 0
0.14135742 0.10327148 -0.34814453 0 0 0 0
0.14343262 0.10327148 -0.34814453 0 0 0 0
0.14526367 0.10296631 -0.34716797 0 0 0 0
0.14733887 0.10296631 -0.34716797 0 0 0 0
0.14953613 0.10296631 -0.34716797 0 0 0 0
0.15124512 0.10266113 -0.34619141 0 0 0 0
0.15344238 0.10266113 -0.34619141 0 0 0 0
0.15515137 0.10241699 -0.34521484 0 0 0 0
0.15722656 0.10241699 -0.34521484 0 0 0 0
0.15893555 0.10211182 -0.34423828 0 0 0 0
0.16113281 0.10211182 -0.34423828 0 0 0 0
0.16320801 0.10211182 -0.34423828 0 0 0 0
0.16491699 0.10180664 -0.34326172 0 0 0 0
0.16650391 0.10150146 -0.34228516 0 0 0 0
0.053436279 0.11712646 -0.40356445 0 0 0 0
0.055511475 0.11627197 -0.40039062 0 0 0 0
0.057861328 0.1159668 -0.39941406 0 0 0 0
0.060180664 0.11572266 -0.3984375 0 0 0 0
0.0625 0.11541748 -0.39746094 0 0 0 0
0.064941406 0.11541748 -0.39746094 0 0 0 0
0.067626953 0.11572266 -0.3984375 0 0 0 0
0.070251465 0.1159668 -0.39941406 0 0 0 0
0.072753906 0.1159668 -0.39941406 0 0 0 0
0.075195312 0.1159668 -0.39941406 0 0 0 0
0.077697754 0.1159668 -0.39941406 0 0 0 0
0.08001709 0.11572266 -0.3984375 0 0 0 0
0.08203125 0.1151123 -0.39648438 0 0 0 0
0.083862305 0.11425781 -0.39331055 0 0 0 0
0.086120605 0.11395264 -0.39233398 0 0 0 0
0.088317871 0.11364746 -0.39135742 0 0 0 0
0.090759277 0.11364746 -0.39135742 0 0 0 0
0.092956543 0.11334229 -0.39038086 0 0 0 0
0.095336914 0.11334229 -0.39038086 0 0 0 0
0.1104126 0.10461426 -0.36035156 0 0 0 0
0.11230469 0.10430908 -0.359375 0 0 0 0
0.11456299 0.10430908 -0.359375 0 0 0 0
0.11682129 0.10430908 -0.359375 0 0 0 0
0.11901855 0.10430908 -0.359375 0 0 0 0
0.12127686 0.10430908 -0.359375 0 0 0 0
0.12316895 0.10406494 -0.35839844 0 0 0 0
0.12536621 0.10406494 -0.35839844 0 0 0 0
0.12756348 0.10406494 -0.35839844 0 0 0 0
0.12939453 0.10375977 -0.35717773 0 0 0 0
0.13122559 0.10345459 -0.35620117 0 0 0 0
0.13317871 0.10314941 -0.35522461 0 0 0 0
0.1348877 0.10284424 -0.35424805 0 0 0 0
0.13635254 0.10229492 -0.35229492 0 0 0 0
0.13781738 0.10168457 -0.3503418 0 0 0 0
0.13952637 0.10144043 -0.34912109 0 0 0 0
0.14086914 0.10083008 -0.34716797 0 0 0 0
0.1427002 0.1005249 -0.34619141 0 0 0 0
0.14477539 0.1005249 -0.34619141 0 0 0 0
0.14648438 0.10021973 -0.34521484 0 0 0 0
0.14868164 0.10021973 -0.34521484 0 0 0 0
0.15039062 0.099975586 -0.34423828 0 0 0 0
0.15246582 0.099975586 -0.34423828 0 0 0 0
0.15466309 0.099975586 -0.34423828 0 0 0 0
0.15637207 0.09967041 -0.34326172 0 0 0 0
0.15844727 0.09967041 -0.34326172 0 0 0 0
0.16015625 0.099365234 -0.34228516 0 0 0 0
0.16223145 0.099365234 -0.34228516 0 0 0 0
0.16442871 0.099365234 -0.34228516 0 0 0 0
0.16601562 0.099060059 -0.34130859 0 0 0 0
0.16821289 0.099060059 -0.34130859 0 0 0 0
0.17712402 0.098205566 -0.33813477 0 0 0 0
0.17871094 0.097900391 -0.3371582 0 0 0 0
0.18078613 0.097900391 -0.3371582 0 0 0 0
0.1829834 0.097900391 -0.3371582 0 0 0 0
0.053283691 0.11437988 -0.40234375 0 0 0 0
0.055511475 0.11376953 -0.40039062 0 0 0 0
0.05770874 0.11322021 -0.3984375 0 0 0 0
0.060028076 0.11291504 -0.39746094 0 0 0 0
0.0625 0.11291504 -0.39746094 0 0 0 0
0.064941406 0.11291504 -0.39746094 0 0 0 0
0.067626953 0.11322021 -0.3984375 0 0 0 0
0.070068359 0.11322021 -0.3984375 0 0 0 0
0.072570801 0.11322021 -0.3984375 0 0 0 0
0.075012207 0.11322021 -0.3984375 0 0 0 0
0.077514648 0.11322021 -0.3984375 0 0 0 0
0.079772949 0.11291504 -0.39746094 0 0 0 0
0.08203125 0.1126709 -0.39648438 0 0 0 0
0.084106445 0.11206055 -0.39453125 0 0 0 0
0.086303711 0.11181641 -0.39331055 0 0 0 0
0.088562012 0.11151123 -0.39233398 0 0 0 0
0.091003418 0.11151123 -0.39233398 0 0 0 0
0.093383789 0.11151123 -0.39233398 0 0 0 0
0.095581055 0.11120605 -0.39135742 0 0 0 0
0.1081543 0.10235596 -0.36035156 0 0 0 0
0.1104126 0.10235596 -0.36035156 0 0 0 0
0.11230469 0.10211182 -0.359375 0 0 0 0
0.11456299 0.10211182 -0.359375 0 0 0 0
0.11682129 0.10211182 -0.359375 0 0 0 0
0.11901855 0.10211182 -0.359375 0 0 0 0
0.12127686 0.10211182 -0.359375 0 0 0 0
0.12316895 0.10180664 -0.35839844 0 0 0 0
0.12536621 0.10180664 -0.35839844 0 0 0 0
0.12756348 0.10180664 -0.35839844 0 0 0 0
0.12939453 0.10150146 -0.35717773 0 0 0 0
0.13122559 0.10125732 -0.35620117 0 0 0 0
0.13317871 0.10095215 -0.35522461 0 0 0 0
0.1348877 0.10064697 -0.35424805 0 0 0 0
0.13635254 0.10009766 -0.35229492 0 0 0 0
0.13781738 0.09954834 -0.3503418 0 0 0 0
0.13916016 0.098937988 -0.34814453 0 0 0 0
0.14013672 0.098083496 -0.34521484 0 0 0 0
0.1418457 0.097839355 -0.34423828 0 0 0 0
0.1439209 0.097839355 -0.34423828 0 0 0 0
0.14562988 0.09753418 -0.34326172 0 0 0 0
0.14782715 0.09753418 -0.34326172 0 0 0 0
0.14953613 0.097229004 -0.34228516 0 0 0 0
0.15161133 0.097229004 -0.34228516 0 0 0 0
0.15380859 0.097229004 -0.34228516 0 0 0 0
0.15539551 0.096984863 -0.34130859 0 0 0 0
0.15759277 0.096984863 -0.34130859 0 0 0 0
0.15917969 0.096679688 -0.34008789 0 0 0 0
0.16125488 0.096679688 -0.34008789 0 0 0 0
0.16345215 0.096679688 -0.34008789 0 0 0 0
0.16552734 0.096679688 -0.34008789 0 0 0 0
0.16760254 0.096679688 -0.34008789 0 0 0 0
0.16931152 0.096374512 -0.33911133 0 0 0 0
0.17138672 0.096374512 -0.33911133 0 0 0 0
0.17346191 0.096374512 -0.33911133 0 0 0 0
0.17504883 0.096130371 -0.33813477 0 0 0 0
0.17712402 0.096130371 -0.33813477 0 0 0 0
0.17932129 0.096130371 -0.33813477 0 0 0 0
0.18078613 0.095825195 -0.3371582 0 0 0 0
0.1829834 0.095825195 -0.3371582 0 0 0 0
0.18505859 0.095825195 -0.3371582 0 0 0 0
0.050933838 0.11212158 -0.40356445 0 0 0 0
0.053161621 0.11157227 -0.40136719 0 0 0 0
0.055389404 0.11102295 -0.39941406 0 0 0 0
0.057556152 0.11047363 -0.39746094 0 0 0 0
0.060028076 0.11047363 -0.39746094 0 0 0 0
0.062347412 0.11016846 -0.39648438 0 0 0 0
0.064941406 0.11047363 -0.39746094 0 0 0 0
0.067443848 0.11047363 -0.39746094 0 0 0 0
0.070068359 0.11071777 -0.3984375 0 0 0 0
0.072570801 0.11071777 -0.3984375 0 0 0 0
0.075012207 0.11071777 -0.3984375 0 0 0 0
0.077331543 0.11047363 -0.39746094 0 0 0 0
0.079589844 0.11016846 -0.39648438 0 0 0 0
0.08203125 0.11016846 -0.39648438 0 0 0 0
0.084106445 0.10961914 -0.39453125 0 0 0 0
0.086547852 0.10961914 -0.39453125 0 0 0 0
0.088989258 0.10961914 -0.39453125 0 0 0 0
0.091430664 0.10961914 -0.39453125 0 0 0 0
0.09387207 0.10961914 -0.39453125 0 0 0 0
0.095825195 0.10906982 -0.39233398 0 0 0 0
0.1081543 0.10015869 -0.36035156 0 0 0 0
0.1104126 0.10015869 -0.36035156 0 0 0 0
0.11230469 0.099853516 -0.359375 0 0 0 0
0.11456299 0.099853516 -0.359375 0 0 0 0
0.11682129 0.099853516 -0.359375 0 0 0 0
0.11901855 0.099853516 -0.359375 0 0 0 0
0.12091064 0.099609375 -0.35839844 0 0 0 0
0.12316895 0.099609375 -0.35839844 0 0 0 0
0.12536621 0.099609375 -0.35839844 0 0 0 0
0.12756348 0.099609375 -0.35839844 0 0 0 0
0.12939453 0.099304199 -0.35717773 0 0 0 0
0.13122559 0.098999023 -0.35620117 0 0 0 0
0.13317871 0.098754883 -0.35522461 0 0 0 0
0.1348877 0.098449707 -0.35424805 0 0 0 0
0.13635254 0.097900391 -0.35229492 0 0 0 0
0.13781738 0.097351074 -0.3503418 0 0 0 0
0.13879395 0.096496582 -0.34716797 0 0 0 0
0.13928223 0.095397949 -0.34326172 0 0 0 0
0.14099121 0.095092773 -0.34228516 0 0 0 0
0.14306641 0.095092773 -0.34228516 0 0 0 0
0.14477539 0.094848633 -0.34130859 0 0 0 0
0.14697266 0.094848633 -0.34130859 0 0 0 0
0.14904785 0.094848633 -0.34130859 0 0 0 0
0.15075684 0.094543457 -0.34008789 0 0 0 0
0.15283203 0.094543457 -0.34008789 0 0 0 0
0.15454102 0.094299316 -0.33911133 0 0 0 0
0.15661621 0.094299316 -0.33911133 0 0 0 0
0.15869141 0.094299316 -0.33911133 0 0 0 0
0.16088867 0.094299316 -0.33911133 0 0 0 0
0.16296387 0.094299316 -0.33911133 0 0 0 0
0.16503906 0.094299316 -0.33911133 0 0 0 0
0.16711426 0.094299316 -0.33911133 0 0 0 0
0.16931152 0.094299316 -0.33911133 0 0 0 0
0.17138672 0.094299316 -0.33911133 0 0 0 0
0.17346191 0.094299316 -0.33911133 0 0 0 0
0.17504883 0.093994141 -0.33813477 0 0 0 0
0.17712402 0.093994141 -0.33813477 0 0 0 0
0.17932129 0.093994141 -0.33813477 0 0 0 0
0.18078613 0.09375 -0.3371582 0 0 0 0
0.1829834 0.09375 -0.3371582 0 0 0 0
0.18505859 0.09375 -0.3371582 0 0 0 0
0.18713379 0.09375 -0.3371582 0 0 0 0
0.026870728 0.10388184 -0.38232422 0 0 0 0
0.029174805 0.1036377 -0.38134766 0 0 0 0
0.031524658 0.1036377 -0.38134766 0 0 0 0
0.05065918 0.10906982 -0.40136719 0 0 0 0
0.052886963 0.10852051 -0.39941406 0 0 0 0
0.055114746 0.10797119 -0.39746094 0 0 0 0
0.057434082 0.10772705 -0.39648438 0 0 0 0
0.059875488 0.10772705 -0.39648438 0 0 0 0
0.062347412 0.10772705 -0.39648438 0 0 0 0
0.064819336 0.10772705 -0.39648438 0 0 0 0
0.067443848 0.10797119 -0.39746094 0 0 0 0
0.069885254 0.10797119 -0.39746094 0 0 0 0
0.072387695 0.10797119 -0.39746094 0 0 0 0
0.074829102 0.10797119 -0.39746094 0 0 0 0
0.077331543 0.10797119 -0.39746094 0 0 0 0
0.079589844 0.10772705 -0.39648438 0 0 0 0
0.08203125 0.10772705 -0.39648438 0 0 0 0
0.084289551 0.10742188 -0.39550781 0 0 0 0
0.086730957 0.10742188 -0.39550781 0 0 0 0
0.089416504 0.10772705 -0.39648438 0 0 0 0
0.091918945 0.10772705 -0.39648438 0 0 0 0
0.094604492 0.10797119 -0.39746094 0 0 0 0
0.096618652 0.10742188 -0.39550781 0 0 0 0
0.105896 0.097900391 -0.36035156 0 0 0 0
0.1081543 0.097900391 -0.36035156 0 0 0 0
0.1104126 0.097900391 -0.36035156 0 0 0 0
0.11230469 0.09765625 -0.359375 0 0 0 0
0.11456299 0.09765625 -0.359375 0 0 0 0
0.11682129 0.09765625 -0.359375 0 0 0 0
0.11901855 0.09765625 -0.359375 0 0 0 0
0.12091064 0.097351074 -0.35839844 0 0 0 0
0.12316895 0.097351074 -0.35839844 0 0 0 0
0.12536621 0.097351074 -0.35839844 0 0 0 0
0.12756348 0.097351074 -0.35839844 0 0 0 0
0.12939453 0.097106934 -0.35717773 0 0 0 0
0.13171387 0.097106934 -0.35717773 0 0 0 0
0.13354492 0.096801758 -0.35620117 0 0 0 0
0.13537598 0.096557617 -0.35522461 0 0 0 0
0.13671875 0.096008301 -0.35327148 0 0 0 0
0.13220215 0.091369629 -0.33618164 0 0 0 0
0.13476562 0.09161377 -0.3371582 0 0 0 0
0.13806152 0.092468262 -0.34008789 0 0 0 0
0.14013672 0.092468262 -0.34008789 0 0 0 0
0.14233398 0.092468262 -0.34008789 0 0 0 0
0.14440918 0.092468262 -0.34008789 0 0 0 0
0.14611816 0.092163086 -0.33911133 0 0 0 0
0.14819336 0.092163086 -0.33911133 0 0 0 0
0.14990234 0.091918945 -0.33813477 0 0 0 0
0.15197754 0.091918945 -0.33813477 0 0 0 0
0.15356445 0.09161377 -0.3371582 0 0 0 0
0.15563965 0.09161377 -0.3371582 0 0 0 0
0.15783691 0.09161377 -0.3371582 0 0 0 0
0.15991211 0.09161377 -0.3371582 0 0 0 0
0.1619873 0.09161377 -0.3371582 0 0 0 0
0.16455078 0.091918945 -0.33813477 0 0 0 0
0.16662598 0.091918945 -0.33813477 0 0 0 0
0.16882324 0.091918945 -0.33813477 0 0 0 0
0.17089844 0.091918945 -0.33813477 0 0 0 0
0.17297363 0.091918945 -0.33813477 0 0 0 0
0.17504883 0.091918945 -0.33813477 0 0 0 0
0.17712402 0.091918945 -0.33813477 0 0 0 0
0.17932129 0.091918945 -0.33813477 0 0 0 0
0.18139648 0.091918945 -0.33813477 0 0 0 0
0.1829834 0.09161377 -0.3371582 0 0 0 0
0.18505859 0.09161377 -0.3371582 0 0 0 0
0.18652344 0.091369629 -0.33618164 0 0 0 0
0.02456665 0.10180664 -0.38330078 0 0 0 0
0.026870728 0.10150146 -0.38232422 0 0 0 0
0.029251099 0.10150146 -0.38232422 0 0 0 0
0.031616211 0.10150146 -0.38232422 0 0 0 0
0.033996582 0.10150146 -0.38232422 0 0 0 0
0.048278809 0.10687256 -0.40234375 0 0 0 0
0.050415039 0.1060791 -0.39941406 0 0 0 0
0.052642822 0.10552979 -0.39746094 0 0 0 0
0.054962158 0.10528564 -0.39648438 0 0 0 0
0.057281494 0.10498047 -0.39550781 0 0 0 0
0.059570312 0.10473633 -0.39453125 0 0 0 0
0.062042236 0.10473633 -0.39453125 0 0 0 0
0.06463623 0.10498047 -0.39550781 0 0 0 0
0.067260742 0.10528564 -0.39648438 0 0 0 0
0.069702148 0.10528564 -0.39648438 0 0 0 0
0.07220459 0.10528564 -0.39648438 0 0 0 0
0.074645996 0.10528564 -0.39648438 0 0 0 0
0.077148438 0.10528564 -0.39648438 0 0 0 0
0.079589844 0.10528564 -0.39648438 0 0 0 0
0.08203125 0.10528564 -0.39648438 0 0 0 0
0.084533691 0.10528564 -0.39648438 0 0 0 0
0.087219238 0.10552979 -0.39746094 0 0 0 0
0.089904785 0.10577393 -0.3984375 0 0 0 0
0.092590332 0.1060791 -0.39941406 0 0 0 0
0.095336914 0.10632324 -0.40039062 0 0 0 0
0.105896 0.09564209 -0.36035156 0 0 0 0
0.1081543 0.09564209 -0.36035156 0 0 0 0
0.1104126 0.09564209 -0.36035156 0 0 0 0
0.11230469 0.095397949 -0.359375 0 0 0 0
0.11456299 0.095397949 -0.359375 0 0 0 0
0.11682129 0.095397949 -0.359375 0 0 0 0
0.11871338 0.095153809 -0.35839844 0 0 0 0
0.12091064 0.095153809 -0.35839844 0 0 0 0
0.12316895 0.095153809 -0.35839844 0 0 0 0
0.12536621 0.095153809 -0.35839844 0 0 0 0
0.12756348 0.095153809 -0.35839844 0 0 0 0
0.12939453 0.094848633 -0.35717773 0 0 0 0
0.13171387 0.094848633 -0.35717773 0 0 0 0
0.13354492 0.094604492 -0.35620117 0 0 0 0
0.12731934 0.088745117 -0.33422852 0 0 0 0
0.12939453 0.088745117 -0.33422852 0 0 0 0
0.13183594 0.088989258 -0.33520508 0 0 0 0
0.13427734 0.089233398 -0.33618164 0 0 0 0
0.13720703 0.089782715 -0.33813477 0 0 0 0
0.13928223 0.089782715 -0.33813477 0 0 0 0
0.14147949 0.089782715 -0.33813477 0 0 0 0
0.14355469 0.089782715 -0.33813477 0 0 0 0
0.14562988 0.089782715 -0.33813477 0 0 0 0
0.14733887 0.089538574 -0.3371582 0 0 0 0
0.14941406 0.089538574 -0.3371582 0 0 0 0
0.15100098 0.089233398 -0.33618164 0 0 0 0
0.15319824 0.089233398 -0.33618164 0 0 0 0
0.15527344 0.089233398 -0.33618164 0 0 0 0
0.15686035 0.088989258 -0.33520508 0 0 0 0
0.15942383 0.089233398 -0.33618164 0 0 0 0
0.16149902 0.089233398 -0.33618164 0 0 0 0
0.16357422 0.089233398 -0.33618164 0 0 0 0
0.1661377 0.089538574 -0.3371582 0 0 0 0
0.16821289 0.089538574 -0.3371582 0 0 0 0
0.17089844 0.089782715 -0.33813477 0 0 0 0
0.17297363 0.089782715 -0.33813477 0 0 0 0
0.17504883 0.089782715 -0.33813477 0 0 0 0
0.17712402 0.089782715 -0.33813477 0 0 0 0
0.17932129 0.089782715 -0.33813477 0 0 0 0
0.18139648 0.089782715 -0.33813477 0 0 0 0
0.1829834 0.089538574 -0.3371582 0 0 0 0
0.18505859 0.089538574 -0.3371582 0 0 0 0
0.18652344 0.089233398 -0.33618164 0 0 0 0
0.022293091 0.099914551 -0.38549805 0 0 0 0
0.024627686 0.09967041 -0.38427734 0 0 0 0
0.026947021 0.09942627 -0.38330078 0 0 0 0
0.029327393 0.09942627 -0.38330078 0 0 0 0
0.031616211 0.099121094 -0.38232422 0 0 0 0
0.033996582 0.099121094 -0.38232422 0 0 0 0
0.036468506 0.09942627 -0.38330078 0 0 0 0
0.048065186 0.1038208 -0.40039062 0 0 0 0
0.050170898 0.10302734 -0.39746094 0 0 0 0
0.052368164 0.10253906 -0.39550781 0 0 0 0
0.054534912 0.10198975 -0.39331055 0 0 0 0
0.056976318 0.10198975 -0.39331055 0 0 0 0
0.059448242 0.10198975 -0.39331055 0 0 0 0
0.061889648 0.10198975 -0.39331055 0 0 0 0
0.064453125 0.10229492 -0.39453125 0 0 0 0
0.066894531 0.10229492 -0.39453125 0 0 0 0
0.069580078 0.10253906 -0.39550781 0 0 0 0
0.072021484 0.10253906 -0.39550781 0 0 0 0
0.074462891 0.10253906 -0.39550781 0 0 0 0
0.076904297 0.10253906 -0.39550781 0 0 0 0
0.079406738 0.10253906 -0.39550781 0 0 0 0
0.08203125 0.1027832 -0.39648438 0 0 0 0
0.084716797 0.10302734 -0.39746094 0 0 0 0
0.087646484 0.10357666 -0.39941406 0 0 0 0
0.090332031 0.1038208 -0.40039062 0 0 0 0
0.093322754 0.10437012 -0.40234375 0 0 0 0
0.10394287 0.093688965 -0.36132812 0 0 0 0
0.105896 0.093444824 -0.36035156 0 0 0 0
0.1081543 0.093444824 -0.36035156 0 0 0 0
0.1104126 0.093444824 -0.36035156 0 0 0 0
0.11230469 0.093139648 -0.359375 0 0 0 0
0.11456299 0.093139648 -0.359375 0 0 0 0
0.11682129 0.093139648 -0.359375 0 0 0 0
0.11871338 0.092895508 -0.35839844 0 0 0 0
0.12091064 0.092895508 -0.35839844 0 0 0 0
0.12316895 0.092895508 -0.35839844 0 0 0 0
0.12536621 0.092895508 -0.35839844 0 0 0 0
0.12756348 0.092895508 -0.35839844 0 0 0 0
0.12939453 0.092651367 -0.35717773 0 0 0 0
0.13171387 0.092651367 -0.35717773 0 0 0 0
0.12524414 0.086669922 -0.33422852 0 0 0 0
0.12731934 0.086669922 -0.33422852 0 0 0 0
0.12939453 0.086669922 -0.33422852 0 0 0 0
0.13183594 0.086914062 -0.33520508 0 0 0 0
0.13427734 0.087158203 -0.33618164 0 0 0 0
0.13684082 0.087463379 -0.3371582 0 0 0 0
0.13891602 0.087463379 -0.3371582 0 0 0 0
0.14099121 0.087463379 -0.3371582 0 0 0 0
0.14306641 0.087463379 -0.3371582 0 0 0 0
0.14526367 0.087463379 -0.3371582 0 0 0 0
0.14685059 0.087158203 -0.33618164 0 0 0 0
0.14892578 0.087158203 -0.33618164 0 0 0 0
0.15063477 0.086914062 -0.33520508 0 0 0 0
0.15270996 0.086914062 -0.33520508 0 0 0 0
0.15429688 0.086669922 -0.33422852 0 0 0 0
0.15637207 0.086669922 -0.33422852 0 0 0 0
0.15844727 0.086669922 -0.33422852 0 0 0 0
0.16101074 0.086914062 -0.33520508 0 0 0 0
0.16308594 0.086914062 -0.33520508 0 0 0 0
0.16564941 0.087158203 -0.33618164 0 0 0 0
0.16821289 0.087463379 -0.3371582 0 0 0 0
0.17089844 0.08770752 -0.33813477 0 0 0 0
0.17297363 0.08770752 -0.33813477 0 0 0 0
0.17504883 0.08770752 -0.33813477 0 0 0 0
0.17712402 0.08770752 -0.33813477 0 0 0 0
0.17932129 0.08770752 -0.33813477 0 0 0 0
0.18139648 0.08770752 -0.33813477 0 0 0 0
0.18347168 0.08770752 -0.33813477 0 0 0 0
0.18505859 0.087463379 -0.3371582 0 0 0 0
0.024688721 0.09753418 -0.38549805 0 0 0 0
0.027023315 0.097290039 -0.38427734 0 0 0 0
0.029403687 0.097290039 -0.38427734 0 0 0 0
0.031707764 0.097045898 -0.38330078 0 0 0 0
0.034088135 0.097045898 -0.38330078 0 0 0 0
0.036468506 0.097045898 -0.38330078 0 0 0 0
0.047821045 0.10083008 -0.3984375 0 0 0 0
0.0496521 0.09954834 -0.39331055 0 0 0 0
0.051971436 0.099304199 -0.39233398 0 0 0 0
0.054260254 0.099060059 -0.39135742 0 0 0 0
0.056549072 0.098815918 -0.39038086 0 0 0 0
0.058990479 0.098815918 -0.39038086 0 0 0 0
0.061553955 0.099060059 -0.39135742 0 0 0 0
0.064147949 0.099304199 -0.39233398 0 0 0 0
0.066589355 0.099304199 -0.39233398 0 0 0 0
0.069213867 0.09954834 -0.39331055 0 0 0 0
0.071655273 0.09954834 -0.39331055 0 0 0 0
0.074279785 0.09979248 -0.39453125 0 0 0 0
0.076721191 0.09979248 -0.39453125 0 0 0 0
0.079406738 0.10009766 -0.39550781 0 0 0 0
0.081848145 0.10009766 -0.39550781 0 0 0 0
0.084716797 0.10058594 -0.39746094 0 0 0 0
0.08782959 0.10131836 -0.40039062 0 0 0 0
0.090820312 0.10186768 -0.40234375 0 0 0 0
0.10394287 0.091430664 -0.36132812 0 0 0 0
0.105896 0.091186523 -0.36035156 0 0 0 0
0.1081543 0.091186523 -0.36035156 0 0 0 0
0.11010742 0.090942383 -0.359375 0 0 0 0
0.11230469 0.090942383 -0.359375 0 0 0 0
0.11456299 0.090942383 -0.359375 0 0 0 0
0.11645508 0.090698242 -0.35839844 0 0 0 0
0.11871338 0.090698242 -0.35839844 0 0 0 0
0.12091064 0.090698242 -0.35839844 0 0 0 0
0.12316895 0.090698242 -0.35839844 0 0 0 0
0.12536621 0.090698242 -0.35839844 0 0 0 0
0.12756348 0.090698242 -0.35839844 0 0 0 0
0.12316895 0.084594727 -0.33422852 0 0 0 0
0.12524414 0.084594727 -0.33422852 0 0 0 0
0.12731934 0.084594727 -0.33422852 0 0 0 0
0.12939453 0.084594727 -0.33422852 0 0 0 0
0.13146973 0.084594727 -0.33422852 0 0 0 0
0.13391113 0.084838867 -0.33520508 0 0 0 0
0.13647461 0.085083008 -0.33618164 0 0 0 0
0.1385498 0.085083008 -0.33618164 0 0 0 0
0.140625 0.085083008 -0.33618164 0 0 0 0
0.1427002 0.085083008 -0.33618164 0 0 0 0
0.14477539 0.085083008 -0.33618164 0 0 0 0
0.14648438 0.084838867 -0.33520508 0 0 0 0
0.14855957 0.084838867 -0.33520508 0 0 0 0
0.15014648 0.084594727 -0.33422852 0 0 0 0
0.15222168 0.084594727 -0.33422852 0 0 0 0
0.15380859 0.084350586 -0.33325195 0 0 0 0
0.15588379 0.084350586 -0.33325195 0 0 0 0
0.15844727 0.084594727 -0.33422852 0 0 0 0
0.16052246 0.084594727 -0.33422852 0 0 0 0
0.16308594 0.084838867 -0.33520508 0 0 0 0
0.16516113 0.084838867 -0.33520508 0 0 0 0
0.16772461 0.085083008 -0.33618164 0 0 0 0
0.17041016 0.085327148 -0.3371582 0 0 0 0
0.17297363 0.085571289 -0.33813477 0 0 0 0
0.17504883 0.085571289 -0.33813477 0 0 0 0
0.17773438 0.085876465 -0.33911133 0 0 0 0
0.17980957 0.085876465 -0.33911133 0 0 0 0
0.18188477 0.085876465 -0.33911133 0 0 0 0
0.18347168 0.085571289 -0.33813477 0 0 0 0
0.18505859 0.085327148 -0.3371582 0 0 0 0
0.022415161 0.09564209 -0.38745117 0 0 0 0
0.024749756 0.095397949 -0.38647461 0 0 0 0
0.027160645 0.095397949 -0.38647461 0 0 0 0
0.02947998 0.095153809 -0.38549805 0 0 0 0
0.031860352 0.095153809 -0.38549805 0 0 0 0
0.034179688 0.094909668 -0.38427734 0 0 0 0
0.036560059 0.094909668 -0.38427734 0 0 0 0
0.046722412 0.096130371 -0.3894043 0 0 0 0
0.049285889 0.096374512 -0.39038086 0 0 0 0
0.051574707 0.096130371 -0.3894043 0 0 0 0
0.053833008 0.09588623 -0.38842773 0 0 0 0
0.056274414 0.09588623 -0.38842773 0 0 0 0
0.058685303 0.09588623 -0.38842773 0 0 0 0
0.061096191 0.09588623 -0.38842773 0 0 0 0
0.063659668 0.096130371 -0.3894043 0 0 0 0
0.066223145 0.096374512 -0.39038086 0 0 0 0
0.068847656 0.096618652 -0.39135742 0 0 0 0
0.071289062 0.096618652 -0.39135742 0 0 0 0
0.073913574 0.096862793 -0.39233398 0 0 0 0
0.07635498 0.096862793 -0.39233398 0 0 0 0
0.078979492 0.097106934 -0.39331055 0 0 0 0
0.081604004 0.097351074 -0.39453125 0 0 0 0
0.084533691 0.097839355 -0.39648438 0 0 0 0
0.08807373 0.099121094 -0.40136719 0 0 0 0
0.10369873 0.088928223 -0.36035156 0 0 0 0
0.105896 0.088928223 -0.36035156 0 0 0 0
0.10784912 0.088684082 -0.359375 0 0 0 0
0.11010742 0.088684082 -0.359375 0 0 0 0
0.11230469 0.088684082 -0.359375 0 0 0 0
0.11425781 0.088439941 -0.35839844 0 0 0 0
0.11645508 0.088439941 -0.35839844 0 0 0 0
0.11871338 0.088439941 -0.35839844 0 0 0 0
0.12091064 0.088439941 -0.35839844 0 0 0 0
0.12280273 0.088195801 -0.35717773 0 0 0 0
0.12536621 0.088439941 -0.35839844 0 0 0 0
0.12145996 0.082763672 -0.33520508 0 0 0 0
0.12316895 0.082519531 -0.33422852 0 0 0 0
0.12524414 0.082519531 -0.33422852 0 0 0 0
0.12731934 0.082519531 -0.33422852 0 0 0 0
0.12939453 0.082519531 -0.33422852 0 0 0 0
0.13146973 0.082519531 -0.33422852 0 0 0 0
0.13391113 0.082763672 -0.33520508 0 0 0 0
0.13598633 0.082763672 -0.33520508 0 0 0 0
0.13806152 0.082763672 -0.33520508 0 0 0 0
0.140625 0.083007812 -0.33618164 0 0 0 0
0.14221191 0.082763672 -0.33520508 0 0 0 0
0.14440918 0.082763672 -0.33520508 0 0 0 0
0.14648438 0.082763672 -0.33520508 0 0 0 0
0.14807129 0.082519531 -0.33422852 0 0 0 0
0.15014648 0.082519531 -0.33422852 0 0 0 0
0.1517334 0.082275391 -0.33325195 0 0 0 0
0.15380859 0.082275391 -0.33325195 0 0 0 0
0.15588379 0.082275391 -0.33325195 0 0 0 0
0.15795898 0.082275391 -0.33325195 0 0 0 0
0.16003418 0.082275391 -0.33325195 0 0 0 0
0.16259766 0.082519531 -0.33422852 0 0 0 0
0.16516113 0.082763672 -0.33520508 0 0 0 0
0.16772461 0.083007812 -0.33618164 0 0 0 0
0.17041016 0.083251953 -0.3371582 0 0 0 0
0.17297363 0.083496094 -0.33813477 0 0 0 0
0.17504883 0.083496094 -0.33813477 0 0 0 0
0.17773438 0.083740234 -0.33911133 0 0 0 0
0.17980957 0.083740234 -0.33911133 0 0 0 0
0.18188477 0.083740234 -0.33911133 0 0 0 0
0.18408203 0.083740234 -0.33911133 0 0 0 0
0.022476196 0.093444824 -0.38842773 0 0 0 0
0.02482605 0.093200684 -0.38745117 0 0 0 0
0.02722168 0.093200684 -0.38745117 0 0 0 0
0.029556274 0.092956543 -0.38647461 0 0 0 0
0.031951904 0.092956543 -0.38647461 0 0 0 0
0.03427124 0.092712402 -0.38549805 0 0 0 0
0.036651611 0.092712402 -0.38549805 0 0 0 0
0.039154053 0.092956543 -0.38647461 0 0 0 0
0.041564941 0.092956543 -0.38647461 0 0 0 0
0.04385376 0.092712402 -0.38549805 0 0 0 0
0.046478271 0.093200684 -0.38745117 0 0 0 0
0.04888916 0.093200684 -0.38745117 0 0 0 0
0.051177979 0.092956543 -0.38647461 0 0 0 0
0.053436279 0.092712402 -0.38549805 0 0 0 0
0.05581665 0.092712402 -0.38549805 0 0 0 0
0.058227539 0.092712402 -0.38549805 0 0 0 0
0.060760498 0.092956543 -0.38647461 0 0 0 0
0.063354492 0.093200684 -0.38745117 0 0 0 0
0.065917969 0.093444824 -0.38842773 0 0 0 0
0.06829834 0.093444824 -0.38842773 0 0 0 0
0.070922852 0.093688965 -0.3894043 0 0 0 0
0.073547363 0.093933105 -0.39038086 0 0 0 0
0.075927734 0.093933105 -0.39038086 0 0 0 0
0.078552246 0.094177246 -0.39135742 0 0 0 0
0.081237793 0.094421387 -0.39233398 0 0 0 0
0.084106445 0.094909668 -0.39453125 0 0 0 0
0.088317871 0.096862793 -0.40234375 0 0 0 0
0.10369873 0.086730957 -0.36035156 0 0 0 0
0.105896 0.086730957 -0.36035156 0 0 0 0
0.10784912 0.086486816 -0.359375 0 0 0 0
0.11010742 0.086486816 -0.359375 0 0 0 0
0.11230469 0.086486816 -0.359375 0 0 0 0
0.11425781 0.086242676 -0.35839844 0 0 0 0
0.11645508 0.086242676 -0.35839844 0 0 0 0
0.11871338 0.086242676 -0.35839844 0 0 0 0
0.12060547 0.085998535 -0.35717773 0 0 0 0
0.12280273 0.085998535 -0.35717773 0 0 0 0
0.12145996 0.080688477 -0.33520508 0 0 0 0
0.12353516 0.080688477 -0.33520508 0 0 0 0
0.12561035 0.080688477 -0.33520508 0 0 0 0
0.12731934 0.080444336 -0.33422852 0 0 0 0
0.12939453 0.080444336 -0.33422852 0 0 0 0
0.13146973 0.080444336 -0.33422852 0 0 0 0
0.13391113 0.080688477 -0.33520508 0 0 0 0
0.13598633 0.080688477 -0.33520508 0 0 0 0
0.13806152 0.080688477 -0.33520508 0 0 0 0
0.14013672 0.080688477 -0.33520508 0 0 0 0
0.14221191 0.080688477 -0.33520508 0 0 0 0
0.14440918 0.080688477 -0.33520508 0 0 0 0
0.14599609 0.080444336 -0.33422852 0 0 0 0
0.14807129 0.080444336 -0.33422852 0 0 0 0
0.1496582 0.080200195 -0.33325195 0 0 0 0
0.1517334 0.080200195 -0.33325195 0 0 0 0
0.15332031 0.079956055 -0.33227539 0 0 0 0
0.15539551 0.079956055 -0.33227539 0 0 0 0
0.1574707 0.079956055 -0.33227539 0 0 0 0
0.16003418 0.080200195 -0.33325195 0 0 0 0
0.16210938 0.080200195 -0.33325195 0 0 0 0
0.16467285 0.080444336 -0.33422852 0 0 0 0
0.16723633 0.080688477 -0.33520508 0 0 0 0
0.1697998 0.080932617 -0.33618164 0 0 0 0
0.17297363 0.081359863 -0.33813477 0 0 0 0
0.17553711 0.081604004 -0.33911133 0 0 0 0
0.17773438 0.081604004 -0.33911133 0 0 0 0
0.18029785 0.081848145 -0.34008789 0 0 0 0
0.18249512 0.081848145 -0.34008789 0 0 0 0
0.18408203 0.081604004 -0.33911133 0 0 0 0
0.022521973 0.091308594 -0.3894043 0 0 0 0
0.024887085 0.091064453 -0.38842773 0 0 0 0
0.027297974 0.091064453 -0.38842773 0 0 0 0
0.029632568 0.090820312 -0.38745117 0 0 0 0
0.032043457 0.090820312 -0.38745117 0 0 0 0
0.034362793 0.090576172 -0.38647461 0 0 0 0
0.036743164 0.090576172 -0.38647461 0 0 0 0
0.039154053 0.090576172 -0.38647461 0 0 0 0
0.041442871 0.090332031 -0.38549805 0 0 0 0
0.04385376 0.090332031 -0.38549805 0 0 0 0
0.046234131 0.090332031 -0.38549805 0 0 0 0
0.04864502 0.090332031 -0.38549805 0 0 0 0
0.05090332 0.090087891 -0.38427734 0 0 0 0
0.053161621 0.089904785 -0.38330078 0 0 0 0
0.055541992 0.089904785 -0.38330078 0 0 0 0
0.057922363 0.089904785 -0.38330078 0 0 0 0
0.060455322 0.090087891 -0.38427734 0 0 0 0
0.062805176 0.090087891 -0.38427734 0 0 0 0
0.065368652 0.090332031 -0.38549805 0 0 0 0
0.067993164 0.090576172 -0.38647461 0 0 0 0
0.070556641 0.090820312 -0.38745117 0 0 0 0
0.073120117 0.091064453 -0.38842773 0 0 0 0
0.075561523 0.091064453 -0.38842773 0 0 0 0
0.078186035 0.091308594 -0.3894043 0 0 0 0
0.080810547 0.091552734 -0.39038086 0 0 0 0
0.083435059 0.09173584 -0.39135742 0 0 0 0
0.088317871 0.094360352 -0.40234375 0 0 0 0
0.10339355 0.084228516 -0.359375 0 0 0 0
0.10565186 0.084228516 -0.359375 0 0 0 0
0.10784912 0.084228516 -0.359375 0 0 0 0
0.11010742 0.084228516 -0.359375 0 0 0 0
0.11199951 0.083984375 -0.35839844 0 0 0 0
0.11425781 0.083984375 -0.35839844 0 0 0 0
0.11645508 0.083984375 -0.35839844 0 0 0 0
0.11834717 0.083740234 -0.35717773 0 0 0 0
0.12060547 0.083740234 -0.35717773 0 0 0 0
0.12280273 0.083740234 -0.35717773 0 0 0 0
0.11975098 0.078796387 -0.33618164 0 0 0 0
0.12182617 0.078796387 -0.33618164 0 0 0 0
0.12353516 0.078552246 -0.33520508 0 0 0 0
0.12561035 0.078552246 -0.33520508 0 0 0 0
0.12768555 0.078552246 -0.33520508 0 0 0 0
0.12976074 0.078552246 -0.33520508 0 0 0 0
0.13183594 0.078552246 -0.33520508 0 0 0 0
0.13391113 0.078552246 -0.33520508 0 0 0 0
0.13598633 0.078552246 -0.33520508 0 0 0 0
0.13806152 0.078552246 -0.33520508 0 0 0 0
0.14013672 0.078552246 -0.33520508 0 0 0 0
0.14221191 0.078552246 -0.33520508 0 0 0 0
0.1439209 0.078369141 -0.33422852 0 0 0 0
0.14599609 0.078369141 -0.33422852 0 0 0 0
0.14758301 0.078125 -0.33325195 0 0 0 0
0.1496582 0.078125 -0.33325195 0 0 0 0
0.15136719 0.077880859 -0.33227539 0 0 0 0
0.15332031 0.077880859 -0.33227539 0 0 0 0
0.15539551 0.077880859 -0.33227539 0 0 0 0
0.1574707 0.077880859 -0.33227539 0 0 0 0
0.1595459 0.077880859 -0.33227539 0 0 0 0
0.16210938 0.078125 -0.33325195 0 0 0 0
0.16467285 0.078369141 -0.33422852 0 0 0 0
0.16723633 0.078552246 -0.33520508 0 0 0 0
0.1697998 0.078796387 -0.33618164 0 0 0 0
0.17297363 0.079284668 -0.33813477 0 0 0 0
0.17553711 0.079528809 -0.33911133 0 0 0 0
0.17822266 0.079772949 -0.34008789 0 0 0 0
0.18029785 0.079772949 -0.34008789 0 0 0 0
0.18249512 0.079772949 -0.34008789 0 0 0 0
0.18457031 0.079772949 -0.34008789 0 0 0 0
0.022521973 0.088867188 -0.3894043 0 0 0 0
0.025009155 0.089111328 -0.39038086 0 0 0 0
0.027435303 0.089111328 -0.39038086 0 0 0 0
0.029785156 0.088867188 -0.3894043 0 0 0 0
0.03213501 0.088623047 -0.38842773 0 0 0 0
0.034454346 0.088439941 -0.38745117 0 0 0 0
0.036743164 0.088195801 -0.38647461 0 0 0 0
0.039154053 0.088195801 -0.38647461 0 0 0 0
0.041442871 0.08795166 -0.38549805 0 0 0 0
0.043731689 0.08770752 -0.38427734 0 0 0 0
0.046112061 0.08770752 -0.38427734 0 0 0 0
0.048370361 0.087463379 -0.38330078 0 0 0 0
0.050628662 0.087280273 -0.38232422 0 0 0 0
0.052886963 0.087036133 -0.38134766 0 0 0 0
0.055236816 0.087036133 -0.38134766 0 0 0 0
0.057617188 0.087036133 -0.38134766 0 0 0 0
0.060150146 0.087280273 -0.38232422 0 0 0 0
0.0625 0.087280273 -0.38232422 0 0 0 0
0.065063477 0.087463379 -0.38330078 0 0 0 0
0.067626953 0.08770752 -0.38427734 0 0 0 0
0.07019043 0.08795166 -0.38549805 0 0 0 0
0.072570801 0.08795166 -0.38549805 0 0 0 0
0.075195312 0.088195801 -0.38647461 0 0 0 0
0.077575684 0.088195801 -0.38647461 0 0 0 0
0.080200195 0.088439941 -0.38745117 0 0 0 0
0.082580566 0.088439941 -0.38745117 0 0 0 0
0.10339355 0.081970215 -0.359375 0 0 0 0
0.10565186 0.081970215 -0.359375 0 0 0 0
0.10784912 0.081970215 -0.359375 0 0 0 0
0.11010742 0.081970215 -0.359375 0 0 0 0
0.11199951 0.081787109 -0.35839844 0 0 0 0
0.11425781 0.081787109 -0.35839844 0 0 0 0
0.11645508 0.081787109 -0.35839844 0 0 0 0
0.11834717 0.081542969 -0.35717773 0 0 0 0
0.12060547 0.081542969 -0.35717773 0 0 0 0
0.12280273 0.081542969 -0.35717773 0 0 0 0
0.12469482 0.081298828 -0.35620117 0 0 0 0
0.12182617 0.076721191 -0.33618164 0 0 0 0
0.12390137 0.076721191 -0.33618164 0 0 0 0
0.12597656 0.076721191 -0.33618164 0 0 0 0
0.12768555 0.076477051 -0.33520508 0 0 0 0
0.12976074 0.076477051 -0.33520508 0 0 0 0
0.13183594 0.076477051 -0.33520508 0 0 0 0
0.13391113 0.076477051 -0.33520508 0 0 0 0
0.13598633 0.076477051 -0.33520508 0 0 0 0
0.13806152 0.076477051 -0.33520508 0 0 0 0
0.14013672 0.076477051 -0.33520508 0 0 0 0
0.14221191 0.076477051 -0.33520508 0 0 0 0
0.1439209 0.076293945 -0.33422852 0 0 0 0
0.14599609 0.076293945 -0.33422852 0 0 0 0
0.14758301 0.076049805 -0.33325195 0 0 0 0
0.1496582 0.076049805 -0.33325195 0 0 0 0
0.15136719 0.075805664 -0.33227539 0 0 0 0
0.15332031 0.075805664 -0.33227539 0 0 0 0
0.15539551 0.075805664 -0.33227539 0 0 0 0
0.1574707 0.075805664 -0.33227539 0 0 0 0
0.1595459 0.075805664 -0.33227539 0 0 0 0
0.16210938 0.076049805 -0.33325195 0 0 0 0
0.16467285 0.076293945 -0.33422852 0 0 0 0
0.16723633 0.076477051 -0.33520508 0 0 0 0
0.1697998 0.076721191 -0.33618164 0 0 0 0
0.17297363 0.077209473 -0.33813477 0 0 0 0
0.17553711 0.077392578 -0.33911133 0 0 0 0
0.17822266 0.077636719 -0.34008789 0 0 0 0
0.1809082 0.077880859 -0.34130859 0 0 0 0
0.1829834 0.077880859 -0.34130859 0 0 0 0
0.025268555 0.087585449 -0.39453125 0 0 0 0
0.027587891 0.087097168 -0.39233398 0 0 0 0
0.02986145 0.086669922 -0.39038086 0 0 0 0
0.032196045 0.086425781 -0.3894043 0 0 0 0
0.034545898 0.086242676 -0.38842773 0 0 0 0
0.036865234 0.085998535 -0.38745117 0 0 0 0
0.039154053 0.085754395 -0.38647461 0 0 0 0
0.041442871 0.085571289 -0.38549805 0 0 0 0
0.043609619 0.085083008 -0.38330078 0 0 0 0
0.04598999 0.085083008 -0.38330078 0 0 0 0
0.048248291 0.084899902 -0.38232422 0 0 0 0
0.050506592 0.084655762 -0.38134766 0 0 0 0
0.052734375 0.084411621 -0.38037109 0 0 0 0
0.055084229 0.084411621 -0.38037109 0 0 0 0
0.0574646 0.084411621 -0.38037109 0 0 0 0
0.059814453 0.084411621 -0.38037109 0 0 0 0
0.062347412 0.084655762 -0.38134766 0 0 0 0
0.064880371 0.084899902 -0.38232422 0 0 0 0
0.067260742 0.084899902 -0.38232422 0 0 0 0
0.069824219 0.085083008 -0.38330078 0 0 0 0
0.072387695 0.085327148 -0.38427734 0 0 0 0
0.074768066 0.085327148 -0.38427734 0 0 0 0
0.077148438 0.085327148 -0.38427734 0 0 0 0
0.079345703 0.085083008 -0.38330078 0 0 0 0
0.081542969 0.084899902 -0.38232422 0 0 0 0
0.083312988 0.081970215 -0.36938477 0 0 0 0
0.085388184 0.081787109 -0.3684082 0 0 0 0
0.10565186 0.079772949 -0.359375 0 0 0 0
0.10784912 0.079772949 -0.359375 0 0 0 0
0.11010742 0.079772949 -0.359375 0 0 0 0
0.11199951 0.079528809 -0.35839844 0 0 0 0
0.11425781 0.079528809 -0.35839844 0 0 0 0
0.11645508 0.079528809 -0.35839844 0 0 0 0
0.11834717 0.079345703 -0.35717773 0 0 0 0
0.12060547 0.079345703 -0.35717773 0 0 0 0
0.12280273 0.079345703 -0.35717773 0 0 0 0
0.12469482 0.079101562 -0.35620117 0 0 0 0
0.12683105 0.079101562 -0.35620117 0 0 0 0
0.12182617 0.074645996 -0.33618164 0 0 0 0
0.12390137 0.074645996 -0.33618164 0 0 0 0
0.12597656 0.074645996 -0.33618164 0 0 0 0
0.12805176 0.074645996 -0.33618164 0 0 0 0
0.13012695 0.074645996 -0.33618164 0 0 0 0
0.13183594 0.074401855 -0.33520508 0 0 0 0
0.13391113 0.074401855 -0.33520508 0 0 0 0
0.13598633 0.074401855 -0.33520508 0 0 0 0
0.13806152 0.074401855 -0.33520508 0 0 0 0
0.14013672 0.074401855 -0.33520508 0 0 0 0
0.14221191 0.074401855 -0.33520508 0 0 0 0
0.1439209 0.07421875 -0.33422852 0 0 0 0
0.14599609 0.07421875 -0.33422852 0 0 0 0
0.14758301 0.073974609 -0.33325195 0 0 0 0
0.1496582 0.073974609 -0.33325195 0 0 0 0
0.15136719 0.073730469 -0.33227539 0 0 0 0
0.15332031 0.073730469 -0.33227539 0 0 0 0
0.15539551 0.073730469 -0.33227539 0 0 0 0
0.1574707 0.073730469 -0.33227539 0 0 0 0
0.1595459 0.073730469 -0.33227539 0 0 0 0
0.16210938 0.073974609 -0.33325195 0 0 0 0
0.16467285 0.07421875 -0.33422852 0 0 0 0
0.16723633 0.074401855 -0.33520508 0 0 0 0
0.1697998 0.074645996 -0.33618164 0 0 0 0
0.17297363 0.075073242 -0.33813477 0 0 0 0
0.17553711 0.075317383 -0.33911133 0 0 0 0
0.17871094 0.075744629 -0.34130859 0 0 0 0
0.18139648 0.07598877 -0.34228516 0 0 0 0
0.18408203 0.076171875 -0.34326172 0 0 0 0
0.025726318 0.086608887 -0.40136719 0 0 0 0
0.02772522 0.085083008 -0.39453125 0 0 0 0
0.030014038 0.084655762 -0.39233398 0 0 0 0
0.032287598 0.084228516 -0.39038086 0 0 0 0
0.034637451 0.08404541 -0.3894043 0 0 0 0
0.036865234 0.083618164 -0.38745117 0 0 0 0
0.039154053 0.083374023 -0.38647461 0 0 0 0
0.041351318 0.082946777 -0.38427734 0 0 0 0
0.043609619 0.082702637 -0.38330078 0 0 0 0
0.04586792 0.082519531 -0.38232422 0 0 0 0
0.048126221 0.082275391 -0.38134766 0 0 0 0
0.050384521 0.082092285 -0.38037109 0 0 0 0
0.052581787 0.081848145 -0.37939453 0 0 0 0
0.054962158 0.081848145 -0.37939453 0 0 0 0
0.057312012 0.081848145 -0.37939453 0 0 0 0
0.059661865 0.081848145 -0.37939453 0 0 0 0
0.062194824 0.082092285 -0.38037109 0 0 0 0
0.064697266 0.082275391 -0.38134766 0 0 0 0
0.067077637 0.082275391 -0.38134766 0 0 0 0
0.069641113 0.082519531 -0.38232422 0 0 0 0
0.072021484 0.082519531 -0.38232422 0 0 0 0
0.074401855 0.082519531 -0.38232422 0 0 0 0
0.076782227 0.082519531 -0.38232422 0 0 0 0
0.078735352 0.082092285 -0.38037109 0 0 0 0
0.080688477 0.081665039 -0.37841797 0 0 0 0
0.081665039 0.080322266 -0.37231445 0 0 0 0
0.083557129 0.07989502 -0.37036133 0 0 0 0
0.085632324 0.079711914 -0.36938477 0 0 0 0
0.08770752 0.079467773 -0.3684082 0 0 0 0
0.08972168 0.079284668 -0.36743164 0 0 0 0
0.10144043 0.077758789 -0.36035156 0 0 0 0
0.10339355 0.077514648 -0.359375 0 0 0 0
0.10565186 0.077514648 -0.359375 0 0 0 0
0.10784912 0.077514648 -0.359375 0 0 0 0
0.11010742 0.077514648 -0.359375 0 0 0 0
0.11199951 0.077331543 -0.35839844 0 0 0 0
0.11425781 0.077331543 -0.35839844 0 0 0 0
0.11645508 0.077331543 -0.35839844 0 0 0 0
0.11834717 0.077087402 -0.35717773 0 0 0 0
0.12060547 0.077087402 -0.35717773 0 0 0 0
0.12280273 0.077087402 -0.35717773 0 0 0 0
0.125 0.077087402 -0.35717773 0 0 0 0
0.12683105 0.076904297 -0.35620117 0 0 0 0
0.12390137 0.072570801 -0.33618164 0 0 0 0
0.12597656 0.072570801 -0.33618164 0 0 0 0
0.12805176 0.072570801 -0.33618164 0 0 0 0
0.13012695 0.072570801 -0.33618164 0 0 0 0
0.13220215 0.072570801 -0.33618164 0 0 0 0
0.13427734 0.072570801 -0.33618164 0 0 0 0
0.13647461 0.072570801 -0.33618164 0 0 0 0
0.1385498 0.072570801 -0.33618164 0 0 0 0
0.14013672 0.07232666 -0.33520508 0 0 0 0
0.14221191 0.07232666 -0.33520508 0 0 0 0
0.14440918 0.07232666 -0.33520508 0 0 0 0
0.14599609 0.07208252 -0.33422852 0 0 0 0
0.14807129 0.07208252 -0.33422852 0 0 0 0
0.1496582 0.071899414 -0.33325195 0 0 0 0
0.15136719 0.071655273 -0.33227539 0 0 0 0
0.15332031 0.071655273 -0.33227539 0 0 0 0
0.15539551 0.071655273 -0.33227539 0 0 0 0
0.1574707 0.071655273 -0.33227539 0 0 0 0
0.1595459 0.071655273 -0.33227539 0 0 0 0
0.16210938 0.071899414 -0.33325195 0 0 0 0
0.16467285 0.07208252 -0.33422852 0 0 0 0
0.16723633 0.07232666 -0.33520508 0 0 0 0
0.1697998 0.072570801 -0.33618164 0 0 0 0
0.17297363 0.072998047 -0.33813477 0 0 0 0
0.17614746 0.073425293 -0.34008789 0 0 0 0
0.17871094 0.073608398 -0.34130859 0 0 0 0
0.18139648 0.073852539 -0.34228516 0 0 0 0
0.18408203 0.074035645 -0.34326172 0 0 0 0
0.025787354 0.084350586 -0.40234375 0 0 0 0
0.027938843 0.083312988 -0.39746094 0 0 0 0
0.030181885 0.082641602 -0.39453125 0 0 0 0
0.032440186 0.082214355 -0.39233398 0 0 0 0
0.034698486 0.081787109 -0.39038086 0 0 0 0
0.036956787 0.081420898 -0.38842773 0 0 0 0
0.039154053 0.080993652 -0.38647461 0 0 0 0
0.041351318 0.080566406 -0.38427734 0 0 0 0
0.043609619 0.080322266 -0.38330078 0 0 0 0
0.045776367 0.07989502 -0.38134766 0 0 0 0
0.04800415 0.079711914 -0.38037109 0 0 0 0
0.050231934 0.079528809 -0.37939453 0 0 0 0
0.052581787 0.079528809 -0.37939453 0 0 0 0
0.054962158 0.079528809 -0.37939453 0 0 0 0
0.057312012 0.079528809 -0.37939453 0 0 0 0
0.059661865 0.079528809 -0.37939453 0 0 0 0
0.062011719 0.079528809 -0.37939453 0 0 0 0
0.06451416 0.079711914 -0.38037109 0 0 0 0
0.066894531 0.079711914 -0.38037109 0 0 0 0
0.069458008 0.07989502 -0.38134766 0 0 0 0
0.071838379 0.07989502 -0.38134766 0 0 0 0
0.07421875 0.07989502 -0.38134766 0 0 0 0
0.07635498 0.079711914 -0.38037109 0 0 0 0
0.078491211 0.079528809 -0.37939453 0 0 0 0
0.08026123 0.078857422 -0.37646484 0 0 0 0
0.081665039 0.07800293 -0.37231445 0 0 0 0
0.083557129 0.077636719 -0.37036133 0 0 0 0
0.085632324 0.077392578 -0.36938477 0 0 0 0
0.08770752 0.077209473 -0.3684082 0 0 0 0
0.08972168 0.076965332 -0.36743164 0 0 0 0
0.09173584 0.076782227 -0.36621094 0 0 0 0
0.09375 0.076538086 -0.36523438 0 0 0 0
0.09576416 0.07635498 -0.36425781 0 0 0 0
0.099487305 0.075744629 -0.36132812 0 0 0 0
0.10144043 0.075500488 -0.36035156 0 0 0 0
0.10339355 0.075317383 -0.359375 0 0 0 0
0.10565186 0.075317383 -0.359375 0 0 0 0
0.10784912 0.075317383 -0.359375 0 0 0 0
0.11010742 0.075317383 -0.359375 0 0 0 0
0.11199951 0.075073242 -0.35839844 0 0 0 0
0.11425781 0.075073242 -0.35839844 0 0 0 0
0.11645508 0.075073242 -0.35839844 0 0 0 0
0.11871338 0.075073242 -0.35839844 0 0 0 0
0.12060547 0.074890137 -0.35717773 0 0 0 0
0.12280273 0.074890137 -0.35717773 0 0 0 0
0.125 0.074890137 -0.35717773 0 0 0 0
0.12719727 0.074890137 -0.35717773 0 0 0 0
0.12902832 0.074645996 -0.35620117 0 0 0 0
0.13122559 0.074645996 -0.35620117 0 0 0 0
0.12597656 0.07043457 -0.33618164 0 0 0 0
0.12805176 0.07043457 -0.33618164 0 0 0 0
0.13049316 0.070678711 -0.3371582 0 0 0 0
0.13220215 0.07043457 -0.33618164 0 0 0 0
0.13476562 0.070678711 -0.3371582 0 0 0 0
0.13647461 0.07043457 -0.33618164 0 0 0 0
0.1385498 0.07043457 -0.33618164 0 0 0 0
0.140625 0.07043457 -0.33618164 0 0 0 0
0.1427002 0.07043457 -0.33618164 0 0 0 0
0.14440918 0.070251465 -0.33520508 0 0 0 0
0.14648438 0.070251465 -0.33520508 0 0 0 0
0.14807129 0.070007324 -0.33422852 0 0 0 0
0.1496582 0.069824219 -0.33325195 0 0 0 0
0.1517334 0.069824219 -0.33325195 0 0 0 0
0.15332031 0.069641113 -0.33227539 0 0 0 0
0.15539551 0.069641113 -0.33227539 0 0 0 0
0.1574707 0.069641113 -0.33227539 0 0 0 0
0.1595459 0.069641113 -0.33227539 0 0 0 0
0.16210938 0.069824219 -0.33325195 0 0 0 0
0.16467285 0.070007324 -0.33422852 0 0 0 0
0.16723633 0.070251465 -0.33520508 0 0 0 0
0.17041016 0.070678711 -0.3371582 0 0 0 0
0.17297363 0.070861816 -0.33813477 0 0 0 0
0.17614746 0.071289062 -0.34008789 0 0 0 0
0.17932129 0.071716309 -0.34228516 0 0 0 0
0.18188477 0.071899414 -0.34326172 0 0 0 0
0.18457031 0.072143555 -0.34423828 0 0 0 0
0.028076172 0.081237793 -0.39941406 0 0 0 0
0.030334473 0.080627441 -0.39648438 0 0 0 0
0.032531738 0.08001709 -0.39331055 0 0 0 0
0.034698486 0.079406738 -0.39038086 0 0 0 0
0.036956787 0.078979492 -0.38842773 0 0 0 0
0.039154053 0.078552246 -0.38647461 0 0 0 0
0.041351318 0.078186035 -0.38427734 0 0 0 0
0.043518066 0.077758789 -0.38232422 0 0 0 0
0.045776367 0.077575684 -0.38134766 0 0 0 0
0.04800415 0.077331543 -0.38037109 0 0 0 0
0.050231934 0.077148438 -0.37939453 0 0 0 0
0.052581787 0.077148438 -0.37939453 0 0 0 0
0.05480957 0.076965332 -0.37841797 0 0 0 0
0.057159424 0.076965332 -0.37841797 0 0 0 0
0.059661865 0.077148438 -0.37939453 0 0 0 0
0.062011719 0.077148438 -0.37939453 0 0 0 0
0.06451416 0.077331543 -0.38037109 0 0 0 0
0.066894531 0.077331543 -0.38037109 0 0 0 0
0.069274902 0.077331543 -0.38037109 0 0 0 0
0.071655273 0.077331543 -0.38037109 0 0 0 0
0.073974609 0.077331543 -0.38037109 0 0 0 0
0.076171875 0.077148438 -0.37939453 0 0 0 0
0.078125 0.076721191 -0.37744141 0 0 0 0
0.08001709 0.07635498 -0.37524414 0 0 0 0
0.081665039 0.075744629 -0.37231445 0 0 0 0
0.083557129 0.075317383 -0.37036133 0 0 0 0
0.085632324 0.075073242 -0.36938477 0 0 0 0
0.08770752 0.074890137 -0.3684082 0 0 0 0
0.08972168 0.074707031 -0.36743164 0 0 0 0
0.09173584 0.074462891 -0.36621094 0 0 0 0
0.09375 0.074279785 -0.36523438 0 0 0 0
0.09576416 0.07409668 -0.36425781 0 0 0 0
0.097473145 0.073669434 -0.36230469 0 0 0 0
0.099487305 0.073486328 -0.36132812 0 0 0 0
0.10144043 0.073242188 -0.36035156 0 0 0 0
0.10339355 0.073059082 -0.359375 0 0 0 0
0.10565186 0.073059082 -0.359375 0 0 0 0
0.10784912 0.073059082 -0.359375 0 0 0 0
0.10980225 0.072875977 -0.35839844 0 0 0 0
0.11199951 0.072875977 -0.35839844 0 0 0 0
0.11425781 0.072875977 -0.35839844 0 0 0 0
0.11645508 0.072875977 -0.35839844 0 0 0 0
0.11871338 0.072875977 -0.35839844 0 0 0 0
0.12060547 0.072631836 -0.35717773 0 0 0 0
0.12280273 0.072631836 -0.35717773 0 0 0 0
0.125 0.072631836 -0.35717773 0 0 0 0
0.12719727 0.072631836 -0.35717773 0 0 0 0
0.12902832 0.07244873 -0.35620117 0 0 0 0
0.13122559 0.07244873 -0.35620117 0 0 0 0
0.13354492 0.07244873 -0.35620117 0 0 0 0
0.12841797 0.06854248 -0.3371582 0 0 0 0
0.13049316 0.06854248 -0.3371582 0 0 0 0
0.13269043 0.06854248 -0.3371582 0 0 0 0
0.13513184 0.068786621 -0.33813477 0 0 0 0
0.13684082 0.06854248 -0.3371582 0 0 0 0
0.13891602 0.06854248 -0.3371582 0 0 0 0
0.14099121 0.06854248 -0.3371582 0 0 0 0
0.1427002 0.068359375 -0.33618164 0 0 0 0
0.14477539 0.068359375 -0.33618164 0 0 0 0
0.14648438 0.06817627 -0.33520508 0 0 0 0
0.14807129 0.067932129 -0.33422852 0 0 0 0
0.15014648 0.067932129 -0.33422852 0 0 0 0
0.1517334 0.067749023 -0.33325195 0 0 0 0
0.15380859 0.067749023 -0.33325195 0 0 0 0
0.15588379 0.067749023 -0.33325195 0 0 0 0
0.15795898 0.067749023 -0.33325195 0 0 0 0
0.16003418 0.067749023 -0.33325195 0 0 0 0
0.16210938 0.067749023 -0.33325195 0 0 0 0
0.16467285 0.067932129 -0.33422852 0 0 0 0
0.16723633 0.06817627 -0.33520508 0 0 0 0
0.17041016 0.06854248 -0.3371582 0 0 0 0
0.17297363 0.068786621 -0.33813477 0 0 0 0
0.17614746 0.069152832 -0.34008789 0 0 0 0
0.17932129 0.069580078 -0.34228516 0 0 0 0
0.18188477 0.069824219 -0.34326172 0 0 0 0
0.18457031 0.070007324 -0.34423828 0 0 0 0
0.028213501 0.079162598 -0.40136719 0 0 0 0
0.030410767 0.078369141 -0.39746094 0 0 0 0
0.032623291 0.077758789 -0.39453125 0 0 0 0
0.034790039 0.077148438 -0.39135742 0 0 0 0
0.03704834 0.076782227 -0.3894043 0 0 0 0
0.039154053 0.076171875 -0.38647461 0 0 0 0
0.041351318 0.075805664 -0.38427734 0 0 0 0
0.043609619 0.075561523 -0.38330078 0 0 0 0
0.045776367 0.075195312 -0.38134766 0 0 0 0
0.04800415 0.075012207 -0.38037109 0 0 0 0
0.050231934 0.074768066 -0.37939453 0 0 0 0
0.052581787 0.074768066 -0.37939453 0 0 0 0
0.05480957 0.074584961 -0.37841797 0 0 0 0
0.057159424 0.074584961 -0.37841797 0 0 0 0
0.059661865 0.074768066 -0.37939453 0 0 0 0
0.062011719 0.074768066 -0.37939453 0 0 0 0
0.06439209 0.074768066 -0.37939453 0 0 0 0
0.066894531 0.075012207 -0.38037109 0 0 0 0
0.069274902 0.075012207 -0.38037109 0 0 0 0
0.071655273 0.075012207 -0.38037109 0 0 0 0
0.073974609 0.075012207 -0.38037109 0 0 0 0
0.076171875 0.074768066 -0.37939453 0 0 0 0
0.078125 0.074401855 -0.37744141 0 0 0 0
0.08001709 0.073974609 -0.37524414 0 0 0 0
0.08190918 0.073608398 -0.37329102 0 0 0 0
0.08380127 0.073181152 -0.37133789 0 0 0 0
0.085876465 0.072998047 -0.37036133 0 0 0 0
0.087890625 0.072814941 -0.36938477 0 0 0 0
0.08972168 0.072387695 -0.36743164 0 0 0 0
0.09173584 0.07220459 -0.36621094 0 0 0 0
0.09375 0.072021484 -0.36523438 0 0 0 0
0.09576416 0.071838379 -0.36425781 0 0 0 0
0.097473145 0.071411133 -0.36230469 0 0 0 0
0.099487305 0.071228027 -0.36132812 0 0 0 0
0.10144043 0.071044922 -0.36035156 0 0 0 0
0.10339355 0.070800781 -0.359375 0 0 0 0
0.10565186 0.070800781 -0.359375 0 0 0 0
