ply
format ascii 1.0
comment PCL generated
element vertex 1068
property float x
property float y
property float z
property float nx
property float ny
property float nz
property float curvature
element face 0
element camera 0
property float view_px
property float view_py
property float view_pz
property float x_axisx
property float x_axisy
property float x_axisz
property float y_axisx
property float y_axisy
property float y_axisz
property float z_axisx
property float z_axisy
property float z_axisz
property float focal
property float scalex
property float scaley
property float centerx
property float centery
property int viewportx
property int viewporty
property float k1
property float k2
end_header
0.098632812 0.035003662 -0.35839844 0 0 0 0
0.10089111 0.035003662 -0.35839844 0 0 0 0
0.10308838 0.035003662 -0.35839844 0 0 0 0
0.10534668 0.035003662 -0.35839844 0 0 0 0
0.099487305 0.02432251 -0.24890137 0 0 0 0
0.10101318 0.02432251 -0.24890137 0 0 0 0
0.10174561 0.024124146 -0.24694824 0 0 0 0
0.10327148 0.024124146 -0.24694824 0 0 0 0
0.10437012 0.024032593 -0.24584961 0 0 0 0
0.10546875 0.02394104 -0.24487305 0 0 0 0
0.10699463 0.02394104 -0.24487305 0 0 0 0
0.10809326 0.023834229 -0.24389648 0 0 0 0
0.10955811 0.023834229 -0.24389648 0 0 0 0
0.11065674 0.023742676 -0.24291992 0 0 0 0
0.11169434 0.023635864 -0.24194336 0 0 0 0
0.11322021 0.023635864 -0.24194336 0 0 0 0
0.11419678 0.023544312 -0.24084473 0 0 0 0
0.11572266 0.023544312 -0.24084473 0 0 0 0
0.11669922 0.0234375 -0.23986816 0 0 0 0
0.1182251 0.0234375 -0.23986816 0 0 0 0
0.11968994 0.0234375 -0.23986816 0 0 0 0
0.1206665 0.023345947 -0.2388916 0 0 0 0
0.12219238 0.023345947 -0.2388916 0 0 0 0
0.12365723 0.023345947 -0.2388916 0 0 0 0
0.12561035 0.0234375 -0.23986816 0 0 0 0
-0.025268555 0.027191162 -0.29711914 0 0 0 0
-0.023345947 0.027099609 -0.29614258 0 0 0 0
-0.021362305 0.026916504 -0.29394531 0 0 0 0
-0.019454956 0.026824951 -0.29296875 0 0 0 0
-0.01751709 0.026641846 -0.29101562 0 0 0 0
-0.015655518 0.026550293 -0.29003906 0 0 0 0
-0.013763428 0.026367188 -0.28808594 0 0 0 0
-0.011932373 0.026275635 -0.28710938 0 0 0 0
-0.010108948 0.026184082 -0.28588867 0 0 0 0
-0.0083007812 0.026092529 -0.28491211 0 0 0 0
-0.0065078735 0.026000977 -0.28393555 0 0 0 0
-0.0047454834 0.026000977 -0.28393555 0 0 0 0
-0.0029697418 0.025909424 -0.28295898 0 0 0 0
-0.0012111664 0.025909424 -0.28295898 0 0 0 0
0.00054931641 0.026000977 -0.28393555 0 0 0 0
0.0023231506 0.026092529 -0.28491211 0 0 0 0
0.004108429 0.026184082 -0.28588867 0 0 0 0
0.0059051514 0.026275635 -0.28710938 0 0 0 0
0.0077171326 0.026367188 -0.28808594 0 0 0 0
0.0095367432 0.02645874 -0.2890625 0 0 0 0
0.011375427 0.026550293 -0.29003906 0 0 0 0
0.013221741 0.026641846 -0.29101562 0 0 0 0
0.015029907 0.026641846 -0.29101562 0 0 0 0
0.016891479 0.026733398 -0.29199219 0 0 0 0
0.018707275 0.026733398 -0.29199219 0 0 0 0
0.096435547 0.032775879 -0.35839844 0 0 0 0
0.098632812 0.032775879 -0.35839844 0 0 0 0
0.10089111 0.032775879 -0.35839844 0 0 0 0
0.10308838 0.032775879 -0.35839844 0 0 0 0
0.10534668 0.032775879 -0.35839844 0 0 0 0
0.097167969 0.022964478 -0.25097656 0 0 0 0
0.098327637 0.022872925 -0.24987793 0 0 0 0
0.099487305 0.022781372 -0.24890137 0 0 0 0
0.10058594 0.022689819 -0.2479248 0 0 0 0
0.10211182 0.022689819 -0.2479248 0 0 0 0
0.10327148 0.022598267 -0.24694824 0 0 0 0
0.10437012 0.022506714 -0.24584961 0 0 0 0
0.10546875 0.022415161 -0.24487305 0 0 0 0
0.10699463 0.022415161 -0.24487305 0 0 0 0
0.10809326 0.022323608 -0.24389648 0 0 0 0
0.10913086 0.022232056 -0.24291992 0 0 0 0
0.11065674 0.022232056 -0.24291992 0 0 0 0
0.11169434 0.022140503 -0.24194336 0 0 0 0
0.11322021 0.022140503 -0.24194336 0 0 0 0
0.11419678 0.02204895 -0.24084473 0 0 0 0
0.11523438 0.021957397 -0.23986816 0 0 0 0
0.11669922 0.021957397 -0.23986816 0 0 0 0
0.1182251 0.021957397 -0.23986816 0 0 0 0
0.11920166 0.021865845 -0.2388916 0 0 0 0
0.1206665 0.021865845 -0.2388916 0 0 0 0
0.12219238 0.021865845 -0.2388916 0 0 0 0
0.12365723 0.021865845 -0.2388916 0 0 0 0
0.12512207 0.021865845 -0.2388916 0 0 0 0
0.12658691 0.021865845 -0.2388916 0 0 0 0
-0.025177002 0.025253296 -0.29614258 0 0 0 0
-0.023269653 0.025177002 -0.29492188 0 0 0 0
-0.021362305 0.025085449 -0.29394531 0 0 0 0
-0.019454956 0.024993896 -0.29296875 0 0 0 0
-0.017578125 0.024917603 -0.29199219 0 0 0 0
-0.015655518 0.024749756 -0.29003906 0 0 0 0
-0.013809204 0.024658203 -0.2890625 0 0 0 0
-0.011932373 0.024490356 -0.28710938 0 0 0 0
-0.010108948 0.024398804 -0.28588867 0 0 0 0
-0.0083007812 0.02432251 -0.28491211 0 0 0 0
-0.0065078735 0.024230957 -0.28393555 0 0 0 0
-0.0047454834 0.024230957 -0.28393555 0 0 0 0
-0.0029792786 0.024230957 -0.28393555 0 0 0 0
-0.0012149811 0.024230957 -0.28393555 0 0 0 0
0.00054931641 0.024230957 -0.28393555 0 0 0 0
0.0023231506 0.02432251 -0.28491211 0 0 0 0
0.004108429 0.024398804 -0.28588867 0 0 0 0
0.0059051514 0.024490356 -0.28710938 0 0 0 0
0.0077171326 0.02456665 -0.28808594 0 0 0 0
0.0095748901 0.024749756 -0.29003906 0 0 0 0
0.011375427 0.024749756 -0.29003906 0 0 0 0
0.013221741 0.02482605 -0.29101562 0 0 0 0
0.015083313 0.024917603 -0.29199219 0 0 0 0
0.016891479 0.024917603 -0.29199219 0 0 0 0
0.018707275 0.024917603 -0.29199219 0 0 0 0
0.096435547 0.030563354 -0.35839844 0 0 0 0
0.098632812 0.030563354 -0.35839844 0 0 0 0
0.10089111 0.030563354 -0.35839844 0 0 0 0
0.10308838 0.030563354 -0.35839844 0 0 0 0
0.10534668 0.030563354 -0.35839844 0 0 0 0
0.095947266 0.021484375 -0.25195312 0 0 0 0
0.097167969 0.021408081 -0.25097656 0 0 0 0
0.098327637 0.021316528 -0.24987793 0 0 0 0
0.099487305 0.021224976 -0.24890137 0 0 0 0
0.10058594 0.021148682 -0.2479248 0 0 0 0
0.10174561 0.021057129 -0.24694824 0 0 0 0
0.10327148 0.021057129 -0.24694824 0 0 0 0
0.10437012 0.020980835 -0.24584961 0 0 0 0
0.10546875 0.020889282 -0.24487305 0 0 0 0
0.10656738 0.020797729 -0.24389648 0 0 0 0
0.10809326 0.020797729 -0.24389648 0 0 0 0
0.10913086 0.020721436 -0.24291992 0 0 0 0
0.11016846 0.020629883 -0.24194336 0 0 0 0
0.11169434 0.020629883 -0.24194336 0 0 0 0
0.11273193 0.020553589 -0.24084473 0 0 0 0
0.11419678 0.020553589 -0.24084473 0 0 0 0
0.11523438 0.020462036 -0.23986816 0 0 0 0
0.11669922 0.020462036 -0.23986816 0 0 0 0
0.11773682 0.020370483 -0.2388916 0 0 0 0
0.11920166 0.020370483 -0.2388916 0 0 0 0
0.1206665 0.020370483 -0.2388916 0 0 0 0
0.12219238 0.020370483 -0.2388916 0 0 0 0
0.12365723 0.020370483 -0.2388916 0 0 0 0
0.12512207 0.020370483 -0.2388916 0 0 0 0
0.12658691 0.020370483 -0.2388916 0 0 0 0
-0.023269653 0.023330688 -0.29492188 0 0 0 0
-0.021362305 0.023254395 -0.29394531 0 0 0 0
-0.019454956 0.023178101 -0.29296875 0 0 0 0
-0.017578125 0.023101807 -0.29199219 0 0 0 0
-0.015655518 0.02293396 -0.29003906 0 0 0 0
-0.013809204 0.022857666 -0.2890625 0 0 0 0
-0.01197052 0.022781372 -0.28808594 0 0 0 0
-0.010147095 0.022705078 -0.28710938 0 0 0 0
-0.0083312988 0.022628784 -0.28588867 0 0 0 0
-0.0065345764 0.022537231 -0.28491211 0 0 0 0
-0.0047607422 0.022537231 -0.28491211 0 0 0 0
-0.0029792786 0.022460938 -0.28393555 0 0 0 0
-0.0012197495 0.022537231 -0.28491211 0 0 0 0
0.00055170059 0.022537231 -0.28491211 0 0 0 0
0.00233078 0.022628784 -0.28588867 0 0 0 0
0.0041236877 0.022705078 -0.28710938 0 0 0 0
0.0059280396 0.022781372 -0.28808594 0 0 0 0
0.0077438354 0.022857666 -0.2890625 0 0 0 0
0.0095748901 0.02293396 -0.29003906 0 0 0 0
0.011413574 0.023025513 -0.29101562 0 0 0 0
0.013221741 0.023025513 -0.29101562 0 0 0 0
0.015083313 0.023101807 -0.29199219 0 0 0 0
0.016891479 0.023101807 -0.29199219 0 0 0 0
0.096435547 0.028335571 -0.35839844 0 0 0 0
0.098632812 0.028335571 -0.35839844 0 0 0 0
0.10058594 0.028259277 -0.35717773 0 0 0 0
0.10284424 0.028259277 -0.35717773 0 0 0 0
0.10534668 0.028335571 -0.35839844 0 0 0 0
0.092346191 0.02015686 -0.25488281 0 0 0 0
0.093566895 0.020080566 -0.25390625 0 0 0 0
0.094787598 0.020004272 -0.25292969 0 0 0 0
0.095947266 0.019927979 -0.25195312 0 0 0 0
0.097167969 0.019851685 -0.25097656 0 0 0 0
0.098327637 0.019760132 -0.24987793 0 0 0 0
0.099487305 0.019683838 -0.24890137 0 0 0 0
0.10058594 0.019607544 -0.2479248 0 0 0 0
0.10174561 0.01953125 -0.24694824 0 0 0 0
0.10327148 0.01953125 -0.24694824 0 0 0 0
0.10437012 0.019439697 -0.24584961 0 0 0 0
0.10546875 0.019363403 -0.24487305 0 0 0 0
0.10656738 0.019287109 -0.24389648 0 0 0 0
0.10809326 0.019287109 -0.24389648 0 0 0 0
0.10913086 0.019210815 -0.24291992 0 0 0 0
0.11016846 0.019134521 -0.24194336 0 0 0 0
0.11120605 0.019042969 -0.24084473 0 0 0 0
0.11273193 0.019042969 -0.24084473 0 0 0 0
0.11376953 0.018966675 -0.23986816 0 0 0 0
0.11523438 0.018966675 -0.23986816 0 0 0 0
0.11621094 0.018890381 -0.2388916 0 0 0 0
0.11773682 0.018890381 -0.2388916 0 0 0 0
0.11920166 0.018890381 -0.2388916 0 0 0 0
0.1206665 0.018890381 -0.2388916 0 0 0 0
0.12219238 0.018890381 -0.2388916 0 0 0 0
0.12365723 0.018890381 -0.2388916 0 0 0 0
0.12512207 0.018890381 -0.2388916 0 0 0 0
0.12658691 0.018890381 -0.2388916 0 0 0 0
0.12805176 0.018890381 -0.2388916 0 0 0 0
-0.023269653 0.021499634 -0.29492188 0 0 0 0
-0.021362305 0.021438599 -0.29394531 0 0 0 0
-0.019454956 0.021362305 -0.29296875 0 0 0 0
-0.017578125 0.021286011 -0.29199219 0 0 0 0
-0.015716553 0.021209717 -0.29101562 0 0 0 0
-0.01385498 0.021133423 -0.29003906 0 0 0 0
-0.01197052 0.020996094 -0.28808594 0 0 0 0
-0.010147095 0.0209198 -0.28710938 0 0 0 0
-0.0083312988 0.020843506 -0.28588867 0 0 0 0
-0.0065574646 0.020843506 -0.28588867 0 0 0 0
-0.0047607422 0.020767212 -0.28491211 0 0 0 0
-0.0029907227 0.020767212 -0.28491211 0 0 0 0
-0.0012197495 0.020767212 -0.28491211 0 0 0 0
0.00055360794 0.020843506 -0.28588867 0 0 0 0
0.00233078 0.020843506 -0.28588867 0 0 0 0
0.0041236877 0.0209198 -0.28710938 0 0 0 0
0.0059280396 0.020996094 -0.28808594 0 0 0 0
0.0077438354 0.021072388 -0.2890625 0 0 0 0
0.0095748901 0.021133423 -0.29003906 0 0 0 0
0.011413574 0.021209717 -0.29101562 0 0 0 0
0.013267517 0.021286011 -0.29199219 0 0 0 0
0.015083313 0.021286011 -0.29199219 0 0 0 0
0.016891479 0.021286011 -0.29199219 0 0 0 0
0.093933105 0.026046753 -0.35717773 0 0 0 0
0.096130371 0.026046753 -0.35717773 0 0 0 0
0.098388672 0.026046753 -0.35717773 0 0 0 0
0.10058594 0.026046753 -0.35717773 0 0 0 0
0.10284424 0.026046753 -0.35717773 0 0 0 0
0.092346191 0.018569946 -0.25488281 0 0 0 0
0.093566895 0.018508911 -0.25390625 0 0 0 0
0.094787598 0.018432617 -0.25292969 0 0 0 0
0.095947266 0.018356323 -0.25195312 0 0 0 0
0.097167969 0.018280029 -0.25097656 0 0 0 0
0.098327637 0.018218994 -0.24987793 0 0 0 0
0.099487305 0.0181427 -0.24890137 0 0 0 0
0.10058594 0.018066406 -0.2479248 0 0 0 0
0.10174561 0.017990112 -0.24694824 0 0 0 0
0.10284424 0.017913818 -0.24584961 0 0 0 0
0.10437012 0.017913818 -0.24584961 0 0 0 0
0.10546875 0.017852783 -0.24487305 0 0 0 0
0.10656738 0.017776489 -0.24389648 0 0 0 0
0.10760498 0.017700195 -0.24291992 0 0 0 0
0.10913086 0.017700195 -0.24291992 0 0 0 0
0.11016846 0.017623901 -0.24194336 0 0 0 0
0.11120605 0.017547607 -0.24084473 0 0 0 0
0.11273193 0.017547607 -0.24084473 0 0 0 0
0.11376953 0.017486572 -0.23986816 0 0 0 0
0.11523438 0.017486572 -0.23986816 0 0 0 0
0.11621094 0.017410278 -0.2388916 0 0 0 0
0.11773682 0.017410278 -0.2388916 0 0 0 0
0.11920166 0.017410278 -0.2388916 0 0 0 0
0.1206665 0.017410278 -0.2388916 0 0 0 0
0.12219238 0.017410278 -0.2388916 0 0 0 0
0.12365723 0.017410278 -0.2388916 0 0 0 0
0.12512207 0.017410278 -0.2388916 0 0 0 0
0.12658691 0.017410278 -0.2388916 0 0 0 0
0.12805176 0.017410278 -0.2388916 0 0 0 0
-0.021362305 0.019607544 -0.29394531 0 0 0 0
-0.019454956 0.01953125 -0.29296875 0 0 0 0
-0.017578125 0.019470215 -0.29199219 0 0 0 0
-0.015716553 0.01940918 -0.29101562 0 0 0 0
-0.01385498 0.019332886 -0.29003906 0 0 0 0
-0.012016296 0.019271851 -0.2890625 0 0 0 0
-0.010177612 0.019195557 -0.28808594 0 0 0 0
-0.0083618164 0.019134521 -0.28710938 0 0 0 0
-0.0065574646 0.019073486 -0.28588867 0 0 0 0
-0.0047798157 0.019073486 -0.28588867 0 0 0 0
-0.0030002594 0.019073486 -0.28588867 0 0 0 0
-0.0012235641 0.019073486 -0.28588867 0 0 0 0
0.00055360794 0.019073486 -0.28588867 0 0 0 0
0.0023384094 0.019134521 -0.28710938 0 0 0 0
0.0041351318 0.019195557 -0.28808594 0 0 0 0
0.005947113 0.019271851 -0.2890625 0 0 0 0
0.0077705383 0.019332886 -0.29003906 0 0 0 0
0.0095748901 0.019332886 -0.29003906 0 0 0 0
0.011413574 0.01940918 -0.29101562 0 0 0 0
0.013267517 0.019470215 -0.29199219 0 0 0 0
0.015083313 0.019470215 -0.29199219 0 0 0 0
0.093933105 0.02381897 -0.35717773 0 0 0 0
0.096130371 0.02381897 -0.35717773 0 0 0 0
0.098388672 0.02381897 -0.35717773 0 0 0 0
0.10058594 0.02381897 -0.35717773 0 0 0 0
0.10284424 0.02381897 -0.35717773 0 0 0 0
0.091125488 0.017059326 -0.25585938 0 0 0 0
0.092346191 0.016998291 -0.25488281 0 0 0 0
0.093566895 0.016921997 -0.25390625 0 0 0 0
0.094787598 0.016860962 -0.25292969 0 0 0 0
0.095947266 0.016784668 -0.25195312 0 0 0 0
0.097167969 0.016723633 -0.25097656 0 0 0 0
0.098327637 0.016662598 -0.24987793 0 0 0 0
0.099487305 0.016586304 -0.24890137 0 0 0 0
0.10058594 0.016525269 -0.2479248 0 0 0 0
0.10174561 0.016464233 -0.24694824 0 0 0 0
0.10284424 0.016387939 -0.24584961 0 0 0 0
0.10437012 0.016387939 -0.24584961 0 0 0 0
0.10546875 0.016326904 -0.24487305 0 0 0 0
0.10656738 0.01625061 -0.24389648 0 0 0 0
0.10760498 0.016189575 -0.24291992 0 0 0 0
0.10870361 0.01612854 -0.24194336 0 0 0 0
0.11016846 0.01612854 -0.24194336 0 0 0 0
0.11120605 0.016052246 -0.24084473 0 0 0 0
0.11273193 0.016052246 -0.24084473 0 0 0 0
0.11376953 0.015991211 -0.23986816 0 0 0 0
0.11523438 0.015991211 -0.23986816 0 0 0 0
0.11621094 0.015914917 -0.2388916 0 0 0 0
0.11773682 0.015914917 -0.2388916 0 0 0 0
0.11920166 0.015914917 -0.2388916 0 0 0 0
0.1206665 0.015914917 -0.2388916 0 0 0 0
0.12219238 0.015914917 -0.2388916 0 0 0 0
0.12365723 0.015914917 -0.2388916 0 0 0 0
0.12512207 0.015914917 -0.2388916 0 0 0 0
0.12658691 0.015914917 -0.2388916 0 0 0 0
0.12805176 0.015914917 -0.2388916 0 0 0 0
-0.021362305 0.017776489 -0.29394531 0 0 0 0
-0.019454956 0.017715454 -0.29296875 0 0 0 0
-0.01763916 0.017715454 -0.29296875 0 0 0 0
-0.015762329 0.017654419 -0.29199219 0 0 0 0
-0.013908386 0.017593384 -0.29101562 0 0 0 0
-0.012054443 0.017532349 -0.29003906 0 0 0 0
-0.010215759 0.017471313 -0.2890625 0 0 0 0
-0.008392334 0.017410278 -0.28808594 0 0 0 0
-0.0065803528 0.017349243 -0.28710938 0 0 0 0
-0.0047950745 0.017349243 -0.28710938 0 0 0 0
-0.0030002594 0.017288208 -0.28588867 0 0 0 0
-0.0012235641 0.017288208 -0.28588867 0 0 0 0
0.00055551529 0.017349243 -0.28710938 0 0 0 0
0.0023384094 0.017349243 -0.28710938 0 0 0 0
0.0041351318 0.017410278 -0.28808594 0 0 0 0
0.005947113 0.017471313 -0.2890625 0 0 0 0
0.0077705383 0.017532349 -0.29003906 0 0 0 0
0.0095748901 0.017532349 -0.29003906 0 0 0 0
0.011413574 0.017593384 -0.29101562 0 0 0 0
0.013267517 0.017654419 -0.29199219 0 0 0 0
0.093933105 0.021606445 -0.35717773 0 0 0 0
0.096130371 0.021606445 -0.35717773 0 0 0 0
0.098388672 0.021606445 -0.35717773 0 0 0 0
0.10058594 0.021606445 -0.35717773 0 0 0 0
0.10284424 0.021606445 -0.35717773 0 0 0 0
0.089904785 0.015533447 -0.25683594 0 0 0 0
0.091125488 0.015472412 -0.25585938 0 0 0 0
0.092346191 0.015411377 -0.25488281 0 0 0 0
0.093566895 0.015350342 -0.25390625 0 0 0 0
0.094787598 0.015289307 -0.25292969 0 0 0 0
0.095947266 0.015228271 -0.25195312 0 0 0 0
0.097167969 0.015167236 -0.25097656 0 0 0 0
0.098327637 0.015106201 -0.24987793 0 0 0 0
0.099487305 0.015045166 -0.24890137 0 0 0 0
0.10058594 0.014984131 -0.2479248 0 0 0 0
0.10174561 0.014923096 -0.24694824 0 0 0 0
0.10284424 0.01486969 -0.24584961 0 0 0 0
0.10394287 0.014808655 -0.24487305 0 0 0 0
0.10546875 0.014808655 -0.24487305 0 0 0 0
0.10656738 0.01474762 -0.24389648 0 0 0 0
0.10760498 0.014686584 -0.24291992 0 0 0 0
0.10870361 0.014625549 -0.24194336 0 0 0 0
0.11016846 0.014625549 -0.24194336 0 0 0 0
0.11120605 0.014564514 -0.24084473 0 0 0 0
0.11273193 0.014564514 -0.24084473 0 0 0 0
0.11376953 0.014503479 -0.23986816 0 0 0 0
0.11474609 0.014442444 -0.2388916 0 0 0 0
0.11621094 0.014442444 -0.2388916 0 0 0 0
0.11773682 0.014442444 -0.2388916 0 0 0 0
0.11920166 0.014442444 -0.2388916 0 0 0 0
0.12017822 0.014381409 -0.23791504 0 0 0 0
0.12164307 0.014381409 -0.23791504 0 0 0 0
0.12310791 0.014381409 -0.23791504 0 0 0 0
0.12463379 0.014381409 -0.23791504 0 0 0 0
0.12658691 0.014442444 -0.2388916 0 0 0 0
0.12805176 0.014442444 -0.2388916 0 0 0 0
-0.01953125 0.015945435 -0.29394531 0 0 0 0
-0.01763916 0.015899658 -0.29296875 0 0 0 0
-0.015762329 0.015838623 -0.29199219 0 0 0 0
-0.013908386 0.015777588 -0.29101562 0 0 0 0
-0.01209259 0.015777588 -0.29101562 0 0 0 0
-0.010253906 0.015731812 -0.29003906 0 0 0 0
-0.0084228516 0.015670776 -0.2890625 0 0 0 0
-0.006603241 0.015625 -0.28808594 0 0 0 0
-0.0047950745 0.015571594 -0.28710938 0 0 0 0
-0.0030117035 0.015571594 -0.28710938 0 0 0 0
-0.0012283325 0.015571594 -0.28710938 0 0 0 0
0.00055551529 0.015571594 -0.28710938 0 0 0 0
0.0023460388 0.015625 -0.28808594 0 0 0 0
0.0041351318 0.015625 -0.28808594 0 0 0 0
0.005947113 0.015670776 -0.2890625 0 0 0 0
0.0077705383 0.015731812 -0.29003906 0 0 0 0
0.0095748901 0.015731812 -0.29003906 0 0 0 0
0.093688965 0.019317627 -0.35620117 0 0 0 0
0.09588623 0.019317627 -0.35620117 0 0 0 0
0.098083496 0.019317627 -0.35620117 0 0 0 0
0.1003418 0.019317627 -0.35620117 0 0 0 0
0.088317871 0.013938904 -0.25683594 0 0 0 0
0.089904785 0.013938904 -0.25683594 0 0 0 0
0.091125488 0.013885498 -0.25585938 0 0 0 0
0.092346191 0.013824463 -0.25488281 0 0 0 0
0.093566895 0.013771057 -0.25390625 0 0 0 0
0.094787598 0.013717651 -0.25292969 0 0 0 0
0.095947266 0.013664246 -0.25195312 0 0 0 0
0.097167969 0.01361084 -0.25097656 0 0 0 0
0.098327637 0.013557434 -0.24987793 0 0 0 0
0.099487305 0.013504028 -0.24890137 0 0 0 0
0.10058594 0.013442993 -0.2479248 0 0 0 0
0.10174561 0.013389587 -0.24694824 0 0 0 0
0.10284424 0.013336182 -0.24584961 0 0 0 0
0.10394287 0.013282776 -0.24487305 0 0 0 0
0.10546875 0.013282776 -0.24487305 0 0 0 0
0.10656738 0.01322937 -0.24389648 0 0 0 0
0.10760498 0.013175964 -0.24291992 0 0 0 0
0.10870361 0.013122559 -0.24194336 0 0 0 0
0.11016846 0.013122559 -0.24194336 0 0 0 0
0.11120605 0.013069153 -0.24084473 0 0 0 0
0.11273193 0.013069153 -0.24084473 0 0 0 0
0.11376953 0.013008118 -0.23986816 0 0 0 0
0.11523438 0.013008118 -0.23986816 0 0 0 0
0.11621094 0.012954712 -0.2388916 0 0 0 0
0.11773682 0.012954712 -0.2388916 0 0 0 0
0.11920166 0.012954712 -0.2388916 0 0 0 0
0.12017822 0.012901306 -0.23791504 0 0 0 0
0.12164307 0.012901306 -0.23791504 0 0 0 0
0.12310791 0.012901306 -0.23791504 0 0 0 0
0.12463379 0.012901306 -0.23791504 0 0 0 0
0.12609863 0.012901306 -0.23791504 0 0 0 0
0.12756348 0.012901306 -0.23791504 0 0 0 0
-0.01763916 0.014076233 -0.29296875 0 0 0 0
-0.015823364 0.014076233 -0.29296875 0 0 0 0
-0.013954163 0.014030457 -0.29199219 0 0 0 0
-0.01209259 0.013977051 -0.29101562 0 0 0 0
-0.010253906 0.013931274 -0.29003906 0 0 0 0
-0.0084228516 0.013885498 -0.2890625 0 0 0 0
-0.006603241 0.013832092 -0.28808594 0 0 0 0
-0.0047950745 0.013786316 -0.28710938 0 0 0 0
-0.0030117035 0.013786316 -0.28710938 0 0 0 0
-0.0012283325 0.013786316 -0.28710938 0 0 0 0
0.00055551529 0.013786316 -0.28710938 0 0 0 0
0.0023460388 0.013832092 -0.28808594 0 0 0 0
0.0041351318 0.013832092 -0.28808594 0 0 0 0
0.005947113 0.013885498 -0.2890625 0 0 0 0
0.093688965 0.017105103 -0.35620117 0 0 0 0
0.09588623 0.017105103 -0.35620117 0 0 0 0
0.098083496 0.017105103 -0.35620117 0 0 0 0
0.1003418 0.017105103 -0.35620117 0 0 0 0
0.088317871 0.012336731 -0.25683594 0 0 0 0
0.089904785 0.012336731 -0.25683594 0 0 0 0
0.091125488 0.012290955 -0.25585938 0 0 0 0
0.092346191 0.012245178 -0.25488281 0 0 0 0
0.093566895 0.012191772 -0.25390625 0 0 0 0
0.094787598 0.012145996 -0.25292969 0 0 0 0
0.095947266 0.01210022 -0.25195312 0 0 0 0
0.097167969 0.012046814 -0.25097656 0 0 0 0
0.098327637 0.012001038 -0.24987793 0 0 0 0
0.099487305 0.011955261 -0.24890137 0 0 0 0
0.10058594 0.011909485 -0.2479248 0 0 0 0
0.10174561 0.011856079 -0.24694824 0 0 0 0
0.10284424 0.011810303 -0.24584961 0 0 0 0
0.10437012 0.011810303 -0.24584961 0 0 0 0
0.10546875 0.011764526 -0.24487305 0 0 0 0
0.10656738 0.011711121 -0.24389648 0 0 0 0
0.10760498 0.011665344 -0.24291992 0 0 0 0
0.10913086 0.011665344 -0.24291992 0 0 0 0
0.11016846 0.011619568 -0.24194336 0 0 0 0
0.11120605 0.011566162 -0.24084473 0 0 0 0
0.11273193 0.011566162 -0.24084473 0 0 0 0
0.11376953 0.011520386 -0.23986816 0 0 0 0
0.11523438 0.011520386 -0.23986816 0 0 0 0
0.11621094 0.011474609 -0.2388916 0 0 0 0
0.11773682 0.011474609 -0.2388916 0 0 0 0
0.11920166 0.011474609 -0.2388916 0 0 0 0
0.12017822 0.011421204 -0.23791504 0 0 0 0
0.12164307 0.011421204 -0.23791504 0 0 0 0
0.12310791 0.011421204 -0.23791504 0 0 0 0
0.12463379 0.011421204 -0.23791504 0 0 0 0
0.12609863 0.011421204 -0.23791504 0 0 0 0
0.12756348 0.011421204 -0.23791504 0 0 0 0
-0.013954163 0.012214661 -0.29199219 0 0 0 0
-0.01209259 0.012168884 -0.29101562 0 0 0 0
-0.010284424 0.012168884 -0.29101562 0 0 0 0
-0.0084457397 0.012130737 -0.29003906 0 0 0 0
-0.0048103333 0.012046814 -0.28808594 0 0 0 0
-0.0030117035 0.012001038 -0.28710938 0 0 0 0
0.091430664 0.014900208 -0.35620117 0 0 0 0
0.093688965 0.014900208 -0.35620117 0 0 0 0
0.09588623 0.014900208 -0.35620117 0 0 0 0
0.098083496 0.014900208 -0.35620117 0 0 0 0
0.1003418 0.014900208 -0.35620117 0 0 0 0
0.088317871 0.010742188 -0.25683594 0 0 0 0
0.089904785 0.010742188 -0.25683594 0 0 0 0
0.091125488 0.010704041 -0.25585938 0 0 0 0
0.092346191 0.010658264 -0.25488281 0 0 0 0
0.093566895 0.010620117 -0.25390625 0 0 0 0
0.094787598 0.010574341 -0.25292969 0 0 0 0
0.095947266 0.010536194 -0.25195312 0 0 0 0
0.097167969 0.010490417 -0.25097656 0 0 0 0
0.098327637 0.010452271 -0.24987793 0 0 0 0
0.099487305 0.010406494 -0.24890137 0 0 0 0
0.10058594 0.010368347 -0.2479248 0 0 0 0
0.10174561 0.010322571 -0.24694824 0 0 0 0
0.10327148 0.010322571 -0.24694824 0 0 0 0
0.10437012 0.010284424 -0.24584961 0 0 0 0
0.10546875 0.010238647 -0.24487305 0 0 0 0
0.10656738 0.0102005 -0.24389648 0 0 0 0
0.10809326 0.0102005 -0.24389648 0 0 0 0
0.10913086 0.010154724 -0.24291992 0 0 0 0
0.11016846 0.010116577 -0.24194336 0 0 0 0
0.11169434 0.010116577 -0.24194336 0 0 0 0
0.11273193 0.010070801 -0.24084473 0 0 0 0
0.11376953 0.010032654 -0.23986816 0 0 0 0
0.11523438 0.010032654 -0.23986816 0 0 0 0
0.11621094 0.0099868774 -0.2388916 0 0 0 0
0.11773682 0.0099868774 -0.2388916 0 0 0 0
0.11920166 0.0099868774 -0.2388916 0 0 0 0
0.1206665 0.0099868774 -0.2388916 0 0 0 0
0.12219238 0.0099868774 -0.2388916 0 0 0 0
0.12310791 0.0099487305 -0.23791504 0 0 0 0
0.12463379 0.0099487305 -0.23791504 0 0 0 0
0.12609863 0.0099487305 -0.23791504 0 0 0 0
0.12756348 0.0099487305 -0.23791504 0 0 0 0
0.093688965 0.012687683 -0.35620117 0 0 0 0
0.09588623 0.012687683 -0.35620117 0 0 0 0
0.098083496 0.012687683 -0.35620117 0 0 0 0
0.1003418 0.012687683 -0.35620117 0 0 0 0
0.088317871 0.009147644 -0.25683594 0 0 0 0
0.089538574 0.0091094971 -0.25585938 0 0 0 0
0.091125488 0.0091094971 -0.25585938 0 0 0 0
0.092346191 0.0090713501 -0.25488281 0 0 0 0
0.093566895 0.0090408325 -0.25390625 0 0 0 0
0.094787598 0.0090026855 -0.25292969 0 0 0 0
0.095947266 0.0089645386 -0.25195312 0 0 0 0
0.097167969 0.008934021 -0.25097656 0 0 0 0
0.098327637 0.008895874 -0.24987793 0 0 0 0
0.099487305 0.0088577271 -0.24890137 0 0 0 0
0.10058594 0.0088272095 -0.2479248 0 0 0 0
0.10211182 0.0088272095 -0.2479248 0 0 0 0
0.10327148 0.0087890625 -0.24694824 0 0 0 0
0.10437012 0.0087509155 -0.24584961 0 0 0 0
0.10546875 0.0087203979 -0.24487305 0 0 0 0
0.10656738 0.008682251 -0.24389648 0 0 0 0
0.10809326 0.008682251 -0.24389648 0 0 0 0
0.10913086 0.008644104 -0.24291992 0 0 0 0
0.11016846 0.0086135864 -0.24194336 0 0 0 0
0.11169434 0.0086135864 -0.24194336 0 0 0 0
0.11273193 0.0085754395 -0.24084473 0 0 0 0
0.11419678 0.0085754395 -0.24084473 0 0 0 0
0.11523438 0.0085372925 -0.23986816 0 0 0 0
0.11669922 0.0085372925 -0.23986816 0 0 0 0
0.11773682 0.0084991455 -0.2388916 0 0 0 0
0.11920166 0.0084991455 -0.2388916 0 0 0 0
0.1206665 0.0084991455 -0.2388916 0 0 0 0
0.12219238 0.0084991455 -0.2388916 0 0 0 0
0.12365723 0.0084991455 -0.2388916 0 0 0 0
0.12512207 0.0084991455 -0.2388916 0 0 0 0
0.12609863 0.0084686279 -0.23791504 0 0 0 0
-0.0056991577 0.010025024 -0.34130859 0 0 0 0
-0.0035800934 0.010025024 -0.34130859 0 0 0 0
-0.0014638901 0.010055542 -0.34228516 0 0 0 0
0.00066423416 0.01008606 -0.34326172 0 0 0 0
0.093383789 0.010437012 -0.35522461 0 0 0 0
0.09564209 0.010437012 -0.35522461 0 0 0 0
0.097839355 0.010437012 -0.35522461 0 0 0 0
0.10003662 0.010437012 -0.35522461 0 0 0 0
0.086730957 0.0075492859 -0.25683594 0 0 0 0
0.088317871 0.0075492859 -0.25683594 0 0 0 0
0.089538574 0.007522583 -0.25585938 0 0 0 0
0.091125488 0.007522583 -0.25585938 0 0 0 0
0.092346191 0.0074920654 -0.25488281 0 0 0 0
0.093566895 0.0074615479 -0.25390625 0 0 0 0
0.094787598 0.007434845 -0.25292969 0 0 0 0
0.095947266 0.0074043274 -0.25195312 0 0 0 0
0.097167969 0.0073738098 -0.25097656 0 0 0 0
0.098327637 0.0073432922 -0.24987793 0 0 0 0
0.099487305 0.0073165894 -0.24890137 0 0 0 0
0.10101318 0.0073165894 -0.24890137 0 0 0 0
0.10211182 0.0072860718 -0.2479248 0 0 0 0
0.10327148 0.0072555542 -0.24694824 0 0 0 0
0.10437012 0.0072250366 -0.24584961 0 0 0 0
0.10546875 0.0071983337 -0.24487305 0 0 0 0
0.10699463 0.0071983337 -0.24487305 0 0 0 0
0.10809326 0.0071678162 -0.24389648 0 0 0 0
0.10913086 0.0071372986 -0.24291992 0 0 0 0
0.11065674 0.0071372986 -0.24291992 0 0 0 0
0.11169434 0.007106781 -0.24194336 0 0 0 0
0.11322021 0.007106781 -0.24194336 0 0 0 0
0.11419678 0.0070800781 -0.24084473 0 0 0 0
0.11572266 0.0070800781 -0.24084473 0 0 0 0
0.11669922 0.0070495605 -0.23986816 0 0 0 0
0.1182251 0.0070495605 -0.23986816 0 0 0 0
0.11920166 0.007019043 -0.2388916 0 0 0 0
0.1206665 0.007019043 -0.2388916 0 0 0 0
0.12219238 0.007019043 -0.2388916 0 0 0 0
0.12365723 0.007019043 -0.2388916 0 0 0 0
0.12512207 0.007019043 -0.2388916 0 0 0 0
0.12658691 0.007019043 -0.2388916 0 0 0 0
-0.0078201294 0.0079040527 -0.34130859 0 0 0 0
-0.0057182312 0.0079269409 -0.34228516 0 0 0 0
-0.0035915375 0.0079269409 -0.34228516 0 0 0 0
-0.0014686584 0.0079498291 -0.34326172 0 0 0 0
0.00066614151 0.0079727173 -0.34423828 0 0 0 0
0.0028057098 0.0079727173 -0.34423828 0 0 0 0
0.091186523 0.0082321167 -0.35522461 0 0 0 0
0.093383789 0.0082321167 -0.35522461 0 0 0 0
0.09564209 0.0082321167 -0.35522461 0 0 0 0
0.097839355 0.0082321167 -0.35522461 0 0 0 0
0.086730957 0.0059547424 -0.25683594 0 0 0 0
0.088317871 0.0059547424 -0.25683594 0 0 0 0
0.089538574 0.0059318542 -0.25585938 0 0 0 0
0.091125488 0.0059318542 -0.25585938 0 0 0 0
0.092346191 0.0059089661 -0.25488281 0 0 0 0
0.093566895 0.0058860779 -0.25390625 0 0 0 0
0.094787598 0.005859375 -0.25292969 0 0 0 0
0.095947266 0.0058364868 -0.25195312 0 0 0 0
0.097167969 0.0058135986 -0.25097656 0 0 0 0
0.098693848 0.0058135986 -0.25097656 0 0 0 0
0.099853516 0.0057907104 -0.24987793 0 0 0 0
0.10101318 0.0057678223 -0.24890137 0 0 0 0
0.10211182 0.0057449341 -0.2479248 0 0 0 0
0.10327148 0.0057220459 -0.24694824 0 0 0 0
0.10479736 0.0057220459 -0.24694824 0 0 0 0
0.105896 0.0056991577 -0.24584961 0 0 0 0
0.10699463 0.0056762695 -0.24487305 0 0 0 0
0.10809326 0.0056533813 -0.24389648 0 0 0 0
0.10955811 0.0056533813 -0.24389648 0 0 0 0
0.11065674 0.0056266785 -0.24291992 0 0 0 0
0.11212158 0.0056266785 -0.24291992 0 0 0 0
0.11322021 0.0056037903 -0.24194336 0 0 0 0
0.11419678 0.0055809021 -0.24084473 0 0 0 0
0.11572266 0.0055809021 -0.24084473 0 0 0 0
0.1171875 0.0055809021 -0.24084473 0 0 0 0
0.1182251 0.0055580139 -0.23986816 0 0 0 0
0.11968994 0.0055580139 -0.23986816 0 0 0 0
0.12121582 0.0055580139 -0.23986816 0 0 0 0
0.12219238 0.0055351257 -0.2388916 0 0 0 0
0.12365723 0.0055351257 -0.2388916 0 0 0 0
0.12512207 0.0055351257 -0.2388916 0 0 0 0
-0.0078430176 0.0058059692 -0.34228516 0 0 0 0
-0.0057182312 0.0058059692 -0.34228516 0 0 0 0
-0.0036010742 0.005821228 -0.34326172 0 0 0 0
-0.0014724731 0.0058403015 -0.34423828 0 0 0 0
0.00066614151 0.0058403015 -0.34423828 0 0 0 0
0.0028133392 0.0058555603 -0.34521484 0 0 0 0
0.091186523 0.0060272217 -0.35522461 0 0 0 0
0.093383789 0.0060272217 -0.35522461 0 0 0 0
0.09564209 0.0060272217 -0.35522461 0 0 0 0
0.086730957 0.0043563843 -0.25683594 0 0 0 0
0.088317871 0.0043563843 -0.25683594 0 0 0 0
0.089538574 0.0043411255 -0.25585938 0 0 0 0
0.091125488 0.0043411255 -0.25585938 0 0 0 0
0.092346191 0.004322052 -0.25488281 0 0 0 0
0.093566895 0.0043067932 -0.25390625 0 0 0 0
0.094787598 0.0042877197 -0.25292969 0 0 0 0
0.095947266 0.0042724609 -0.25195312 0 0 0 0
0.09753418 0.0042724609 -0.25195312 0 0 0 0
0.098693848 0.0042533875 -0.25097656 0 0 0 0
0.099853516 0.0042381287 -0.24987793 0 0 0 0
0.10101318 0.0042190552 -0.24890137 0 0 0 0
0.10211182 0.0042037964 -0.2479248 0 0 0 0
0.10369873 0.0042037964 -0.2479248 0 0 0 0
0.10479736 0.0041885376 -0.24694824 0 0 0 0
0.105896 0.0041694641 -0.24584961 0 0 0 0
0.10742188 0.0041694641 -0.24584961 0 0 0 0
0.10852051 0.0041542053 -0.24487305 0 0 0 0
0.10955811 0.0041351318 -0.24389648 0 0 0 0
0.11108398 0.0041351318 -0.24389648 0 0 0 0
0.11212158 0.004119873 -0.24291992 0 0 0 0
0.11364746 0.004119873 -0.24291992 0 0 0 0
0.11468506 0.0041007996 -0.24194336 0 0 0 0
0.11572266 0.0040855408 -0.24084473 0 0 0 0
0.1171875 0.0040855408 -0.24084473 0 0 0 0
0.11871338 0.0040855408 -0.24084473 0 0 0 0
0.11968994 0.0040664673 -0.23986816 0 0 0 0
0.12121582 0.0040664673 -0.23986816 0 0 0 0
0.12268066 0.0040664673 -0.23986816 0 0 0 0
0.12420654 0.0040664673 -0.23986816 0 0 0 0
0.12512207 0.0040512085 -0.2388916 0 0 0 0
-0.0078430176 0.0036773682 -0.34228516 0 0 0 0
-0.00573349 0.0036888123 -0.34326172 0 0 0 0
-0.0036125183 0.0037002563 -0.34423828 0 0 0 0
-0.0014772415 0.0037097931 -0.34521484 0 0 0 0
0.00066804886 0.0037097931 -0.34521484 0 0 0 0
0.0028209686 0.0037212372 -0.34619141 0 0 0 0
0.0049858093 0.0037326813 -0.34716797 0 0 0 0
0.091186523 0.003818512 -0.35522461 0 0 0 0
0.093383789 0.003818512 -0.35522461 0 0 0 0
0.09564209 0.003818512 -0.35522461 0 0 0 0
0.09753418 0.0038070679 -0.35424805 0 0 0 0
0.086730957 0.0027618408 -0.25683594 0 0 0 0
0.08795166 0.0027503967 -0.25585938 0 0 0 0
0.089538574 0.0027503967 -0.25585938 0 0 0 0
0.090759277 0.0027389526 -0.25488281 0 0 0 0
0.092346191 0.0027389526 -0.25488281 0 0 0 0
0.093566895 0.0027294159 -0.25390625 0 0 0 0
0.094787598 0.0027179718 -0.25292969 0 0 0 0
0.095947266 0.0027065277 -0.25195312 0 0 0 0
0.09753418 0.0027065277 -0.25195312 0 0 0 0
0.098693848 0.002696991 -0.25097656 0 0 0 0
0.099853516 0.0026855469 -0.24987793 0 0 0 0
0.10101318 0.0026741028 -0.24890137 0 0 0 0
0.10253906 0.0026741028 -0.24890137 0 0 0 0
0.10369873 0.002664566 -0.2479248 0 0 0 0
0.10479736 0.0026531219 -0.24694824 0 0 0 0
0.10632324 0.0026531219 -0.24694824 0 0 0 0
0.10742188 0.0026416779 -0.24584961 0 0 0 0
0.10852051 0.0026321411 -0.24487305 0 0 0 0
0.11004639 0.0026321411 -0.24487305 0 0 0 0
0.11108398 0.002620697 -0.24389648 0 0 0 0
0.11260986 0.002620697 -0.24389648 0 0 0 0
0.11364746 0.0026092529 -0.24291992 0 0 0 0
0.11517334 0.0026092529 -0.24291992 0 0 0 0
0.11621094 0.0025997162 -0.24194336 0 0 0 0
0.11767578 0.0025997162 -0.24194336 0 0 0 0
0.11871338 0.0025882721 -0.24084473 0 0 0 0
0.12017822 0.0025882721 -0.24084473 0 0 0 0
0.1217041 0.0025882721 -0.24084473 0 0 0 0
0.12268066 0.002576828 -0.23986816 0 0 0 0
0.12420654 0.002576828 -0.23986816 0 0 0 0
0.12561035 0.002576828 -0.23986816 0 0 0 0
-0.0078430176 0.0015516281 -0.34228516 0 0 0 0
-0.0057525635 0.0015602112 -0.34423828 0 0 0 0
-0.0036220551 0.0015649796 -0.34521484 0 0 0 0
-0.0014810562 0.0015697479 -0.34619141 0 0 0 0
0.00066995621 0.0015697479 -0.34619141 0 0 0 0
0.0028305054 0.0015745163 -0.34716797 0 0 0 0
0.0050010681 0.0015792847 -0.34814453 0 0 0 0
0.0071868896 0.0015830994 -0.34912109 0 0 0 0
0.091186523 0.0016107559 -0.35522461 0 0 0 0
0.093383789 0.0016107559 -0.35522461 0 0 0 0
0.09564209 0.0016107559 -0.35522461 0 0 0 0
0.097839355 0.0016107559 -0.35522461 0 0 0 0
0.08795166 0.001159668 -0.25585938 0 0 0 0
0.089538574 0.001159668 -0.25585938 0 0 0 0
0.090759277 0.0011558533 -0.25488281 0 0 0 0
0.092346191 0.0011558533 -0.25488281 0 0 0 0
0.093566895 0.0011510849 -0.25390625 0 0 0 0
0.094787598 0.0011463165 -0.25292969 0 0 0 0
0.096374512 0.0011463165 -0.25292969 0 0 0 0
0.09753418 0.0011415482 -0.25195312 0 0 0 0
0.098693848 0.0011377335 -0.25097656 0 0 0 0
0.10028076 0.0011377335 -0.25097656 0 0 0 0
0.10144043 0.0011329651 -0.24987793 0 0 0 0
0.10253906 0.0011281967 -0.24890137 0 0 0 0
0.10369873 0.0011234283 -0.2479248 0 0 0 0
0.10522461 0.0011234283 -0.2479248 0 0 0 0
0.10632324 0.0011196136 -0.24694824 0 0 0 0
0.10742188 0.0011148453 -0.24584961 0 0 0 0
0.10894775 0.0011148453 -0.24584961 0 0 0 0
0.11004639 0.0011100769 -0.24487305 0 0 0 0
0.11157227 0.0011100769 -0.24487305 0 0 0 0
0.11260986 0.0011053085 -0.24389648 0 0 0 0
0.11413574 0.0011053085 -0.24389648 0 0 0 0
0.11517334 0.0011005402 -0.24291992 0 0 0 0
0.11669922 0.0011005402 -0.24291992 0 0 0 0
0.11767578 0.0010967255 -0.24194336 0 0 0 0
0.11920166 0.0010967255 -0.24194336 0 0 0 0
0.12017822 0.0010919571 -0.24084473 0 0 0 0
0.1217041 0.0010919571 -0.24084473 0 0 0 0
0.12322998 0.0010919571 -0.24084473 0 0 0 0
0.12420654 0.0010871887 -0.23986816 0 0 0 0
0.12561035 0.0010871887 -0.23986816 0 0 0 0
-0.0057678223 -0.00057983398 -0.34521484 0 0 0 0
-0.0036334991 -0.00058174133 -0.34619141 0 0 0 0
-0.0014810562 -0.00058174133 -0.34619141 0 0 0 0
0.00067186356 -0.00058317184 -0.34716797 0 0 0 0
0.0028381348 -0.00058507919 -0.34814453 0 0 0 0
0.0050010681 -0.00058507919 -0.34814453 0 0 0 0
0.0071868896 -0.0005865097 -0.34912109 0 0 0 0
0.088989258 -0.00059700012 -0.35522461 0 0 0 0
0.091186523 -0.00059700012 -0.35522461 0 0 0 0
0.093383789 -0.00059700012 -0.35522461 0 0 0 0
0.09564209 -0.00059700012 -0.35522461 0 0 0 0
0.09753418 -0.00059509277 -0.35424805 0 0 0 0
0.099731445 -0.00059509277 -0.35424805 0 0 0 0
0.08795166 -0.0004298687 -0.25585938 0 0 0 0
0.089538574 -0.0004298687 -0.25585938 0 0 0 0
0.090759277 -0.00042819977 -0.25488281 0 0 0 0
0.092346191 -0.00042819977 -0.25488281 0 0 0 0
0.093566895 -0.00042653084 -0.25390625 0 0 0 0
0.095153809 -0.00042653084 -0.25390625 0 0 0 0
0.096374512 -0.00042486191 -0.25292969 0 0 0 0
0.09753418 -0.00042319298 -0.25195312 0 0 0 0
0.099121094 -0.00042319298 -0.25195312 0 0 0 0
0.10028076 -0.00042152405 -0.25097656 0 0 0 0
0.10144043 -0.00041985512 -0.24987793 0 0 0 0
0.10296631 -0.00041985512 -0.24987793 0 0 0 0
0.10412598 -0.00041818619 -0.24890137 0 0 0 0
0.10522461 -0.00041651726 -0.2479248 0 0 0 0
0.10675049 -0.00041651726 -0.2479248 0 0 0 0
0.10784912 -0.00041484833 -0.24694824 0 0 0 0
0.10894775 -0.0004131794 -0.24584961 0 0 0 0
0.11047363 -0.0004131794 -0.24584961 0 0 0 0
0.11157227 -0.00041151047 -0.24487305 0 0 0 0
0.11309814 -0.00041151047 -0.24487305 0 0 0 0
0.11413574 -0.00040960312 -0.24389648 0 0 0 0
0.11566162 -0.00040960312 -0.24389648 0 0 0 0
0.11669922 -0.00040793419 -0.24291992 0 0 0 0
0.11816406 -0.00040793419 -0.24291992 0 0 0 0
0.11920166 -0.00040626526 -0.24194336 0 0 0 0
0.12072754 -0.00040626526 -0.24194336 0 0 0 0
0.12219238 -0.00040626526 -0.24194336 0 0 0 0
0.12322998 -0.00040459633 -0.24084473 0 0 0 0
0.12469482 -0.00040459633 -0.24084473 0 0 0 0
-0.0057678223 -0.0027256012 -0.34521484 0 0 0 0
-0.0036334991 -0.0027332306 -0.34619141 0 0 0 0
-0.0014858246 -0.00274086 -0.34716797 0 0 0 0
0.0006737709 -0.0027484894 -0.34814453 0 0 0 0
0.0028381348 -0.0027484894 -0.34814453 0 0 0 0
0.0050163269 -0.0027561188 -0.34912109 0 0 0 0
0.0071868896 -0.0027561188 -0.34912109 0 0 0 0
0.088989258 -0.0028038025 -0.35522461 0 0 0 0
0.091186523 -0.0028038025 -0.35522461 0 0 0 0
0.093139648 -0.0027961731 -0.35424805 0 0 0 0
0.095336914 -0.0027961731 -0.35424805 0 0 0 0
0.09753418 -0.0027961731 -0.35424805 0 0 0 0
0.099731445 -0.0027961731 -0.35424805 0 0 0 0
0.10192871 -0.0027961731 -0.35424805 0 0 0 0
0.089538574 -0.0020198822 -0.25585938 0 0 0 0
0.090759277 -0.0020122528 -0.25488281 0 0 0 0
0.092346191 -0.0020122528 -0.25488281 0 0 0 0
0.093566895 -0.0020046234 -0.25390625 0 0 0 0
0.095153809 -0.0020046234 -0.25390625 0 0 0 0
0.096374512 -0.0019950867 -0.25292969 0 0 0 0
0.09753418 -0.0019874573 -0.25195312 0 0 0 0
0.099121094 -0.0019874573 -0.25195312 0 0 0 0
0.10028076 -0.0019798279 -0.25097656 0 0 0 0
0.10180664 -0.0019798279 -0.25097656 0 0 0 0
0.10296631 -0.0019721985 -0.24987793 0 0 0 0
0.10412598 -0.0019645691 -0.24890137 0 0 0 0
0.10565186 -0.0019645691 -0.24890137 0 0 0 0
0.10675049 -0.0019569397 -0.2479248 0 0 0 0
0.10784912 -0.0019493103 -0.24694824 0 0 0 0
0.109375 -0.0019493103 -0.24694824 0 0 0 0
0.11047363 -0.0019407272 -0.24584961 0 0 0 0
0.11199951 -0.0019407272 -0.24584961 0 0 0 0
0.11309814 -0.0019330978 -0.24487305 0 0 0 0
0.11462402 -0.0019330978 -0.24487305 0 0 0 0
0.11566162 -0.0019254684 -0.24389648 0 0 0 0
0.1171875 -0.0019254684 -0.24389648 0 0 0 0
0.11816406 -0.0019168854 -0.24291992 0 0 0 0
0.11968994 -0.0019168854 -0.24291992 0 0 0 0
0.12121582 -0.0019168854 -0.24291992 0 0 0 0
0.12219238 -0.001909256 -0.24194336 0 0 0 0
0.12371826 -0.001909256 -0.24194336 0 0 0 0
-0.0036430359 -0.0048980713 -0.34716797 0 0 0 0
-0.0014896393 -0.0049133301 -0.34814453 0 0 0 0
0.0006737709 -0.0049133301 -0.34814453 0 0 0 0
0.0028457642 -0.0049285889 -0.34912109 0 0 0 0
0.0050163269 -0.0049285889 -0.34912109 0 0 0 0
0.03427124 -0.0050811768 -0.36035156 0 0 0 0
0.036407471 -0.0050697327 -0.359375 0 0 0 0
0.038635254 -0.0050697327 -0.359375 0 0 0 0
0.086547852 -0.0049972534 -0.35424805 0 0 0 0
0.088745117 -0.0049972534 -0.35424805 0 0 0 0
0.090942383 -0.0049972534 -0.35424805 0 0 0 0
0.093139648 -0.0049972534 -0.35424805 0 0 0 0
0.095336914 -0.0049972534 -0.35424805 0 0 0 0
0.09753418 -0.0049972534 -0.35424805 0 0 0 0
0.099731445 -0.0049972534 -0.35424805 0 0 0 0
0.10192871 -0.0049972534 -0.35424805 0 0 0 0
0.089538574 -0.003610611 -0.25585938 0 0 0 0
0.090759277 -0.0035972595 -0.25488281 0 0 0 0
0.092346191 -0.0035972595 -0.25488281 0 0 0 0
0.093566895 -0.0035820007 -0.25390625 0 0 0 0
0.095153809 -0.0035820007 -0.25390625 0 0 0 0
0.096374512 -0.0035686493 -0.25292969 0 0 0 0
0.097900391 -0.0035686493 -0.25292969 0 0 0 0
0.099121094 -0.0035533905 -0.25195312 0 0 0 0
0.10064697 -0.0035533905 -0.25195312 0 0 0 0
0.10180664 -0.0035400391 -0.25097656 0 0 0 0
0.10339355 -0.0035400391 -0.25097656 0 0 0 0
0.10449219 -0.0035247803 -0.24987793 0 0 0 0
0.10565186 -0.0035114288 -0.24890137 0 0 0 0
0.10717773 -0.0035114288 -0.24890137 0 0 0 0
0.10827637 -0.0034980774 -0.2479248 0 0 0 0
0.109375 -0.0034828186 -0.24694824 0 0 0 0
0.11096191 -0.0034828186 -0.24694824 0 0 0 0
0.11199951 -0.0034694672 -0.24584961 0 0 0 0
0.11352539 -0.0034694672 -0.24584961 0 0 0 0
0.11462402 -0.0034542084 -0.24487305 0 0 0 0
0.1161499 -0.0034542084 -0.24487305 0 0 0 0
0.1171875 -0.0034408569 -0.24389648 0 0 0 0
0.11865234 -0.0034408569 -0.24389648 0 0 0 0
0.12017822 -0.0034408569 -0.24389648 0 0 0 0
0.12121582 -0.0034255981 -0.24291992 0 0 0 0
0.12219238 -0.0034122467 -0.24194336 0 0 0 0
-0.0014896393 -0.0070762634 -0.34814453 0 0 0 0
0.0006737709 -0.0070762634 -0.34814453 0 0 0 0
0.0028457642 -0.0070991516 -0.34912109 0 0 0 0
0.029724121 -0.0073013306 -0.359375 0 0 0 0
0.031951904 -0.0073013306 -0.359375 0 0 0 0
0.034179688 -0.0073013306 -0.359375 0 0 0 0
0.036315918 -0.0072822571 -0.35839844 0 0 0 0
0.038543701 -0.0072822571 -0.35839844 0 0 0 0
0.040771484 -0.0072822571 -0.35839844 0 0 0 0
0.042877197 -0.0072593689 -0.35717773 0 0 0 0
0.086547852 -0.0071983337 -0.35424805 0 0 0 0
0.088745117 -0.0071983337 -0.35424805 0 0 0 0
0.090942383 -0.0071983337 -0.35424805 0 0 0 0
0.093139648 -0.0071983337 -0.35424805 0 0 0 0
0.095336914 -0.0071983337 -0.35424805 0 0 0 0
0.09753418 -0.0071983337 -0.35424805 0 0 0 0
0.099731445 -0.0071983337 -0.35424805 0 0 0 0
0.10192871 -0.0071983337 -0.35424805 0 0 0 0
0.10412598 -0.0071983337 -0.35424805 0 0 0 0
0.091125488 -0.0051994324 -0.25585938 0 0 0 0
0.092346191 -0.0051803589 -0.25488281 0 0 0 0
0.093933105 -0.0051803589 -0.25488281 0 0 0 0
0.095153809 -0.0051612854 -0.25390625 0 0 0 0
0.096740723 -0.0051612854 -0.25390625 0 0 0 0
0.097900391 -0.0051383972 -0.25292969 0 0 0 0
0.099487305 -0.0051383972 -0.25292969 0 0 0 0
0.10064697 -0.0051193237 -0.25195312 0 0 0 0
0.10223389 -0.0051193237 -0.25195312 0 0 0 0
0.10339355 -0.0050964355 -0.25097656 0 0 0 0
0.10449219 -0.0050773621 -0.24987793 0 0 0 0
0.1060791 -0.0050773621 -0.24987793 0 0 0 0
0.10717773 -0.0050582886 -0.24890137 0 0 0 0
0.10876465 -0.0050582886 -0.24890137 0 0 0 0
0.10986328 -0.0050354004 -0.2479248 0 0 0 0
0.11096191 -0.0050163269 -0.24694824 0 0 0 0
0.11248779 -0.0050163269 -0.24694824 0 0 0 0
0.11352539 -0.0049972534 -0.24584961 0 0 0 0
0.11505127 -0.0049972534 -0.24584961 0 0 0 0
0.1161499 -0.0049743652 -0.24487305 0 0 0 0
0.11761475 -0.0049743652 -0.24487305 0 0 0 0
0.11865234 -0.0049552917 -0.24389648 0 0 0 0
0.12017822 -0.0049552917 -0.24389648 0 0 0 0
0.12121582 -0.0049362183 -0.24291992 0 0 0 0
0.027404785 -0.0095062256 -0.35839844 0 0 0 0
0.029632568 -0.0095062256 -0.35839844 0 0 0 0
0.031860352 -0.0095062256 -0.35839844 0 0 0 0
0.034088135 -0.0095062256 -0.35839844 0 0 0 0
0.036315918 -0.0095062256 -0.35839844 0 0 0 0
0.038421631 -0.0094833374 -0.35717773 0 0 0 0
0.040649414 -0.0094833374 -0.35717773 0 0 0 0
0.042877197 -0.0094833374 -0.35717773 0 0 0 0
0.04510498 -0.0094833374 -0.35717773 0 0 0 0
0.086547852 -0.0093994141 -0.35424805 0 0 0 0
0.088745117 -0.0093994141 -0.35424805 0 0 0 0
0.090942383 -0.0093994141 -0.35424805 0 0 0 0
0.093139648 -0.0093994141 -0.35424805 0 0 0 0
0.095336914 -0.0093994141 -0.35424805 0 0 0 0
0.097290039 -0.0093765259 -0.35327148 0 0 0 0
0.099487305 -0.0093765259 -0.35327148 0 0 0 0
0.10168457 -0.0093765259 -0.35327148 0 0 0 0
0.10412598 -0.0093994141 -0.35424805 0 0 0 0
0.092346191 -0.0067634583 -0.25488281 0 0 0 0
0.093933105 -0.0067634583 -0.25488281 0 0 0 0
0.095153809 -0.0067367554 -0.25390625 0 0 0 0
0.096740723 -0.0067367554 -0.25390625 0 0 0 0
0.097900391 -0.0067100525 -0.25292969 0 0 0 0
0.099487305 -0.0067100525 -0.25292969 0 0 0 0
0.10064697 -0.0066833496 -0.25195312 0 0 0 0
0.10223389 -0.0066833496 -0.25195312 0 0 0 0
0.10339355 -0.0066566467 -0.25097656 0 0 0 0
0.10491943 -0.0066566467 -0.25097656 0 0 0 0
0.1060791 -0.0066299438 -0.24987793 0 0 0 0
0.10760498 -0.0066299438 -0.24987793 0 0 0 0
0.10876465 -0.006603241 -0.24890137 0 0 0 0
0.10986328 -0.0065765381 -0.2479248 0 0 0 0
0.11138916 -0.0065765381 -0.2479248 0 0 0 0
0.11248779 -0.0065498352 -0.24694824 0 0 0 0
0.11401367 -0.0065498352 -0.24694824 0 0 0 0
0.11505127 -0.0065231323 -0.24584961 0 0 0 0
0.11657715 -0.0065231323 -0.24584961 0 0 0 0
0.11761475 -0.0064964294 -0.24487305 0 0 0 0
0.11914062 -0.0064964294 -0.24487305 0 0 0 0
0.12017822 -0.0064697266 -0.24389648 0 0 0 0
0.025039673 -0.011665344 -0.35620117 0 0 0 0
0.027328491 -0.011703491 -0.35717773 0 0 0 0
0.029556274 -0.011703491 -0.35717773 0 0 0 0
0.031768799 -0.011703491 -0.35717773 0 0 0 0
0.033996582 -0.011703491 -0.35717773 0 0 0 0
0.036193848 -0.011703491 -0.35717773 0 0 0 0
0.038421631 -0.011703491 -0.35717773 0 0 0 0
0.040527344 -0.011665344 -0.35620117 0 0 0 0
0.042755127 -0.011665344 -0.35620117 0 0 0 0
0.044952393 -0.011665344 -0.35620117 0 0 0 0
0.047180176 -0.011665344 -0.35620117 0 0 0 0
0.086547852 -0.011604309 -0.35424805 0 0 0 0
0.088745117 -0.011604309 -0.35424805 0 0 0 0
0.090698242 -0.011566162 -0.35327148 0 0 0 0
0.092895508 -0.011566162 -0.35327148 0 0 0 0
0.095092773 -0.011566162 -0.35327148 0 0 0 0
0.097290039 -0.011566162 -0.35327148 0 0 0 0
0.099487305 -0.011566162 -0.35327148 0 0 0 0
0.10168457 -0.011566162 -0.35327148 0 0 0 0
0.10388184 -0.011566162 -0.35327148 0 0 0 0
0.093933105 -0.0083465576 -0.25488281 0 0 0 0
0.095153809 -0.00831604 -0.25390625 0 0 0 0
0.096740723 -0.00831604 -0.25390625 0 0 0 0
0.098327637 -0.00831604 -0.25390625 0 0 0 0
0.099487305 -0.0082778931 -0.25292969 0 0 0 0
0.10107422 -0.0082778931 -0.25292969 0 0 0 0
0.10223389 -0.0082473755 -0.25195312 0 0 0 0
0.1038208 -0.0082473755 -0.25195312 0 0 0 0
0.10491943 -0.0082168579 -0.25097656 0 0 0 0
0.10650635 -0.0082168579 -0.25097656 0 0 0 0
0.10760498 -0.0081787109 -0.24987793 0 0 0 0
0.10919189 -0.0081787109 -0.24987793 0 0 0 0
0.11029053 -0.0081481934 -0.24890137 0 0 0 0
0.11138916 -0.0081176758 -0.2479248 0 0 0 0
0.11291504 -0.0081176758 -0.2479248 0 0 0 0
0.11401367 -0.0080871582 -0.24694824 0 0 0 0
0.11553955 -0.0080871582 -0.24694824 0 0 0 0
0.11657715 -0.0080490112 -0.24584961 0 0 0 0
0.11761475 -0.0080184937 -0.24487305 0 0 0 0
0.11914062 -0.0080184937 -0.24487305 0 0 0 0
0.022766113 -0.013839722 -0.35522461 0 0 0 0
0.024963379 -0.013839722 -0.35522461 0 0 0 0
0.027252197 -0.013885498 -0.35620117 0 0 0 0
0.029464722 -0.013885498 -0.35620117 0 0 0 0
0.031677246 -0.013885498 -0.35620117 0 0 0 0
0.033905029 -0.013885498 -0.35620117 0 0 0 0
0.036102295 -0.013885498 -0.35620117 0 0 0 0
0.038330078 -0.013885498 -0.35620117 0 0 0 0
0.040527344 -0.013885498 -0.35620117 0 0 0 0
0.042755127 -0.013885498 -0.35620117 0 0 0 0
0.044952393 -0.013885498 -0.35620117 0 0 0 0
0.047180176 -0.013885498 -0.35620117 0 0 0 0
0.049530029 -0.013923645 -0.35717773 0 0 0 0
0.084350586 -0.013801575 -0.35424805 0 0 0 0
0.086303711 -0.013763428 -0.35327148 0 0 0 0
0.088500977 -0.013763428 -0.35327148 0 0 0 0
0.090698242 -0.013763428 -0.35327148 0 0 0 0
0.092895508 -0.013763428 -0.35327148 0 0 0 0
0.095092773 -0.013763428 -0.35327148 0 0 0 0
0.097290039 -0.013763428 -0.35327148 0 0 0 0
0.099487305 -0.013763428 -0.35327148 0 0 0 0
0.10168457 -0.013763428 -0.35327148 0 0 0 0
0.10388184 -0.013763428 -0.35327148 0 0 0 0
0.1060791 -0.013763428 -0.35327148 0 0 0 0
0.10827637 -0.013763428 -0.35327148 0 0 0 0
0.095153809 -0.0098953247 -0.25390625 0 0 0 0
0.096740723 -0.0098953247 -0.25390625 0 0 0 0
0.098327637 -0.0098953247 -0.25390625 0 0 0 0
0.099487305 -0.0098495483 -0.25292969 0 0 0 0
0.10107422 -0.0098495483 -0.25292969 0 0 0 0
0.10223389 -0.0098114014 -0.25195312 0 0 0 0
0.1038208 -0.0098114014 -0.25195312 0 0 0 0
0.10534668 -0.0098114014 -0.25195312 0 0 0 0
0.10650635 -0.0097732544 -0.25097656 0 0 0 0
0.10803223 -0.0097732544 -0.25097656 0 0 0 0
0.10919189 -0.0097351074 -0.24987793 0 0 0 0
0.11029053 -0.0096969604 -0.24890137 0 0 0 0
0.11181641 -0.0096969604 -0.24890137 0 0 0 0
0.11291504 -0.0096588135 -0.2479248 0 0 0 0
0.11401367 -0.0096206665 -0.24694824 0 0 0 0
0.11553955 -0.0096206665 -0.24694824 0 0 0 0
0.14318848 -0.011611938 -0.2980957 0 0 0 0
0.14501953 -0.011611938 -0.2980957 0 0 0 0
0.14733887 -0.011650085 -0.29907227 0 0 0 0
0.020492554 -0.01600647 -0.35424805 0 0 0 0
0.022705078 -0.01600647 -0.35424805 0 0 0 0
0.024963379 -0.016052246 -0.35522461 0 0 0 0
0.027175903 -0.016052246 -0.35522461 0 0 0 0
0.029388428 -0.016052246 -0.35522461 0 0 0 0
0.031585693 -0.016052246 -0.35522461 0 0 0 0
0.033782959 -0.016052246 -0.35522461 0 0 0 0
0.036010742 -0.016052246 -0.35522461 0 0 0 0
0.038208008 -0.016052246 -0.35522461 0 0 0 0
0.040435791 -0.016052246 -0.35522461 0 0 0 0
0.042633057 -0.016052246 -0.35522461 0 0 0 0
0.044952393 -0.016098022 -0.35620117 0 0 0 0
0.047180176 -0.016098022 -0.35620117 0 0 0 0
0.049407959 -0.016098022 -0.35620117 0 0 0 0
0.051757812 -0.016143799 -0.35717773 0 0 0 0
0.084106445 -0.015960693 -0.35327148 0 0 0 0
0.086303711 -0.015960693 -0.35327148 0 0 0 0
0.088500977 -0.015960693 -0.35327148 0 0 0 0
0.090698242 -0.015960693 -0.35327148 0 0 0 0
0.092895508 -0.015960693 -0.35327148 0 0 0 0
0.095092773 -0.015960693 -0.35327148 0 0 0 0
0.097290039 -0.015960693 -0.35327148 0 0 0 0
0.099487305 -0.015960693 -0.35327148 0 0 0 0
0.10168457 -0.015960693 -0.35327148 0 0 0 0
0.10388184 -0.015960693 -0.35327148 0 0 0 0
0.1060791 -0.015960693 -0.35327148 0 0 0 0
0.10791016 -0.015914917 -0.35229492 0 0 0 0
0.11010742 -0.015914917 -0.35229492 0 0 0 0
0.11230469 -0.015914917 -0.35229492 0 0 0 0
0.11450195 -0.015914917 -0.35229492 0 0 0 0
