ply
format ascii 1.0
comment PCL generated
element vertex 1099
property float x
property float y
property float z
property float nx
property float ny
property float nz
property float curvature
element face 0
element camera 0
property float view_px
property float view_py
property float view_pz
property float x_axisx
property float x_axisy
property float x_axisz
property float y_axisx
property float y_axisy
property float y_axisz
property float z_axisx
property float z_axisy
property float z_axisz
property float focal
property float scalex
property float scaley
property float centerx
property float centery
property int viewportx
property int viewporty
property float k1
property float k2
end_header
0.04296875 0.083740234 -0.39941406 0 0 0 0
0.045227051 0.083312988 -0.39746094 0 0 0 0
0.047454834 0.082885742 -0.39550781 0 0 0 0
0.04977417 0.082641602 -0.39453125 0 0 0 0
0.051971436 0.082214355 -0.39233398 0 0 0 0
0.054138184 0.081787109 -0.39038086 0 0 0 0
0.056274414 0.081420898 -0.38842773 0 0 0 0
0.058532715 0.081176758 -0.38745117 0 0 0 0
0.06060791 0.080749512 -0.38549805 0 0 0 0
0.058074951 0.074462891 -0.35522461 0 0 0 0
0.060302734 0.074462891 -0.35522461 0 0 0 0
0.062316895 0.07421875 -0.35424805 0 0 0 0
0.06451416 0.07421875 -0.35424805 0 0 0 0
0.06652832 0.074035645 -0.35327148 0 0 0 0
0.06854248 0.073852539 -0.35229492 0 0 0 0
0.070495605 0.073608398 -0.35131836 0 0 0 0
0.072509766 0.073425293 -0.3503418 0 0 0 0
0.074462891 0.073181152 -0.34912109 0 0 0 0
0.076416016 0.072998047 -0.34814453 0 0 0 0
0.078369141 0.072753906 -0.34716797 0 0 0 0
0.08026123 0.072570801 -0.34619141 0 0 0 0
0.081970215 0.072143555 -0.34423828 0 0 0 0
0.083618164 0.071716309 -0.34228516 0 0 0 0
0.085205078 0.071289062 -0.34008789 0 0 0 0
0.086791992 0.070861816 -0.33813477 0 0 0 0
0.088378906 0.07043457 -0.33618164 0 0 0 0
0.08996582 0.070007324 -0.33422852 0 0 0 0
0.09173584 0.069824219 -0.33325195 0 0 0 0
0.093261719 0.069396973 -0.33105469 0 0 0 0
0.094726562 0.068969727 -0.32910156 0 0 0 0
0.096191406 0.06854248 -0.32714844 0 0 0 0
0.097595215 0.068115234 -0.32519531 0 0 0 0
0.099304199 0.067932129 -0.32421875 0 0 0 0
0.10070801 0.067504883 -0.32202148 0 0 0 0
0.10241699 0.067321777 -0.32104492 0 0 0 0
0.10406494 0.067077637 -0.32006836 0 0 0 0
0.10571289 0.066894531 -0.3190918 0 0 0 0
0.10736084 0.066650391 -0.31811523 0 0 0 0
0.10900879 0.066467285 -0.31713867 0 0 0 0
0.11096191 0.066467285 -0.31713867 0 0 0 0
0.11291504 0.066467285 -0.31713867 0 0 0 0
0.11456299 0.066223145 -0.31616211 0 0 0 0
0.11651611 0.066223145 -0.31616211 0 0 0 0
0.11810303 0.066040039 -0.31518555 0 0 0 0
0.1361084 0.074890137 -0.35717773 0 0 0 0
0.13830566 0.074890137 -0.35717773 0 0 0 0
0.14050293 0.074890137 -0.35717773 0 0 0 0
0.1427002 0.074890137 -0.35717773 0 0 0 0
0.14501953 0.074890137 -0.35717773 0 0 0 0
0.1472168 0.074890137 -0.35717773 0 0 0 0
0.14941406 0.074890137 -0.35717773 0 0 0 0
0.15161133 0.074890137 -0.35717773 0 0 0 0
0.15380859 0.074890137 -0.35717773 0 0 0 0
0.15612793 0.074890137 -0.35717773 0 0 0 0
0.1583252 0.074890137 -0.35717773 0 0 0 0
0.16052246 0.074890137 -0.35717773 0 0 0 0
0.16271973 0.074890137 -0.35717773 0 0 0 0
0.16491699 0.074890137 -0.35717773 0 0 0 0
0.16723633 0.074890137 -0.35717773 0 0 0 0
0.16943359 0.074890137 -0.35717773 0 0 0 0
0.17163086 0.074890137 -0.35717773 0 0 0 0
0.17382812 0.074890137 -0.35717773 0 0 0 0
0.17602539 0.074890137 -0.35717773 0 0 0 0
0.17834473 0.074890137 -0.35717773 0 0 0 0
0.18054199 0.074890137 -0.35717773 0 0 0 0
0.18273926 0.074890137 -0.35717773 0 0 0 0
0.18493652 0.074890137 -0.35717773 0 0 0 0
0.18713379 0.074890137 -0.35717773 0 0 0 0
0.18945312 0.074890137 -0.35717773 0 0 0 0
0.19104004 0.074645996 -0.35620117 0 0 0 0
0.1932373 0.074645996 -0.35620117 0 0 0 0
0.19555664 0.074645996 -0.35620117 0 0 0 0
0.19775391 0.074645996 -0.35620117 0 0 0 0
0.19995117 0.074645996 -0.35620117 0 0 0 0
0.20214844 0.074645996 -0.35620117 0 0 0 0
0.040679932 0.081665039 -0.40136719 0 0 0 0
0.04296875 0.081237793 -0.39941406 0 0 0 0
0.04510498 0.080627441 -0.39648438 0 0 0 0
0.047454834 0.080383301 -0.39550781 0 0 0 0
0.0496521 0.08001709 -0.39331055 0 0 0 0
0.051971436 0.079772949 -0.39233398 0 0 0 0
0.054138184 0.079406738 -0.39038086 0 0 0 0
0.056274414 0.078979492 -0.38842773 0 0 0 0
0.058532715 0.078796387 -0.38745117 0 0 0 0
0.057769775 0.071838379 -0.35327148 0 0 0 0
0.060119629 0.072021484 -0.35424805 0 0 0 0
0.062164307 0.071838379 -0.35327148 0 0 0 0
0.064331055 0.071838379 -0.35327148 0 0 0 0
0.066345215 0.071655273 -0.35229492 0 0 0 0
0.06854248 0.071655273 -0.35229492 0 0 0 0
0.070495605 0.071411133 -0.35131836 0 0 0 0
0.072509766 0.071228027 -0.3503418 0 0 0 0
0.074462891 0.071044922 -0.34912109 0 0 0 0
0.076416016 0.070800781 -0.34814453 0 0 0 0
0.078369141 0.070617676 -0.34716797 0 0 0 0
0.08026123 0.07043457 -0.34619141 0 0 0 0
0.08215332 0.07019043 -0.34521484 0 0 0 0
0.083862305 0.069824219 -0.34326172 0 0 0 0
0.085449219 0.069396973 -0.34130859 0 0 0 0
0.087097168 0.068969727 -0.33911133 0 0 0 0
0.088623047 0.06854248 -0.3371582 0 0 0 0
0.090209961 0.06817627 -0.33520508 0 0 0 0
0.092041016 0.067932129 -0.33422852 0 0 0 0
0.093505859 0.067565918 -0.33227539 0 0 0 0
0.095031738 0.067138672 -0.33007812 0 0 0 0
0.096496582 0.066711426 -0.328125 0 0 0 0
0.098205566 0.06652832 -0.32714844 0 0 0 0
0.099609375 0.066101074 -0.32519531 0 0 0 0
0.10101318 0.065734863 -0.32324219 0 0 0 0
0.10272217 0.065490723 -0.32202148 0 0 0 0
0.10437012 0.065307617 -0.32104492 0 0 0 0
0.1060791 0.065124512 -0.32006836 0 0 0 0
0.10772705 0.064880371 -0.3190918 0 0 0 0
0.109375 0.064697266 -0.31811523 0 0 0 0
0.11132812 0.064697266 -0.31811523 0 0 0 0
0.11328125 0.064697266 -0.31811523 0 0 0 0
0.1149292 0.06451416 -0.31713867 0 0 0 0
0.11651611 0.06427002 -0.31616211 0 0 0 0
0.1361084 0.072631836 -0.35717773 0 0 0 0
0.13830566 0.072631836 -0.35717773 0 0 0 0
0.14050293 0.072631836 -0.35717773 0 0 0 0
0.1427002 0.072631836 -0.35717773 0 0 0 0
0.14501953 0.072631836 -0.35717773 0 0 0 0
0.1472168 0.072631836 -0.35717773 0 0 0 0
0.14941406 0.072631836 -0.35717773 0 0 0 0
0.15161133 0.072631836 -0.35717773 0 0 0 0
0.15380859 0.072631836 -0.35717773 0 0 0 0
0.15612793 0.072631836 -0.35717773 0 0 0 0
0.1583252 0.072631836 -0.35717773 0 0 0 0
0.16052246 0.072631836 -0.35717773 0 0 0 0
0.16271973 0.072631836 -0.35717773 0 0 0 0
0.16491699 0.072631836 -0.35717773 0 0 0 0
0.16723633 0.072631836 -0.35717773 0 0 0 0
0.16943359 0.072631836 -0.35717773 0 0 0 0
0.17163086 0.072631836 -0.35717773 0 0 0 0
0.17382812 0.072631836 -0.35717773 0 0 0 0
0.17602539 0.072631836 -0.35717773 0 0 0 0
0.17834473 0.072631836 -0.35717773 0 0 0 0
0.18054199 0.072631836 -0.35717773 0 0 0 0
0.18273926 0.072631836 -0.35717773 0 0 0 0
0.18493652 0.072631836 -0.35717773 0 0 0 0
0.18713379 0.072631836 -0.35717773 0 0 0 0
0.18884277 0.07244873 -0.35620117 0 0 0 0
0.19104004 0.07244873 -0.35620117 0 0 0 0
0.1932373 0.07244873 -0.35620117 0 0 0 0
0.19555664 0.07244873 -0.35620117 0 0 0 0
0.19775391 0.07244873 -0.35620117 0 0 0 0
0.19995117 0.07244873 -0.35620117 0 0 0 0
0.20214844 0.07244873 -0.35620117 0 0 0 0
0.2043457 0.07244873 -0.35620117 0 0 0 0
0.040588379 0.078918457 -0.40039062 0 0 0 0
0.04284668 0.078552246 -0.3984375 0 0 0 0
0.04510498 0.078125 -0.39648438 0 0 0 0
0.047454834 0.077941895 -0.39550781 0 0 0 0
0.0496521 0.077575684 -0.39331055 0 0 0 0
0.051971436 0.077331543 -0.39233398 0 0 0 0
0.054138184 0.076965332 -0.39038086 0 0 0 0
0.05758667 0.069458008 -0.35229492 0 0 0 0
0.059783936 0.069458008 -0.35229492 0 0 0 0
0.061981201 0.069458008 -0.35229492 0 0 0 0
0.064147949 0.069458008 -0.35229492 0 0 0 0
0.066345215 0.069458008 -0.35229492 0 0 0 0
0.068359375 0.069274902 -0.35131836 0 0 0 0
0.0703125 0.069030762 -0.3503418 0 0 0 0
0.072509766 0.069030762 -0.3503418 0 0 0 0
0.074462891 0.068847656 -0.34912109 0 0 0 0
0.076416016 0.068664551 -0.34814453 0 0 0 0
0.078369141 0.068481445 -0.34716797 0 0 0 0
0.08026123 0.068237305 -0.34619141 0 0 0 0
0.08215332 0.068054199 -0.34521484 0 0 0 0
0.084106445 0.067871094 -0.34423828 0 0 0 0
0.085693359 0.067443848 -0.34228516 0 0 0 0
0.087341309 0.067077637 -0.34008789 0 0 0 0
0.088928223 0.066650391 -0.33813477 0 0 0 0
0.090454102 0.06628418 -0.33618164 0 0 0 0
0.092285156 0.066101074 -0.33520508 0 0 0 0
0.093811035 0.065673828 -0.33325195 0 0 0 0
0.095275879 0.065307617 -0.33105469 0 0 0 0
0.096801758 0.064880371 -0.32910156 0 0 0 0
0.098510742 0.064697266 -0.328125 0 0 0 0
0.099914551 0.06427002 -0.32617188 0 0 0 0
0.10131836 0.063903809 -0.32421875 0 0 0 0
0.10302734 0.063720703 -0.32324219 0 0 0 0
0.10473633 0.063476562 -0.32202148 0 0 0 0
0.10638428 0.063293457 -0.32104492 0 0 0 0
0.10803223 0.063110352 -0.32006836 0 0 0 0
0.11004639 0.063110352 -0.32006836 0 0 0 0
0.11169434 0.062927246 -0.3190918 0 0 0 0
0.11364746 0.062927246 -0.3190918 0 0 0 0
0.11529541 0.062683105 -0.31811523 0 0 0 0
0.11688232 0.0625 -0.31713867 0 0 0 0
0.13354492 0.070251465 -0.35620117 0 0 0 0
0.1361084 0.07043457 -0.35717773 0 0 0 0
0.13830566 0.07043457 -0.35717773 0 0 0 0
0.14050293 0.07043457 -0.35717773 0 0 0 0
0.1427002 0.07043457 -0.35717773 0 0 0 0
0.14501953 0.07043457 -0.35717773 0 0 0 0
0.1472168 0.07043457 -0.35717773 0 0 0 0
0.14941406 0.07043457 -0.35717773 0 0 0 0
0.15161133 0.07043457 -0.35717773 0 0 0 0
0.15380859 0.07043457 -0.35717773 0 0 0 0
0.15612793 0.07043457 -0.35717773 0 0 0 0
0.1583252 0.07043457 -0.35717773 0 0 0 0
0.16052246 0.07043457 -0.35717773 0 0 0 0
0.16271973 0.07043457 -0.35717773 0 0 0 0
0.16491699 0.07043457 -0.35717773 0 0 0 0
0.16723633 0.07043457 -0.35717773 0 0 0 0
0.16943359 0.07043457 -0.35717773 0 0 0 0
0.17163086 0.07043457 -0.35717773 0 0 0 0
0.17382812 0.07043457 -0.35717773 0 0 0 0
0.17602539 0.07043457 -0.35717773 0 0 0 0
0.17834473 0.07043457 -0.35717773 0 0 0 0
0.18054199 0.07043457 -0.35717773 0 0 0 0
0.18273926 0.07043457 -0.35717773 0 0 0 0
0.18493652 0.07043457 -0.35717773 0 0 0 0
0.18713379 0.07043457 -0.35717773 0 0 0 0
0.18884277 0.070251465 -0.35620117 0 0 0 0
0.19104004 0.070251465 -0.35620117 0 0 0 0
0.1932373 0.070251465 -0.35620117 0 0 0 0
0.19555664 0.070251465 -0.35620117 0 0 0 0
0.19775391 0.070251465 -0.35620117 0 0 0 0
0.19995117 0.070251465 -0.35620117 0 0 0 0
0.20214844 0.070251465 -0.35620117 0 0 0 0
0.2043457 0.070251465 -0.35620117 0 0 0 0
0.036560059 0.073364258 -0.38427734 0 0 0 0
0.040496826 0.07623291 -0.39941406 0 0 0 0
0.04284668 0.076049805 -0.3984375 0 0 0 0
0.04498291 0.075500488 -0.39550781 0 0 0 0
0.047576904 0.075683594 -0.39648438 0 0 0 0
0.04977417 0.075317383 -0.39453125 0 0 0 0
0.050445557 0.066467285 -0.34814453 0 0 0 0
0.052764893 0.066650391 -0.34912109 0 0 0 0
0.054931641 0.066650391 -0.34912109 0 0 0 0
0.057434082 0.067077637 -0.35131836 0 0 0 0
0.05960083 0.067077637 -0.35131836 0 0 0 0
0.061798096 0.067077637 -0.35131836 0 0 0 0
0.063964844 0.067077637 -0.35131836 0 0 0 0
0.066162109 0.067077637 -0.35131836 0 0 0 0
0.068359375 0.067077637 -0.35131836 0 0 0 0
0.0703125 0.066894531 -0.3503418 0 0 0 0
0.072509766 0.066894531 -0.3503418 0 0 0 0
0.074462891 0.066650391 -0.34912109 0 0 0 0
0.076416016 0.066467285 -0.34814453 0 0 0 0
0.078552246 0.066467285 -0.34814453 0 0 0 0
0.080505371 0.06628418 -0.34716797 0 0 0 0
0.082397461 0.066101074 -0.34619141 0 0 0 0
0.084350586 0.065917969 -0.34521484 0 0 0 0
0.085998535 0.065551758 -0.34326172 0 0 0 0
0.087585449 0.065124512 -0.34130859 0 0 0 0
0.089172363 0.064758301 -0.33911133 0 0 0 0
0.090759277 0.06439209 -0.3371582 0 0 0 0
0.092590332 0.064208984 -0.33618164 0 0 0 0
0.094116211 0.063781738 -0.33422852 0 0 0 0
0.095581055 0.063415527 -0.33227539 0 0 0 0
0.097045898 0.063049316 -0.33007812 0 0 0 0
0.098815918 0.062866211 -0.32910156 0 0 0 0
0.10021973 0.062469482 -0.32714844 0 0 0 0
0.10198975 0.062286377 -0.32617188 0 0 0 0
0.10333252 0.061889648 -0.32421875 0 0 0 0
0.1050415 0.061706543 -0.32324219 0 0 0 0
0.10675049 0.061523438 -0.32202148 0 0 0 0
0.10839844 0.061340332 -0.32104492 0 0 0 0
0.11035156 0.061340332 -0.32104492 0 0 0 0
0.11199951 0.061126709 -0.32006836 0 0 0 0
0.11401367 0.061126709 -0.32006836 0 0 0 0
0.11566162 0.060943604 -0.3190918 0 0 0 0
0.13122559 0.067993164 -0.35620117 0 0 0 0
0.13354492 0.067993164 -0.35620117 0 0 0 0
0.13574219 0.067993164 -0.35620117 0 0 0 0
0.13830566 0.068237305 -0.35717773 0 0 0 0
0.14050293 0.068237305 -0.35717773 0 0 0 0
0.1427002 0.068237305 -0.35717773 0 0 0 0
0.14501953 0.068237305 -0.35717773 0 0 0 0
0.1472168 0.068237305 -0.35717773 0 0 0 0
0.14941406 0.068237305 -0.35717773 0 0 0 0
0.15161133 0.068237305 -0.35717773 0 0 0 0
0.15380859 0.068237305 -0.35717773 0 0 0 0
0.15612793 0.068237305 -0.35717773 0 0 0 0
0.1583252 0.068237305 -0.35717773 0 0 0 0
0.16052246 0.068237305 -0.35717773 0 0 0 0
0.16271973 0.068237305 -0.35717773 0 0 0 0
0.16491699 0.068237305 -0.35717773 0 0 0 0
0.16723633 0.068237305 -0.35717773 0 0 0 0
0.16943359 0.068237305 -0.35717773 0 0 0 0
0.17163086 0.068237305 -0.35717773 0 0 0 0
0.17382812 0.068237305 -0.35717773 0 0 0 0
0.17602539 0.068237305 -0.35717773 0 0 0 0
0.17834473 0.068237305 -0.35717773 0 0 0 0
0.18054199 0.068237305 -0.35717773 0 0 0 0
0.18273926 0.068237305 -0.35717773 0 0 0 0
0.18493652 0.068237305 -0.35717773 0 0 0 0
0.18713379 0.068237305 -0.35717773 0 0 0 0
0.18884277 0.067993164 -0.35620117 0 0 0 0
0.19104004 0.067993164 -0.35620117 0 0 0 0
0.1932373 0.067993164 -0.35620117 0 0 0 0
0.19555664 0.067993164 -0.35620117 0 0 0 0
0.19775391 0.067993164 -0.35620117 0 0 0 0
0.19995117 0.067993164 -0.35620117 0 0 0 0
0.20214844 0.067993164 -0.35620117 0 0 0 0
0.2043457 0.067993164 -0.35620117 0 0 0 0
0.031616211 0.070617676 -0.38232422 0 0 0 0
0.033996582 0.070617676 -0.38232422 0 0 0 0
0.036468506 0.070800781 -0.38330078 0 0 0 0
0.038848877 0.070800781 -0.38330078 0 0 0 0
0.041351318 0.070983887 -0.38427734 0 0 0 0
0.044525146 0.07232666 -0.39135742 0 0 0 0
0.048126221 0.064147949 -0.34716797 0 0 0 0
0.050292969 0.064147949 -0.34716797 0 0 0 0
0.052612305 0.064331055 -0.34814453 0 0 0 0
0.054779053 0.064331055 -0.34814453 0 0 0 0
0.057098389 0.06451416 -0.34912109 0 0 0 0
0.059448242 0.064697266 -0.3503418 0 0 0 0
0.06161499 0.064697266 -0.3503418 0 0 0 0
0.063781738 0.064697266 -0.3503418 0 0 0 0
0.065979004 0.064697266 -0.3503418 0 0 0 0
0.068115234 0.064697266 -0.3503418 0 0 0 0
0.0703125 0.064697266 -0.3503418 0 0 0 0
0.072265625 0.06451416 -0.34912109 0 0 0 0
0.074462891 0.06451416 -0.34912109 0 0 0 0
0.076416016 0.064331055 -0.34814453 0 0 0 0
0.078552246 0.064331055 -0.34814453 0 0 0 0
0.080505371 0.064147949 -0.34716797 0 0 0 0
0.082397461 0.063964844 -0.34619141 0 0 0 0
0.084350586 0.063781738 -0.34521484 0 0 0 0
0.086242676 0.063598633 -0.34423828 0 0 0 0
0.08782959 0.063232422 -0.34228516 0 0 0 0
0.089416504 0.062866211 -0.34008789 0 0 0 0
0.091003418 0.062469482 -0.33813477 0 0 0 0
0.092834473 0.062286377 -0.3371582 0 0 0 0
0.094360352 0.061920166 -0.33520508 0 0 0 0
0.09588623 0.061553955 -0.33325195 0 0 0 0
0.097351074 0.061187744 -0.33105469 0 0 0 0
0.099121094 0.061004639 -0.33007812 0 0 0 0
0.10058594 0.060638428 -0.328125 0 0 0 0
0.10229492 0.060455322 -0.32714844 0 0 0 0
0.10369873 0.060058594 -0.32519531 0 0 0 0
0.10534668 0.059875488 -0.32421875 0 0 0 0
0.10705566 0.059692383 -0.32324219 0 0 0 0
0.10906982 0.059692383 -0.32324219 0 0 0 0
0.11071777 0.059509277 -0.32202148 0 0 0 0
0.11236572 0.059326172 -0.32104492 0 0 0 0
0.11437988 0.059326172 -0.32104492 0 0 0 0
0.11602783 0.059143066 -0.32006836 0 0 0 0
0.13122559 0.065795898 -0.35620117 0 0 0 0
0.13354492 0.065795898 -0.35620117 0 0 0 0
0.13574219 0.065795898 -0.35620117 0 0 0 0
0.13793945 0.065795898 -0.35620117 0 0 0 0
0.14050293 0.065979004 -0.35717773 0 0 0 0
0.1427002 0.065979004 -0.35717773 0 0 0 0
0.14501953 0.065979004 -0.35717773 0 0 0 0
0.1472168 0.065979004 -0.35717773 0 0 0 0
0.14941406 0.065979004 -0.35717773 0 0 0 0
0.15161133 0.065979004 -0.35717773 0 0 0 0
0.15380859 0.065979004 -0.35717773 0 0 0 0
0.15612793 0.065979004 -0.35717773 0 0 0 0
0.1583252 0.065979004 -0.35717773 0 0 0 0
0.16052246 0.065979004 -0.35717773 0 0 0 0
0.16271973 0.065979004 -0.35717773 0 0 0 0
0.16491699 0.065979004 -0.35717773 0 0 0 0
0.16723633 0.065979004 -0.35717773 0 0 0 0
0.16894531 0.065795898 -0.35620117 0 0 0 0
0.17114258 0.065795898 -0.35620117 0 0 0 0
0.17333984 0.065795898 -0.35620117 0 0 0 0
0.17602539 0.065979004 -0.35717773 0 0 0 0
0.17834473 0.065979004 -0.35717773 0 0 0 0
0.18054199 0.065979004 -0.35717773 0 0 0 0
0.18273926 0.065979004 -0.35717773 0 0 0 0
0.18493652 0.065979004 -0.35717773 0 0 0 0
0.18713379 0.065979004 -0.35717773 0 0 0 0
0.18884277 0.065795898 -0.35620117 0 0 0 0
0.19104004 0.065795898 -0.35620117 0 0 0 0
0.1932373 0.065795898 -0.35620117 0 0 0 0
0.19555664 0.065795898 -0.35620117 0 0 0 0
0.19775391 0.065795898 -0.35620117 0 0 0 0
0.19995117 0.065795898 -0.35620117 0 0 0 0
0.20214844 0.065795898 -0.35620117 0 0 0 0
0.2043457 0.065795898 -0.35620117 0 0 0 0
0.029251099 0.068237305 -0.38232422 0 0 0 0
0.031616211 0.068237305 -0.38232422 0 0 0 0
0.033996582 0.068237305 -0.38232422 0 0 0 0
0.036376953 0.068237305 -0.38232422 0 0 0 0
0.038757324 0.068237305 -0.38232422 0 0 0 0
0.041229248 0.06842041 -0.38330078 0 0 0 0
0.045837402 0.061828613 -0.34619141 0 0 0 0
0.04800415 0.061828613 -0.34619141 0 0 0 0
0.050292969 0.061981201 -0.34716797 0 0 0 0
0.052459717 0.061981201 -0.34716797 0 0 0 0
0.054626465 0.061981201 -0.34716797 0 0 0 0
0.056945801 0.062164307 -0.34814453 0 0 0 0
0.059112549 0.062164307 -0.34814453 0 0 0 0
0.061431885 0.062347412 -0.34912109 0 0 0 0
0.063598633 0.062347412 -0.34912109 0 0 0 0
0.065795898 0.062347412 -0.34912109 0 0 0 0
0.067932129 0.062347412 -0.34912109 0 0 0 0
0.070129395 0.062347412 -0.34912109 0 0 0 0
0.072265625 0.062347412 -0.34912109 0 0 0 0
0.074462891 0.062347412 -0.34912109 0 0 0 0
0.076416016 0.062164307 -0.34814453 0 0 0 0
0.078552246 0.062164307 -0.34814453 0 0 0 0
0.080749512 0.062164307 -0.34814453 0 0 0 0
0.082641602 0.061981201 -0.34716797 0 0 0 0
0.084594727 0.061828613 -0.34619141 0 0 0 0
0.086242676 0.061462402 -0.34423828 0 0 0 0
0.08807373 0.061279297 -0.34326172 0 0 0 0
0.08972168 0.060913086 -0.34130859 0 0 0 0
0.091308594 0.060546875 -0.33911133 0 0 0 0
0.092834473 0.060211182 -0.3371582 0 0 0 0
0.094665527 0.060028076 -0.33618164 0 0 0 0
0.096191406 0.059661865 -0.33422852 0 0 0 0
0.09765625 0.059295654 -0.33227539 0 0 0 0
0.09942627 0.059112549 -0.33105469 0 0 0 0
0.10089111 0.058776855 -0.32910156 0 0 0 0
0.1026001 0.05859375 -0.328125 0 0 0 0
0.10400391 0.058227539 -0.32617188 0 0 0 0
0.10571289 0.058044434 -0.32519531 0 0 0 0
0.10736084 0.057861328 -0.32421875 0 0 0 0
0.109375 0.057861328 -0.32421875 0 0 0 0
0.11108398 0.057678223 -0.32324219 0 0 0 0
0.11309814 0.057678223 -0.32324219 0 0 0 0
0.11437988 0.057342529 -0.32104492 0 0 0 0
0.12902832 0.063598633 -0.35620117 0 0 0 0
0.13122559 0.063598633 -0.35620117 0 0 0 0
0.13354492 0.063598633 -0.35620117 0 0 0 0
0.13574219 0.063598633 -0.35620117 0 0 0 0
0.13793945 0.063598633 -0.35620117 0 0 0 0
0.14050293 0.063781738 -0.35717773 0 0 0 0
0.1427002 0.063781738 -0.35717773 0 0 0 0
0.14501953 0.063781738 -0.35717773 0 0 0 0
0.1472168 0.063781738 -0.35717773 0 0 0 0
0.14941406 0.063781738 -0.35717773 0 0 0 0
0.15161133 0.063781738 -0.35717773 0 0 0 0
0.15380859 0.063781738 -0.35717773 0 0 0 0
0.15612793 0.063781738 -0.35717773 0 0 0 0
0.1583252 0.063781738 -0.35717773 0 0 0 0
0.16052246 0.063781738 -0.35717773 0 0 0 0
0.16271973 0.063781738 -0.35717773 0 0 0 0
0.16491699 0.063781738 -0.35717773 0 0 0 0
0.16674805 0.063598633 -0.35620117 0 0 0 0
0.16894531 0.063598633 -0.35620117 0 0 0 0
0.17114258 0.063598633 -0.35620117 0 0 0 0
0.17333984 0.063598633 -0.35620117 0 0 0 0
0.17553711 0.063598633 -0.35620117 0 0 0 0
0.17834473 0.063781738 -0.35717773 0 0 0 0
0.18054199 0.063781738 -0.35717773 0 0 0 0
0.18273926 0.063781738 -0.35717773 0 0 0 0
0.18493652 0.063781738 -0.35717773 0 0 0 0
0.18713379 0.063781738 -0.35717773 0 0 0 0
0.18884277 0.063598633 -0.35620117 0 0 0 0
0.19104004 0.063598633 -0.35620117 0 0 0 0
0.1932373 0.063598633 -0.35620117 0 0 0 0
0.19555664 0.063598633 -0.35620117 0 0 0 0
0.19775391 0.063598633 -0.35620117 0 0 0 0
0.19995117 0.063598633 -0.35620117 0 0 0 0
0.20214844 0.063598633 -0.35620117 0 0 0 0
0.2043457 0.063598633 -0.35620117 0 0 0 0
0.026870728 0.065856934 -0.38232422 0 0 0 0
0.029251099 0.065856934 -0.38232422 0 0 0 0
0.031616211 0.065856934 -0.38232422 0 0 0 0
0.033996582 0.065856934 -0.38232422 0 0 0 0
0.036376953 0.065856934 -0.38232422 0 0 0 0
0.038757324 0.065856934 -0.38232422 0 0 0 0
0.041137695 0.065856934 -0.38232422 0 0 0 0
0.045837402 0.059661865 -0.34619141 0 0 0 0
0.04800415 0.059661865 -0.34619141 0 0 0 0
0.050140381 0.059661865 -0.34619141 0 0 0 0
0.052307129 0.059661865 -0.34619141 0 0 0 0
0.054626465 0.059844971 -0.34716797 0 0 0 0
0.056762695 0.059844971 -0.34716797 0 0 0 0
0.058929443 0.059844971 -0.34716797 0 0 0 0
0.061279297 0.059997559 -0.34814453 0 0 0 0
0.063415527 0.059997559 -0.34814453 0 0 0 0
0.065551758 0.059997559 -0.34814453 0 0 0 0
0.067749023 0.059997559 -0.34814453 0 0 0 0
0.069885254 0.059997559 -0.34814453 0 0 0 0
0.072265625 0.060180664 -0.34912109 0 0 0 0
0.074462891 0.060180664 -0.34912109 0 0 0 0
0.076416016 0.059997559 -0.34814453 0 0 0 0
0.078552246 0.059997559 -0.34814453 0 0 0 0
0.080749512 0.059997559 -0.34814453 0 0 0 0
0.082641602 0.059844971 -0.34716797 0 0 0 0
0.084838867 0.059844971 -0.34716797 0 0 0 0
0.086486816 0.05947876 -0.34521484 0 0 0 0
0.08807373 0.059143066 -0.34326172 0 0 0 0
0.08972168 0.058807373 -0.34130859 0 0 0 0
0.091308594 0.058441162 -0.33911133 0 0 0 0
0.093139648 0.058288574 -0.33813477 0 0 0 0
0.094665527 0.057922363 -0.33618164 0 0 0 0
0.096435547 0.057769775 -0.33520508 0 0 0 0
0.097961426 0.057403564 -0.33325195 0 0 0 0
0.099731445 0.057250977 -0.33227539 0 0 0 0
0.10119629 0.056884766 -0.33007812 0 0 0 0
0.1026001 0.056549072 -0.328125 0 0 0 0
0.10430908 0.056365967 -0.32714844 0 0 0 0
0.10601807 0.056213379 -0.32617188 0 0 0 0
0.10772705 0.056030273 -0.32519531 0 0 0 0
0.10974121 0.056030273 -0.32519531 0 0 0 0
0.11138916 0.055847168 -0.32421875 0 0 0 0
0.11309814 0.05569458 -0.32324219 0 0 0 0
0.12683105 0.061401367 -0.35620117 0 0 0 0
0.12902832 0.061401367 -0.35620117 0 0 0 0
0.13122559 0.061401367 -0.35620117 0 0 0 0
0.13354492 0.061401367 -0.35620117 0 0 0 0
0.13574219 0.061401367 -0.35620117 0 0 0 0
0.13793945 0.061401367 -0.35620117 0 0 0 0
0.14050293 0.061553955 -0.35717773 0 0 0 0
0.1427002 0.061553955 -0.35717773 0 0 0 0
0.14501953 0.061553955 -0.35717773 0 0 0 0
0.1472168 0.061553955 -0.35717773 0 0 0 0
0.14941406 0.061553955 -0.35717773 0 0 0 0
0.15161133 0.061553955 -0.35717773 0 0 0 0
0.15380859 0.061553955 -0.35717773 0 0 0 0
0.15612793 0.061553955 -0.35717773 0 0 0 0
0.1583252 0.061553955 -0.35717773 0 0 0 0
0.16052246 0.061553955 -0.35717773 0 0 0 0
0.16271973 0.061553955 -0.35717773 0 0 0 0
0.16491699 0.061553955 -0.35717773 0 0 0 0
0.16674805 0.061401367 -0.35620117 0 0 0 0
0.16894531 0.061401367 -0.35620117 0 0 0 0
0.17114258 0.061401367 -0.35620117 0 0 0 0
0.17333984 0.061401367 -0.35620117 0 0 0 0
0.17553711 0.061401367 -0.35620117 0 0 0 0
0.17773438 0.061401367 -0.35620117 0 0 0 0
0.18005371 0.061401367 -0.35620117 0 0 0 0
0.18225098 0.061401367 -0.35620117 0 0 0 0
0.18444824 0.061401367 -0.35620117 0 0 0 0
0.18664551 0.061401367 -0.35620117 0 0 0 0
0.18884277 0.061401367 -0.35620117 0 0 0 0
0.19104004 0.061401367 -0.35620117 0 0 0 0
0.1932373 0.061401367 -0.35620117 0 0 0 0
0.19555664 0.061401367 -0.35620117 0 0 0 0
0.19775391 0.061401367 -0.35620117 0 0 0 0
0.19995117 0.061401367 -0.35620117 0 0 0 0
0.20214844 0.061401367 -0.35620117 0 0 0 0
0.2043457 0.061401367 -0.35620117 0 0 0 0
0.026870728 0.063476562 -0.38232422 0 0 0 0
0.029251099 0.063476562 -0.38232422 0 0 0 0
0.031616211 0.063476562 -0.38232422 0 0 0 0
0.033996582 0.063476562 -0.38232422 0 0 0 0
0.036376953 0.063476562 -0.38232422 0 0 0 0
0.038757324 0.063476562 -0.38232422 0 0 0 0
0.041137695 0.063476562 -0.38232422 0 0 0 0
0.045837402 0.057495117 -0.34619141 0 0 0 0
0.04800415 0.057495117 -0.34619141 0 0 0 0
0.050140381 0.057495117 -0.34619141 0 0 0 0
0.052307129 0.057495117 -0.34619141 0 0 0 0
0.054443359 0.057495117 -0.34619141 0 0 0 0
0.056610107 0.057495117 -0.34619141 0 0 0 0
0.058929443 0.057678223 -0.34716797 0 0 0 0
0.061096191 0.057678223 -0.34716797 0 0 0 0
0.063232422 0.057678223 -0.34716797 0 0 0 0
0.065368652 0.057678223 -0.34716797 0 0 0 0
0.067749023 0.057830811 -0.34814453 0 0 0 0
0.069885254 0.057830811 -0.34814453 0 0 0 0
0.07208252 0.057830811 -0.34814453 0 0 0 0
0.07421875 0.057830811 -0.34814453 0 0 0 0
0.076599121 0.058013916 -0.34912109 0 0 0 0
0.078552246 0.057830811 -0.34814453 0 0 0 0
0.080749512 0.057830811 -0.34814453 0 0 0 0
0.082885742 0.057830811 -0.34814453 0 0 0 0
0.084838867 0.057678223 -0.34716797 0 0 0 0
0.086486816 0.057342529 -0.34521484 0 0 0 0
0.08807373 0.057006836 -0.34326172 0 0 0 0
0.08996582 0.056854248 -0.34228516 0 0 0 0
0.091552734 0.056518555 -0.34008789 0 0 0 0
0.093139648 0.056182861 -0.33813477 0 0 0 0
0.094665527 0.055847168 -0.33618164 0 0 0 0
0.096435547 0.055664062 -0.33520508 0 0 0 0
0.098266602 0.055511475 -0.33422852 0 0 0 0
0.10003662 0.055328369 -0.33325195 0 0 0 0
0.10150146 0.055023193 -0.33105469 0 0 0 0
0.10290527 0.0546875 -0.32910156 0 0 0 0
0.10461426 0.054504395 -0.328125 0 0 0 0
0.10632324 0.054351807 -0.32714844 0 0 0 0
0.10803223 0.054168701 -0.32617188 0 0 0 0
0.10974121 0.054016113 -0.32519531 0 0 0 0
0.11175537 0.054016113 -0.32519531 0 0 0 0
0.12469482 0.059173584 -0.35620117 0 0 0 0
0.12683105 0.059173584 -0.35620117 0 0 0 0
0.12902832 0.059173584 -0.35620117 0 0 0 0
0.13122559 0.059173584 -0.35620117 0 0 0 0
0.13354492 0.059173584 -0.35620117 0 0 0 0
0.13574219 0.059173584 -0.35620117 0 0 0 0
0.13830566 0.059356689 -0.35717773 0 0 0 0
0.14050293 0.059356689 -0.35717773 0 0 0 0
0.1427002 0.059356689 -0.35717773 0 0 0 0
0.14501953 0.059356689 -0.35717773 0 0 0 0
0.1472168 0.059356689 -0.35717773 0 0 0 0
0.14941406 0.059356689 -0.35717773 0 0 0 0
0.15161133 0.059356689 -0.35717773 0 0 0 0
0.15380859 0.059356689 -0.35717773 0 0 0 0
0.15612793 0.059356689 -0.35717773 0 0 0 0
0.1583252 0.059356689 -0.35717773 0 0 0 0
0.16052246 0.059356689 -0.35717773 0 0 0 0
0.16271973 0.059356689 -0.35717773 0 0 0 0
0.16455078 0.059173584 -0.35620117 0 0 0 0
0.16674805 0.059173584 -0.35620117 0 0 0 0
0.16894531 0.059173584 -0.35620117 0 0 0 0
0.17114258 0.059173584 -0.35620117 0 0 0 0
0.17333984 0.059173584 -0.35620117 0 0 0 0
0.17553711 0.059173584 -0.35620117 0 0 0 0
0.17773438 0.059173584 -0.35620117 0 0 0 0
0.18005371 0.059173584 -0.35620117 0 0 0 0
0.18225098 0.059173584 -0.35620117 0 0 0 0
0.18444824 0.059173584 -0.35620117 0 0 0 0
0.18664551 0.059173584 -0.35620117 0 0 0 0
0.18884277 0.059173584 -0.35620117 0 0 0 0
0.19104004 0.059173584 -0.35620117 0 0 0 0
0.1932373 0.059173584 -0.35620117 0 0 0 0
0.19555664 0.059173584 -0.35620117 0 0 0 0
0.19775391 0.059173584 -0.35620117 0 0 0 0
0.19995117 0.059173584 -0.35620117 0 0 0 0
0.20214844 0.059173584 -0.35620117 0 0 0 0
0.2043457 0.059173584 -0.35620117 0 0 0 0
0.026870728 0.061126709 -0.38232422 0 0 0 0
0.029251099 0.061126709 -0.38232422 0 0 0 0
0.031616211 0.061126709 -0.38232422 0 0 0 0
0.033996582 0.061126709 -0.38232422 0 0 0 0
0.036376953 0.061126709 -0.38232422 0 0 0 0
0.038757324 0.061126709 -0.38232422 0 0 0 0
0.041137695 0.061126709 -0.38232422 0 0 0 0
0.045837402 0.055358887 -0.34619141 0 0 0 0
0.04800415 0.055358887 -0.34619141 0 0 0 0
0.050140381 0.055358887 -0.34619141 0 0 0 0
0.052307129 0.055358887 -0.34619141 0 0 0 0
0.054443359 0.055358887 -0.34619141 0 0 0 0
0.056610107 0.055358887 -0.34619141 0 0 0 0
0.058776855 0.055358887 -0.34619141 0 0 0 0
0.060913086 0.055358887 -0.34619141 0 0 0 0
0.063232422 0.055511475 -0.34716797 0 0 0 0
0.065368652 0.055511475 -0.34716797 0 0 0 0
0.067565918 0.055511475 -0.34716797 0 0 0 0
0.069885254 0.055664062 -0.34814453 0 0 0 0
0.07208252 0.055664062 -0.34814453 0 0 0 0
0.07421875 0.055664062 -0.34814453 0 0 0 0
0.076599121 0.055847168 -0.34912109 0 0 0 0
0.078796387 0.055847168 -0.34912109 0 0 0 0
0.080993652 0.055847168 -0.34912109 0 0 0 0
0.082885742 0.055664062 -0.34814453 0 0 0 0
0.085083008 0.055664062 -0.34814453 0 0 0 0
0.086975098 0.055511475 -0.34716797 0 0 0 0
0.091308594 0.054229736 -0.33911133 0 0 0 0
0.093139648 0.054077148 -0.33813477 0 0 0 0
0.094970703 0.053924561 -0.3371582 0 0 0 0
0.096435547 0.053588867 -0.33520508 0 0 0 0
0.098266602 0.053436279 -0.33422852 0 0 0 0
0.10003662 0.053283691 -0.33325195 0 0 0 0
0.10180664 0.053100586 -0.33227539 0 0 0 0
0.11358643 0.056976318 -0.35620117 0 0 0 0
0.11578369 0.056976318 -0.35620117 0 0 0 0
0.12023926 0.056976318 -0.35620117 0 0 0 0
0.12243652 0.056976318 -0.35620117 0 0 0 0
0.12469482 0.056976318 -0.35620117 0 0 0 0
0.12683105 0.056976318 -0.35620117 0 0 0 0
0.12902832 0.056976318 -0.35620117 0 0 0 0
0.13122559 0.056976318 -0.35620117 0 0 0 0
0.13354492 0.056976318 -0.35620117 0 0 0 0
0.13574219 0.056976318 -0.35620117 0 0 0 0
0.13830566 0.057128906 -0.35717773 0 0 0 0
0.14050293 0.057128906 -0.35717773 0 0 0 0
0.1427002 0.057128906 -0.35717773 0 0 0 0
0.14501953 0.057128906 -0.35717773 0 0 0 0
0.1472168 0.057128906 -0.35717773 0 0 0 0
0.14941406 0.057128906 -0.35717773 0 0 0 0
0.15161133 0.057128906 -0.35717773 0 0 0 0
0.15380859 0.057128906 -0.35717773 0 0 0 0
0.15612793 0.057128906 -0.35717773 0 0 0 0
0.1583252 0.057128906 -0.35717773 0 0 0 0
0.16052246 0.057128906 -0.35717773 0 0 0 0
0.16271973 0.057128906 -0.35717773 0 0 0 0
0.16455078 0.056976318 -0.35620117 0 0 0 0
0.16674805 0.056976318 -0.35620117 0 0 0 0
0.16894531 0.056976318 -0.35620117 0 0 0 0
0.17114258 0.056976318 -0.35620117 0 0 0 0
0.17333984 0.056976318 -0.35620117 0 0 0 0
0.17553711 0.056976318 -0.35620117 0 0 0 0
0.17773438 0.056976318 -0.35620117 0 0 0 0
0.18005371 0.056976318 -0.35620117 0 0 0 0
0.18225098 0.056976318 -0.35620117 0 0 0 0
0.18444824 0.056976318 -0.35620117 0 0 0 0
0.18664551 0.056976318 -0.35620117 0 0 0 0
0.18884277 0.056976318 -0.35620117 0 0 0 0
0.19104004 0.056976318 -0.35620117 0 0 0 0
0.1932373 0.056976318 -0.35620117 0 0 0 0
0.19555664 0.056976318 -0.35620117 0 0 0 0
0.19775391 0.056976318 -0.35620117 0 0 0 0
0.19995117 0.056976318 -0.35620117 0 0 0 0
0.20214844 0.056976318 -0.35620117 0 0 0 0
0.2043457 0.056976318 -0.35620117 0 0 0 0
0.029251099 0.058746338 -0.38232422 0 0 0 0
0.031616211 0.058746338 -0.38232422 0 0 0 0
0.033996582 0.058746338 -0.38232422 0 0 0 0
0.036376953 0.058746338 -0.38232422 0 0 0 0
0.038757324 0.058746338 -0.38232422 0 0 0 0
0.045837402 0.053192139 -0.34619141 0 0 0 0
0.04800415 0.053192139 -0.34619141 0 0 0 0
0.050140381 0.053192139 -0.34619141 0 0 0 0
0.052307129 0.053192139 -0.34619141 0 0 0 0
0.054443359 0.053192139 -0.34619141 0 0 0 0
0.056610107 0.053192139 -0.34619141 0 0 0 0
0.058776855 0.053192139 -0.34619141 0 0 0 0
0.060913086 0.053192139 -0.34619141 0 0 0 0
0.063049316 0.053192139 -0.34619141 0 0 0 0
0.065368652 0.053375244 -0.34716797 0 0 0 0
0.067565918 0.053375244 -0.34716797 0 0 0 0
0.069885254 0.053527832 -0.34814453 0 0 0 0
0.07208252 0.053527832 -0.34814453 0 0 0 0
0.07421875 0.053527832 -0.34814453 0 0 0 0
0.076599121 0.05368042 -0.34912109 0 0 0 0
0.078796387 0.05368042 -0.34912109 0 0 0 0
0.080993652 0.05368042 -0.34912109 0 0 0 0
0.083129883 0.05368042 -0.34912109 0 0 0 0
0.085083008 0.053527832 -0.34814453 0 0 0 0
0.094665527 0.05166626 -0.33618164 0 0 0 0
0.096740723 0.05166626 -0.33618164 0 0 0 0
0.098571777 0.051513672 -0.33520508 0 0 0 0
0.1003418 0.051361084 -0.33422852 0 0 0 0
0.10949707 0.054901123 -0.35717773 0 0 0 0
0.11169434 0.054901123 -0.35717773 0 0 0 0
0.11358643 0.054748535 -0.35620117 0 0 0 0
0.11578369 0.054748535 -0.35620117 0 0 0 0
0.11804199 0.054748535 -0.35620117 0 0 0 0
0.12023926 0.054748535 -0.35620117 0 0 0 0
0.12243652 0.054748535 -0.35620117 0 0 0 0
0.12469482 0.054748535 -0.35620117 0 0 0 0
0.12683105 0.054748535 -0.35620117 0 0 0 0
0.12902832 0.054748535 -0.35620117 0 0 0 0
0.13122559 0.054748535 -0.35620117 0 0 0 0
0.13354492 0.054748535 -0.35620117 0 0 0 0
0.1361084 0.054901123 -0.35717773 0 0 0 0
0.13830566 0.054901123 -0.35717773 0 0 0 0
0.14050293 0.054901123 -0.35717773 0 0 0 0
0.1427002 0.054901123 -0.35717773 0 0 0 0
0.14501953 0.054901123 -0.35717773 0 0 0 0
0.1472168 0.054901123 -0.35717773 0 0 0 0
0.14941406 0.054901123 -0.35717773 0 0 0 0
0.15161133 0.054901123 -0.35717773 0 0 0 0
0.15380859 0.054901123 -0.35717773 0 0 0 0
0.15612793 0.054901123 -0.35717773 0 0 0 0
0.1583252 0.054901123 -0.35717773 0 0 0 0
0.16052246 0.054901123 -0.35717773 0 0 0 0
0.16223145 0.054748535 -0.35620117 0 0 0 0
0.16455078 0.054748535 -0.35620117 0 0 0 0
0.16674805 0.054748535 -0.35620117 0 0 0 0
0.16894531 0.054748535 -0.35620117 0 0 0 0
0.17114258 0.054748535 -0.35620117 0 0 0 0
0.17333984 0.054748535 -0.35620117 0 0 0 0
0.17553711 0.054748535 -0.35620117 0 0 0 0
0.17773438 0.054748535 -0.35620117 0 0 0 0
0.18005371 0.054748535 -0.35620117 0 0 0 0
0.18225098 0.054748535 -0.35620117 0 0 0 0
0.18444824 0.054748535 -0.35620117 0 0 0 0
0.18664551 0.054748535 -0.35620117 0 0 0 0
0.18884277 0.054748535 -0.35620117 0 0 0 0
0.19104004 0.054748535 -0.35620117 0 0 0 0
0.1932373 0.054748535 -0.35620117 0 0 0 0
0.19555664 0.054748535 -0.35620117 0 0 0 0
0.19775391 0.054748535 -0.35620117 0 0 0 0
0.19995117 0.054748535 -0.35620117 0 0 0 0
0.20214844 0.054748535 -0.35620117 0 0 0 0
0.2043457 0.054748535 -0.35620117 0 0 0 0
0.031616211 0.056396484 -0.38232422 0 0 0 0
0.033996582 0.056396484 -0.38232422 0 0 0 0
0.036376953 0.056396484 -0.38232422 0 0 0 0
0.043823242 0.051208496 -0.34716797 0 0 0 0
0.045837402 0.051055908 -0.34619141 0 0 0 0
0.04800415 0.051055908 -0.34619141 0 0 0 0
0.050140381 0.051055908 -0.34619141 0 0 0 0
0.052307129 0.051055908 -0.34619141 0 0 0 0
0.054443359 0.051055908 -0.34619141 0 0 0 0
0.056610107 0.051055908 -0.34619141 0 0 0 0
0.058776855 0.051055908 -0.34619141 0 0 0 0
0.060913086 0.051055908 -0.34619141 0 0 0 0
0.063049316 0.051055908 -0.34619141 0 0 0 0
0.065185547 0.051055908 -0.34619141 0 0 0 0
0.067565918 0.051208496 -0.34716797 0 0 0 0
0.069702148 0.051208496 -0.34716797 0 0 0 0
0.07208252 0.051361084 -0.34814453 0 0 0 0
0.07421875 0.051361084 -0.34814453 0 0 0 0
0.076599121 0.051483154 -0.34912109 0 0 0 0
0.078796387 0.051483154 -0.34912109 0 0 0 0
0.10723877 0.05267334 -0.35717773 0 0 0 0
0.10949707 0.05267334 -0.35717773 0 0 0 0
0.11169434 0.05267334 -0.35717773 0 0 0 0
0.1138916 0.05267334 -0.35717773 0 0 0 0
0.1161499 0.05267334 -0.35717773 0 0 0 0
0.11804199 0.052520752 -0.35620117 0 0 0 0
0.12060547 0.05267334 -0.35717773 0 0 0 0
0.12280273 0.05267334 -0.35717773 0 0 0 0
0.125 0.05267334 -0.35717773 0 0 0 0
0.12719727 0.05267334 -0.35717773 0 0 0 0
0.12939453 0.05267334 -0.35717773 0 0 0 0
0.13171387 0.05267334 -0.35717773 0 0 0 0
0.13391113 0.05267334 -0.35717773 0 0 0 0
0.1361084 0.05267334 -0.35717773 0 0 0 0
0.13830566 0.05267334 -0.35717773 0 0 0 0
0.14050293 0.05267334 -0.35717773 0 0 0 0
0.1427002 0.05267334 -0.35717773 0 0 0 0
0.14501953 0.05267334 -0.35717773 0 0 0 0
0.1472168 0.05267334 -0.35717773 0 0 0 0
0.14941406 0.05267334 -0.35717773 0 0 0 0
0.15161133 0.05267334 -0.35717773 0 0 0 0
0.15380859 0.05267334 -0.35717773 0 0 0 0
0.15612793 0.05267334 -0.35717773 0 0 0 0
0.1583252 0.05267334 -0.35717773 0 0 0 0
0.16003418 0.052520752 -0.35620117 0 0 0 0
0.16223145 0.052520752 -0.35620117 0 0 0 0
0.16455078 0.052520752 -0.35620117 0 0 0 0
0.16674805 0.052520752 -0.35620117 0 0 0 0
0.16894531 0.052520752 -0.35620117 0 0 0 0
0.17114258 0.052520752 -0.35620117 0 0 0 0
0.17333984 0.052520752 -0.35620117 0 0 0 0
0.17553711 0.052520752 -0.35620117 0 0 0 0
0.17773438 0.052520752 -0.35620117 0 0 0 0
0.18005371 0.052520752 -0.35620117 0 0 0 0
0.18225098 0.052520752 -0.35620117 0 0 0 0
0.18444824 0.052520752 -0.35620117 0 0 0 0
0.18664551 0.052520752 -0.35620117 0 0 0 0
0.18884277 0.052520752 -0.35620117 0 0 0 0
0.19104004 0.052520752 -0.35620117 0 0 0 0
0.19274902 0.052398682 -0.35522461 0 0 0 0
0.19494629 0.052398682 -0.35522461 0 0 0 0
0.19714355 0.052398682 -0.35522461 0 0 0 0
0.19934082 0.052398682 -0.35522461 0 0 0 0
0.20153809 0.052398682 -0.35522461 0 0 0 0
0.045837402 0.04888916 -0.34619141 0 0 0 0
0.04800415 0.04888916 -0.34619141 0 0 0 0
0.050140381 0.04888916 -0.34619141 0 0 0 0
0.052307129 0.04888916 -0.34619141 0 0 0 0
0.054443359 0.04888916 -0.34619141 0 0 0 0
0.056610107 0.04888916 -0.34619141 0 0 0 0
0.058776855 0.04888916 -0.34619141 0 0 0 0
0.060913086 0.04888916 -0.34619141 0 0 0 0
0.063049316 0.04888916 -0.34619141 0 0 0 0
0.065185547 0.04888916 -0.34619141 0 0 0 0
0.1050415 0.050476074 -0.35717773 0 0 0 0
0.10723877 0.050476074 -0.35717773 0 0 0 0
0.10949707 0.050476074 -0.35717773 0 0 0 0
0.11169434 0.050476074 -0.35717773 0 0 0 0
0.1138916 0.050476074 -0.35717773 0 0 0 0
0.1161499 0.050476074 -0.35717773 0 0 0 0
0.11834717 0.050476074 -0.35717773 0 0 0 0
0.12060547 0.050476074 -0.35717773 0 0 0 0
0.12280273 0.050476074 -0.35717773 0 0 0 0
0.125 0.050476074 -0.35717773 0 0 0 0
0.12719727 0.050476074 -0.35717773 0 0 0 0
0.12939453 0.050476074 -0.35717773 0 0 0 0
0.13171387 0.050476074 -0.35717773 0 0 0 0
0.13391113 0.050476074 -0.35717773 0 0 0 0
0.1361084 0.050476074 -0.35717773 0 0 0 0
0.13830566 0.050476074 -0.35717773 0 0 0 0
0.14050293 0.050476074 -0.35717773 0 0 0 0
0.1427002 0.050476074 -0.35717773 0 0 0 0
0.14501953 0.050476074 -0.35717773 0 0 0 0
0.1472168 0.050476074 -0.35717773 0 0 0 0
0.14941406 0.050476074 -0.35717773 0 0 0 0
0.15161133 0.050476074 -0.35717773 0 0 0 0
0.15380859 0.050476074 -0.35717773 0 0 0 0
0.15612793 0.050476074 -0.35717773 0 0 0 0
0.15783691 0.050323486 -0.35620117 0 0 0 0
0.16003418 0.050323486 -0.35620117 0 0 0 0
0.16223145 0.050323486 -0.35620117 0 0 0 0
0.16455078 0.050323486 -0.35620117 0 0 0 0
0.16674805 0.050323486 -0.35620117 0 0 0 0
0.16894531 0.050323486 -0.35620117 0 0 0 0
0.17114258 0.050323486 -0.35620117 0 0 0 0
0.17333984 0.050323486 -0.35620117 0 0 0 0
0.17553711 0.050323486 -0.35620117 0 0 0 0
0.17773438 0.050323486 -0.35620117 0 0 0 0
0.18005371 0.050323486 -0.35620117 0 0 0 0
0.18225098 0.050323486 -0.35620117 0 0 0 0
0.18395996 0.050170898 -0.35522461 0 0 0 0
0.18615723 0.050170898 -0.35522461 0 0 0 0
0.18835449 0.050170898 -0.35522461 0 0 0 0
0.19055176 0.050170898 -0.35522461 0 0 0 0
0.19274902 0.050170898 -0.35522461 0 0 0 0
0.19494629 0.050170898 -0.35522461 0 0 0 0
0.19714355 0.050170898 -0.35522461 0 0 0 0
0.19934082 0.050170898 -0.35522461 0 0 0 0
0.20153809 0.050170898 -0.35522461 0 0 0 0
0.04598999 0.046875 -0.34716797 0 0 0 0
0.04800415 0.04675293 -0.34619141 0 0 0 0
0.050140381 0.04675293 -0.34619141 0 0 0 0
0.052307129 0.04675293 -0.34619141 0 0 0 0
0.054443359 0.04675293 -0.34619141 0 0 0 0
0.056610107 0.04675293 -0.34619141 0 0 0 0
0.058776855 0.04675293 -0.34619141 0 0 0 0
0.060913086 0.04675293 -0.34619141 0 0 0 0
0.10308838 0.048370361 -0.35839844 0 0 0 0
0.10534668 0.048370361 -0.35839844 0 0 0 0
0.10723877 0.048248291 -0.35717773 0 0 0 0
0.10949707 0.048248291 -0.35717773 0 0 0 0
0.11169434 0.048248291 -0.35717773 0 0 0 0
0.1138916 0.048248291 -0.35717773 0 0 0 0
0.1161499 0.048248291 -0.35717773 0 0 0 0
0.11834717 0.048248291 -0.35717773 0 0 0 0
0.12060547 0.048248291 -0.35717773 0 0 0 0
0.12280273 0.048248291 -0.35717773 0 0 0 0
0.125 0.048248291 -0.35717773 0 0 0 0
0.12719727 0.048248291 -0.35717773 0 0 0 0
0.12939453 0.048248291 -0.35717773 0 0 0 0
0.13171387 0.048248291 -0.35717773 0 0 0 0
0.13391113 0.048248291 -0.35717773 0 0 0 0
0.1361084 0.048248291 -0.35717773 0 0 0 0
0.13830566 0.048248291 -0.35717773 0 0 0 0
0.14050293 0.048248291 -0.35717773 0 0 0 0
0.1427002 0.048248291 -0.35717773 0 0 0 0
0.14501953 0.048248291 -0.35717773 0 0 0 0
0.1472168 0.048248291 -0.35717773 0 0 0 0
0.14941406 0.048248291 -0.35717773 0 0 0 0
0.15161133 0.048248291 -0.35717773 0 0 0 0
0.15380859 0.048248291 -0.35717773 0 0 0 0
0.15612793 0.048248291 -0.35717773 0 0 0 0
0.15783691 0.048095703 -0.35620117 0 0 0 0
0.16003418 0.048095703 -0.35620117 0 0 0 0
0.16223145 0.048095703 -0.35620117 0 0 0 0
0.16455078 0.048095703 -0.35620117 0 0 0 0
0.16674805 0.048095703 -0.35620117 0 0 0 0
0.16894531 0.048095703 -0.35620117 0 0 0 0
0.17114258 0.048095703 -0.35620117 0 0 0 0
0.17333984 0.048095703 -0.35620117 0 0 0 0
0.17553711 0.048095703 -0.35620117 0 0 0 0
0.17773438 0.048095703 -0.35620117 0 0 0 0
0.17944336 0.047973633 -0.35522461 0 0 0 0
0.1817627 0.047973633 -0.35522461 0 0 0 0
0.18395996 0.047973633 -0.35522461 0 0 0 0
0.18615723 0.047973633 -0.35522461 0 0 0 0
0.18835449 0.047973633 -0.35522461 0 0 0 0
0.19055176 0.047973633 -0.35522461 0 0 0 0
0.19274902 0.047973633 -0.35522461 0 0 0 0
0.19494629 0.047973633 -0.35522461 0 0 0 0
0.19714355 0.047973633 -0.35522461 0 0 0 0
0.19934082 0.047973633 -0.35522461 0 0 0 0
0.20153809 0.047973633 -0.35522461 0 0 0 0
0.050292969 0.04473877 -0.34716797 0 0 0 0
0.10308838 0.046142578 -0.35839844 0 0 0 0
0.10534668 0.046142578 -0.35839844 0 0 0 0
0.10723877 0.046020508 -0.35717773 0 0 0 0
0.10949707 0.046020508 -0.35717773 0 0 0 0
0.11169434 0.046020508 -0.35717773 0 0 0 0
0.1138916 0.046020508 -0.35717773 0 0 0 0
0.1161499 0.046020508 -0.35717773 0 0 0 0
0.11804199 0.045898438 -0.35620117 0 0 0 0
0.12023926 0.045898438 -0.35620117 0 0 0 0
0.12243652 0.045898438 -0.35620117 0 0 0 0
0.12469482 0.045898438 -0.35620117 0 0 0 0
0.12683105 0.045898438 -0.35620117 0 0 0 0
0.12939453 0.046020508 -0.35717773 0 0 0 0
0.13171387 0.046020508 -0.35717773 0 0 0 0
0.13391113 0.046020508 -0.35717773 0 0 0 0
0.1361084 0.046020508 -0.35717773 0 0 0 0
0.13830566 0.046020508 -0.35717773 0 0 0 0
0.14050293 0.046020508 -0.35717773 0 0 0 0
0.1427002 0.046020508 -0.35717773 0 0 0 0
0.14501953 0.046020508 -0.35717773 0 0 0 0
0.1472168 0.046020508 -0.35717773 0 0 0 0
0.14941406 0.046020508 -0.35717773 0 0 0 0
0.15161133 0.046020508 -0.35717773 0 0 0 0
0.15380859 0.046020508 -0.35717773 0 0 0 0
0.15563965 0.045898438 -0.35620117 0 0 0 0
0.15783691 0.045898438 -0.35620117 0 0 0 0
0.16003418 0.045898438 -0.35620117 0 0 0 0
0.16223145 0.045898438 -0.35620117 0 0 0 0
0.16455078 0.045898438 -0.35620117 0 0 0 0
0.16674805 0.045898438 -0.35620117 0 0 0 0
0.16894531 0.045898438 -0.35620117 0 0 0 0
0.17114258 0.045898438 -0.35620117 0 0 0 0
0.17285156 0.045776367 -0.35522461 0 0 0 0
0.17504883 0.045776367 -0.35522461 0 0 0 0
0.17724609 0.045776367 -0.35522461 0 0 0 0
0.17944336 0.045776367 -0.35522461 0 0 0 0
0.1817627 0.045776367 -0.35522461 0 0 0 0
0.18395996 0.045776367 -0.35522461 0 0 0 0
0.18615723 0.045776367 -0.35522461 0 0 0 0
0.18835449 0.045776367 -0.35522461 0 0 0 0
0.19055176 0.045776367 -0.35522461 0 0 0 0
0.19274902 0.045776367 -0.35522461 0 0 0 0
0.19494629 0.045776367 -0.35522461 0 0 0 0
0.19714355 0.045776367 -0.35522461 0 0 0 0
0.19934082 0.045776367 -0.35522461 0 0 0 0
0.20153809 0.045776367 -0.35522461 0 0 0 0
0.10308838 0.043914795 -0.35839844 0 0 0 0
0.10534668 0.043914795 -0.35839844 0 0 0 0
0.10723877 0.043792725 -0.35717773 0 0 0 0
0.10949707 0.043792725 -0.35717773 0 0 0 0
0.11169434 0.043792725 -0.35717773 0 0 0 0
0.1138916 0.043792725 -0.35717773 0 0 0 0
0.11578369 0.043670654 -0.35620117 0 0 0 0
0.11804199 0.043670654 -0.35620117 0 0 0 0
0.12023926 0.043670654 -0.35620117 0 0 0 0
0.12243652 0.043670654 -0.35620117 0 0 0 0
0.12469482 0.043670654 -0.35620117 0 0 0 0
0.12683105 0.043670654 -0.35620117 0 0 0 0
0.12902832 0.043670654 -0.35620117 0 0 0 0
0.13122559 0.043670654 -0.35620117 0 0 0 0
0.13354492 0.043670654 -0.35620117 0 0 0 0
0.13574219 0.043670654 -0.35620117 0 0 0 0
0.13793945 0.043670654 -0.35620117 0 0 0 0
0.14050293 0.043792725 -0.35717773 0 0 0 0
0.1427002 0.043792725 -0.35717773 0 0 0 0
0.14501953 0.043792725 -0.35717773 0 0 0 0
0.1472168 0.043792725 -0.35717773 0 0 0 0
0.14941406 0.043792725 -0.35717773 0 0 0 0
0.15124512 0.043670654 -0.35620117 0 0 0 0
0.15344238 0.043670654 -0.35620117 0 0 0 0
0.15563965 0.043670654 -0.35620117 0 0 0 0
0.15783691 0.043670654 -0.35620117 0 0 0 0
0.16003418 0.043670654 -0.35620117 0 0 0 0
0.16223145 0.043670654 -0.35620117 0 0 0 0
0.16455078 0.043670654 -0.35620117 0 0 0 0
0.16674805 0.043670654 -0.35620117 0 0 0 0
0.16845703 0.043548584 -0.35522461 0 0 0 0
0.1706543 0.043548584 -0.35522461 0 0 0 0
0.17285156 0.043548584 -0.35522461 0 0 0 0
0.17504883 0.043548584 -0.35522461 0 0 0 0
0.17724609 0.043548584 -0.35522461 0 0 0 0
0.17944336 0.043548584 -0.35522461 0 0 0 0
0.1817627 0.043548584 -0.35522461 0 0 0 0
0.18395996 0.043548584 -0.35522461 0 0 0 0
0.18615723 0.043548584 -0.35522461 0 0 0 0
0.18835449 0.043548584 -0.35522461 0 0 0 0
0.19055176 0.043548584 -0.35522461 0 0 0 0
0.19274902 0.043548584 -0.35522461 0 0 0 0
0.19494629 0.043548584 -0.35522461 0 0 0 0
0.19714355 0.043548584 -0.35522461 0 0 0 0
0.19934082 0.043548584 -0.35522461 0 0 0 0
0.20153809 0.043548584 -0.35522461 0 0 0 0
0.10308838 0.041687012 -0.35839844 0 0 0 0
0.10534668 0.041687012 -0.35839844 0 0 0 0
0.10723877 0.041564941 -0.35717773 0 0 0 0
0.10949707 0.041564941 -0.35717773 0 0 0 0
0.11169434 0.041564941 -0.35717773 0 0 0 0
0.1138916 0.041564941 -0.35717773 0 0 0 0
0.11578369 0.041473389 -0.35620117 0 0 0 0
0.11804199 0.041473389 -0.35620117 0 0 0 0
0.12023926 0.041473389 -0.35620117 0 0 0 0
0.12243652 0.041473389 -0.35620117 0 0 0 0
0.12469482 0.041473389 -0.35620117 0 0 0 0
0.12683105 0.041473389 -0.35620117 0 0 0 0
0.12902832 0.041473389 -0.35620117 0 0 0 0
0.13122559 0.041473389 -0.35620117 0 0 0 0
0.13354492 0.041473389 -0.35620117 0 0 0 0
0.13574219 0.041473389 -0.35620117 0 0 0 0
0.13793945 0.041473389 -0.35620117 0 0 0 0
0.14013672 0.041473389 -0.35620117 0 0 0 0
0.14233398 0.041473389 -0.35620117 0 0 0 0
0.14453125 0.041473389 -0.35620117 0 0 0 0
0.14672852 0.041473389 -0.35620117 0 0 0 0
0.14904785 0.041473389 -0.35620117 0 0 0 0
0.15124512 0.041473389 -0.35620117 0 0 0 0
0.15344238 0.041473389 -0.35620117 0 0 0 0
0.15563965 0.041473389 -0.35620117 0 0 0 0
0.15783691 0.041473389 -0.35620117 0 0 0 0
0.16003418 0.041473389 -0.35620117 0 0 0 0
0.16223145 0.041473389 -0.35620117 0 0 0 0
0.1640625 0.041351318 -0.35522461 0 0 0 0
0.16625977 0.041351318 -0.35522461 0 0 0 0
0.16845703 0.041351318 -0.35522461 0 0 0 0
0.1706543 0.041351318 -0.35522461 0 0 0 0
0.17285156 0.041351318 -0.35522461 0 0 0 0
0.17504883 0.041351318 -0.35522461 0 0 0 0
0.17724609 0.041351318 -0.35522461 0 0 0 0
0.17944336 0.041351318 -0.35522461 0 0 0 0
0.1817627 0.041351318 -0.35522461 0 0 0 0
0.18395996 0.041351318 -0.35522461 0 0 0 0
0.18615723 0.041351318 -0.35522461 0 0 0 0
0.18835449 0.041351318 -0.35522461 0 0 0 0
0.19055176 0.041351318 -0.35522461 0 0 0 0
0.19274902 0.041351318 -0.35522461 0 0 0 0
0.19494629 0.041351318 -0.35522461 0 0 0 0
0.19714355 0.041351318 -0.35522461 0 0 0 0
0.19934082 0.041351318 -0.35522461 0 0 0 0
0.10089111 0.039459229 -0.35839844 0 0 0 0
0.10308838 0.039459229 -0.35839844 0 0 0 0
0.10534668 0.039459229 -0.35839844 0 0 0 0
0.10723877 0.039367676 -0.35717773 0 0 0 0
0.10949707 0.039367676 -0.35717773 0 0 0 0
0.11169434 0.039367676 -0.35717773 0 0 0 0
0.11358643 0.039245605 -0.35620117 0 0 0 0
0.11578369 0.039245605 -0.35620117 0 0 0 0
0.11804199 0.039245605 -0.35620117 0 0 0 0
0.12023926 0.039245605 -0.35620117 0 0 0 0
0.12243652 0.039245605 -0.35620117 0 0 0 0
0.12469482 0.039245605 -0.35620117 0 0 0 0
0.12683105 0.039245605 -0.35620117 0 0 0 0
0.12902832 0.039245605 -0.35620117 0 0 0 0
0.13122559 0.039245605 -0.35620117 0 0 0 0
0.13354492 0.039245605 -0.35620117 0 0 0 0
0.13574219 0.039245605 -0.35620117 0 0 0 0
0.13793945 0.039245605 -0.35620117 0 0 0 0
0.14013672 0.039245605 -0.35620117 0 0 0 0
0.14233398 0.039245605 -0.35620117 0 0 0 0
0.14453125 0.039245605 -0.35620117 0 0 0 0
0.14672852 0.039245605 -0.35620117 0 0 0 0
0.14904785 0.039245605 -0.35620117 0 0 0 0
0.15124512 0.039245605 -0.35620117 0 0 0 0
0.15344238 0.039245605 -0.35620117 0 0 0 0
0.15563965 0.039245605 -0.35620117 0 0 0 0
0.15783691 0.039245605 -0.35620117 0 0 0 0
0.16003418 0.039245605 -0.35620117 0 0 0 0
