ply
format ascii 1.0
comment PCL generated
element vertex 1099
property float x
property float y
property float z
property float nx
property float ny
property float nz
property float curvature
element face 0
element camera 0
property float view_px
property float view_py
property float view_pz
property float x_axisx
property float x_axisy
property float x_axisz
property float y_axisx
property float y_axisy
property float y_axisz
property float z_axisx
property float z_axisy
property float z_axisz
property float focal
property float scalex
property float scaley
property float centerx
property float centery
property int viewportx
property int viewporty
property float k1
property float k2
end_header
0.18444824 0.052520752 -0.35620117 0 0 0 0
0.18664551 0.052520752 -0.35620117 0 0 0 0
0.18884277 0.052520752 -0.35620117 0 0 0 0
0.19104004 0.052520752 -0.35620117 0 0 0 0
0.1932373 0.052520752 -0.35620117 0 0 0 0
0.19555664 0.052520752 -0.35620117 0 0 0 0
0.19775391 0.052520752 -0.35620117 0 0 0 0
0.19995117 0.052520752 -0.35620117 0 0 0 0
0.20214844 0.052520752 -0.35620117 0 0 0 0
0.20495605 0.05267334 -0.35717773 0 0 0 0
0.019485474 0.053283691 -0.37744141 0 0 0 0
0.021896362 0.053436279 -0.37841797 0 0 0 0
0.024307251 0.053588867 -0.37939453 0 0 0 0
0.026733398 0.053710938 -0.38037109 0 0 0 0
0.029174805 0.053863525 -0.38134766 0 0 0 0
0.031616211 0.054016113 -0.38232422 0 0 0 0
0.033996582 0.054016113 -0.38232422 0 0 0 0
0.036468506 0.054138184 -0.38330078 0 0 0 0
0.038848877 0.054138184 -0.38330078 0 0 0 0
0.041351318 0.054290771 -0.38427734 0 0 0 0
0.043609619 0.054138184 -0.38330078 0 0 0 0
0.04598999 0.054138184 -0.38330078 0 0 0 0
0.048370361 0.054138184 -0.38330078 0 0 0 0
0.050628662 0.054016113 -0.38232422 0 0 0 0
0.052886963 0.053863525 -0.38134766 0 0 0 0
0.054962158 0.053588867 -0.37939453 0 0 0 0
0.057159424 0.053436279 -0.37841797 0 0 0 0
0.059356689 0.053283691 -0.37744141 0 0 0 0
0.06137085 0.053009033 -0.37524414 0 0 0 0
0.063537598 0.052856445 -0.37426758 0 0 0 0
0.065673828 0.052734375 -0.37329102 0 0 0 0
0.067626953 0.052459717 -0.37133789 0 0 0 0
0.069763184 0.052307129 -0.37036133 0 0 0 0
0.072021484 0.052307129 -0.37036133 0 0 0 0
0.074157715 0.052154541 -0.36938477 0 0 0 0
0.07623291 0.052032471 -0.3684082 0 0 0 0
0.078491211 0.052032471 -0.3684082 0 0 0 0
0.080810547 0.052032471 -0.3684082 0 0 0 0
0.082885742 0.051879883 -0.36743164 0 0 0 0
0.085144043 0.051879883 -0.36743164 0 0 0 0
0.087219238 0.051727295 -0.36621094 0 0 0 0
0.089477539 0.051727295 -0.36621094 0 0 0 0
0.09173584 0.051727295 -0.36621094 0 0 0 0
0.094055176 0.051727295 -0.36621094 0 0 0 0
0.096313477 0.051727295 -0.36621094 0 0 0 0
0.098571777 0.051727295 -0.36621094 0 0 0 0
0.10754395 0.050598145 -0.35839844 0 0 0 0
0.10980225 0.050598145 -0.35839844 0 0 0 0
0.11199951 0.050598145 -0.35839844 0 0 0 0
0.1138916 0.050476074 -0.35717773 0 0 0 0
0.1161499 0.050476074 -0.35717773 0 0 0 0
0.11834717 0.050476074 -0.35717773 0 0 0 0
0.12060547 0.050476074 -0.35717773 0 0 0 0
0.12280273 0.050476074 -0.35717773 0 0 0 0
0.125 0.050476074 -0.35717773 0 0 0 0
0.12719727 0.050476074 -0.35717773 0 0 0 0
0.12939453 0.050476074 -0.35717773 0 0 0 0
0.13171387 0.050476074 -0.35717773 0 0 0 0
0.13391113 0.050476074 -0.35717773 0 0 0 0
0.1361084 0.050476074 -0.35717773 0 0 0 0
0.13830566 0.050476074 -0.35717773 0 0 0 0
0.14050293 0.050476074 -0.35717773 0 0 0 0
0.1427002 0.050476074 -0.35717773 0 0 0 0
0.14501953 0.050476074 -0.35717773 0 0 0 0
0.1472168 0.050476074 -0.35717773 0 0 0 0
0.14941406 0.050476074 -0.35717773 0 0 0 0
0.15161133 0.050476074 -0.35717773 0 0 0 0
0.15380859 0.050476074 -0.35717773 0 0 0 0
0.15612793 0.050476074 -0.35717773 0 0 0 0
0.1583252 0.050476074 -0.35717773 0 0 0 0
0.16003418 0.050323486 -0.35620117 0 0 0 0
0.16223145 0.050323486 -0.35620117 0 0 0 0
0.16455078 0.050323486 -0.35620117 0 0 0 0
0.16674805 0.050323486 -0.35620117 0 0 0 0
0.16894531 0.050323486 -0.35620117 0 0 0 0
0.17114258 0.050323486 -0.35620117 0 0 0 0
0.17333984 0.050323486 -0.35620117 0 0 0 0
0.17553711 0.050323486 -0.35620117 0 0 0 0
0.17773438 0.050323486 -0.35620117 0 0 0 0
0.18005371 0.050323486 -0.35620117 0 0 0 0
0.18225098 0.050323486 -0.35620117 0 0 0 0
0.18444824 0.050323486 -0.35620117 0 0 0 0
0.18664551 0.050323486 -0.35620117 0 0 0 0
0.18884277 0.050323486 -0.35620117 0 0 0 0
0.19104004 0.050323486 -0.35620117 0 0 0 0
0.1932373 0.050323486 -0.35620117 0 0 0 0
0.19555664 0.050323486 -0.35620117 0 0 0 0
0.19775391 0.050323486 -0.35620117 0 0 0 0
0.19995117 0.050323486 -0.35620117 0 0 0 0
0.20214844 0.050323486 -0.35620117 0 0 0 0
0.20495605 0.050476074 -0.35717773 0 0 0 0
0.01953125 0.051086426 -0.37841797 0 0 0 0
0.021896362 0.051086426 -0.37841797 0 0 0 0
0.024307251 0.051208496 -0.37939453 0 0 0 0
0.026733398 0.051361084 -0.38037109 0 0 0 0
0.029174805 0.051483154 -0.38134766 0 0 0 0
0.031616211 0.051635742 -0.38232422 0 0 0 0
0.033996582 0.051635742 -0.38232422 0 0 0 0
0.036468506 0.051757812 -0.38330078 0 0 0 0
0.03894043 0.0519104 -0.38427734 0 0 0 0
0.041351318 0.0519104 -0.38427734 0 0 0 0
0.043731689 0.0519104 -0.38427734 0 0 0 0
0.046112061 0.0519104 -0.38427734 0 0 0 0
0.048522949 0.0519104 -0.38427734 0 0 0 0
0.050628662 0.051635742 -0.38232422 0 0 0 0
0.052886963 0.051483154 -0.38134766 0 0 0 0
0.055084229 0.051361084 -0.38037109 0 0 0 0
0.057312012 0.051208496 -0.37939453 0 0 0 0
0.059356689 0.050964355 -0.37744141 0 0 0 0
0.061523438 0.050811768 -0.37646484 0 0 0 0
0.063537598 0.050537109 -0.37426758 0 0 0 0
0.065673828 0.050415039 -0.37329102 0 0 0 0
0.067810059 0.050262451 -0.37231445 0 0 0 0
0.069946289 0.050140381 -0.37133789 0 0 0 0
0.072021484 0.049987793 -0.37036133 0 0 0 0
0.074157715 0.049865723 -0.36938477 0 0 0 0
0.07623291 0.049743652 -0.3684082 0 0 0 0
0.078491211 0.049743652 -0.3684082 0 0 0 0
0.080566406 0.049591064 -0.36743164 0 0 0 0
0.082885742 0.049591064 -0.36743164 0 0 0 0
0.084899902 0.049468994 -0.36621094 0 0 0 0
0.087219238 0.049468994 -0.36621094 0 0 0 0
0.089233398 0.049316406 -0.36523438 0 0 0 0
0.091491699 0.049316406 -0.36523438 0 0 0 0
0.09375 0.049316406 -0.36523438 0 0 0 0
0.096069336 0.049316406 -0.36523438 0 0 0 0
0.098327637 0.049316406 -0.36523438 0 0 0 0
0.10058594 0.049316406 -0.36523438 0 0 0 0
0.105896 0.04864502 -0.36035156 0 0 0 0
0.10784912 0.048522949 -0.359375 0 0 0 0
0.10980225 0.048370361 -0.35839844 0 0 0 0
0.11199951 0.048370361 -0.35839844 0 0 0 0
0.1138916 0.048248291 -0.35717773 0 0 0 0
0.1161499 0.048248291 -0.35717773 0 0 0 0
0.11834717 0.048248291 -0.35717773 0 0 0 0
0.12060547 0.048248291 -0.35717773 0 0 0 0
0.12280273 0.048248291 -0.35717773 0 0 0 0
0.125 0.048248291 -0.35717773 0 0 0 0
0.12719727 0.048248291 -0.35717773 0 0 0 0
0.12939453 0.048248291 -0.35717773 0 0 0 0
0.13122559 0.048095703 -0.35620117 0 0 0 0
0.13354492 0.048095703 -0.35620117 0 0 0 0
0.13574219 0.048095703 -0.35620117 0 0 0 0
0.13793945 0.048095703 -0.35620117 0 0 0 0
0.14013672 0.048095703 -0.35620117 0 0 0 0
0.1427002 0.048248291 -0.35717773 0 0 0 0
0.14501953 0.048248291 -0.35717773 0 0 0 0
0.1472168 0.048248291 -0.35717773 0 0 0 0
0.14941406 0.048248291 -0.35717773 0 0 0 0
0.15161133 0.048248291 -0.35717773 0 0 0 0
0.15380859 0.048248291 -0.35717773 0 0 0 0
0.15563965 0.048095703 -0.35620117 0 0 0 0
0.15783691 0.048095703 -0.35620117 0 0 0 0
0.16003418 0.048095703 -0.35620117 0 0 0 0
0.16223145 0.048095703 -0.35620117 0 0 0 0
0.16455078 0.048095703 -0.35620117 0 0 0 0
0.16674805 0.048095703 -0.35620117 0 0 0 0
0.16894531 0.048095703 -0.35620117 0 0 0 0
0.17114258 0.048095703 -0.35620117 0 0 0 0
0.17333984 0.048095703 -0.35620117 0 0 0 0
0.17553711 0.048095703 -0.35620117 0 0 0 0
0.17773438 0.048095703 -0.35620117 0 0 0 0
0.18005371 0.048095703 -0.35620117 0 0 0 0
0.18225098 0.048095703 -0.35620117 0 0 0 0
0.18444824 0.048095703 -0.35620117 0 0 0 0
0.18664551 0.048095703 -0.35620117 0 0 0 0
0.18884277 0.048095703 -0.35620117 0 0 0 0
0.19104004 0.048095703 -0.35620117 0 0 0 0
0.1932373 0.048095703 -0.35620117 0 0 0 0
0.19555664 0.048095703 -0.35620117 0 0 0 0
0.19775391 0.048095703 -0.35620117 0 0 0 0
0.19995117 0.048095703 -0.35620117 0 0 0 0
0.20214844 0.048095703 -0.35620117 0 0 0 0
0.01953125 0.048736572 -0.37841797 0 0 0 0
0.021896362 0.048736572 -0.37841797 0 0 0 0
0.024307251 0.048858643 -0.37939453 0 0 0 0
0.026733398 0.048980713 -0.38037109 0 0 0 0
0.029174805 0.049133301 -0.38134766 0 0 0 0
0.031616211 0.049255371 -0.38232422 0 0 0 0
0.034088135 0.049377441 -0.38330078 0 0 0 0
0.036560059 0.049499512 -0.38427734 0 0 0 0
0.03894043 0.049499512 -0.38427734 0 0 0 0
0.041442871 0.0496521 -0.38549805 0 0 0 0
0.04385376 0.0496521 -0.38549805 0 0 0 0
0.046234131 0.0496521 -0.38549805 0 0 0 0
0.04864502 0.0496521 -0.38549805 0 0 0 0
0.05078125 0.049377441 -0.38330078 0 0 0 0
0.053009033 0.049255371 -0.38232422 0 0 0 0
0.055084229 0.048980713 -0.38037109 0 0 0 0
0.057312012 0.048858643 -0.37939453 0 0 0 0
0.059509277 0.048736572 -0.37841797 0 0 0 0
0.061706543 0.048614502 -0.37744141 0 0 0 0
0.063659668 0.048339844 -0.37524414 0 0 0 0
0.065856934 0.048217773 -0.37426758 0 0 0 0
0.067810059 0.047973633 -0.37231445 0 0 0 0
0.069946289 0.047821045 -0.37133789 0 0 0 0
0.072021484 0.047698975 -0.37036133 0 0 0 0
0.074157715 0.047576904 -0.36938477 0 0 0 0
0.07623291 0.047454834 -0.3684082 0 0 0 0
0.078491211 0.047454834 -0.3684082 0 0 0 0
0.080566406 0.047302246 -0.36743164 0 0 0 0
0.082641602 0.047180176 -0.36621094 0 0 0 0
0.084716797 0.047058105 -0.36523438 0 0 0 0
0.086975098 0.047058105 -0.36523438 0 0 0 0
0.089233398 0.047058105 -0.36523438 0 0 0 0
0.091247559 0.046936035 -0.36425781 0 0 0 0
0.09375 0.047058105 -0.36523438 0 0 0 0
0.09576416 0.046936035 -0.36425781 0 0 0 0
0.098022461 0.046936035 -0.36425781 0 0 0 0
0.10003662 0.046783447 -0.36328125 0 0 0 0
0.10198975 0.046661377 -0.36230469 0 0 0 0
0.10394287 0.046539307 -0.36132812 0 0 0 0
0.105896 0.046417236 -0.36035156 0 0 0 0
0.10784912 0.046264648 -0.359375 0 0 0 0
0.10980225 0.046142578 -0.35839844 0 0 0 0
0.11199951 0.046142578 -0.35839844 0 0 0 0
0.1138916 0.046020508 -0.35717773 0 0 0 0
0.1161499 0.046020508 -0.35717773 0 0 0 0
0.11834717 0.046020508 -0.35717773 0 0 0 0
0.12060547 0.046020508 -0.35717773 0 0 0 0
0.12243652 0.045898438 -0.35620117 0 0 0 0
0.12469482 0.045898438 -0.35620117 0 0 0 0
0.12683105 0.045898438 -0.35620117 0 0 0 0
0.12902832 0.045898438 -0.35620117 0 0 0 0
0.13122559 0.045898438 -0.35620117 0 0 0 0
0.13354492 0.045898438 -0.35620117 0 0 0 0
0.13574219 0.045898438 -0.35620117 0 0 0 0
0.13793945 0.045898438 -0.35620117 0 0 0 0
0.14013672 0.045898438 -0.35620117 0 0 0 0
0.14233398 0.045898438 -0.35620117 0 0 0 0
0.14453125 0.045898438 -0.35620117 0 0 0 0
0.1472168 0.046020508 -0.35717773 0 0 0 0
0.14941406 0.046020508 -0.35717773 0 0 0 0
0.15124512 0.045898438 -0.35620117 0 0 0 0
0.15344238 0.045898438 -0.35620117 0 0 0 0
0.15563965 0.045898438 -0.35620117 0 0 0 0
0.15783691 0.045898438 -0.35620117 0 0 0 0
0.16003418 0.045898438 -0.35620117 0 0 0 0
0.16223145 0.045898438 -0.35620117 0 0 0 0
0.16455078 0.045898438 -0.35620117 0 0 0 0
0.16674805 0.045898438 -0.35620117 0 0 0 0
0.16894531 0.045898438 -0.35620117 0 0 0 0
0.17114258 0.045898438 -0.35620117 0 0 0 0
0.17333984 0.045898438 -0.35620117 0 0 0 0
0.17504883 0.045776367 -0.35522461 0 0 0 0
0.17724609 0.045776367 -0.35522461 0 0 0 0
0.17944336 0.045776367 -0.35522461 0 0 0 0
0.1817627 0.045776367 -0.35522461 0 0 0 0
0.18395996 0.045776367 -0.35522461 0 0 0 0
0.18615723 0.045776367 -0.35522461 0 0 0 0
0.18835449 0.045776367 -0.35522461 0 0 0 0
0.19055176 0.045776367 -0.35522461 0 0 0 0
0.19274902 0.045776367 -0.35522461 0 0 0 0
0.19555664 0.045898438 -0.35620117 0 0 0 0
0.19775391 0.045898438 -0.35620117 0 0 0 0
0.19995117 0.045898438 -0.35620117 0 0 0 0
0.20214844 0.045898438 -0.35620117 0 0 0 0
0.021942139 0.046508789 -0.37939453 0 0 0 0
0.024307251 0.046508789 -0.37939453 0 0 0 0
0.026733398 0.046630859 -0.38037109 0 0 0 0
0.029174805 0.04675293 -0.38134766 0 0 0 0
0.031616211 0.046875 -0.38232422 0 0 0 0
0.034088135 0.04699707 -0.38330078 0 0 0 0
0.036560059 0.047119141 -0.38427734 0 0 0 0
0.0390625 0.047241211 -0.38549805 0 0 0 0
0.041442871 0.047241211 -0.38549805 0 0 0 0
0.04397583 0.047363281 -0.38647461 0 0 0 0
0.046356201 0.047363281 -0.38647461 0 0 0 0
0.04876709 0.047363281 -0.38647461 0 0 0 0
0.05078125 0.04699707 -0.38330078 0 0 0 0
0.053009033 0.046875 -0.38232422 0 0 0 0
0.055236816 0.04675293 -0.38134766 0 0 0 0
0.057312012 0.046508789 -0.37939453 0 0 0 0
0.059661865 0.046508789 -0.37939453 0 0 0 0
0.061706543 0.046264648 -0.37744141 0 0 0 0
0.063842773 0.046142578 -0.37646484 0 0 0 0
0.066040039 0.046020508 -0.37524414 0 0 0 0
0.067993164 0.045776367 -0.37329102 0 0 0 0
0.070129395 0.045654297 -0.37231445 0 0 0 0
0.072265625 0.045532227 -0.37133789 0 0 0 0
0.07434082 0.045410156 -0.37036133 0 0 0 0
0.07623291 0.045166016 -0.3684082 0 0 0 0
0.078308105 0.045043945 -0.36743164 0 0 0 0
0.080383301 0.044921875 -0.36621094 0 0 0 0
0.082641602 0.044921875 -0.36621094 0 0 0 0
0.084716797 0.044769287 -0.36523438 0 0 0 0
0.086730957 0.044647217 -0.36425781 0 0 0 0
0.088989258 0.044647217 -0.36425781 0 0 0 0
0.091247559 0.044647217 -0.36425781 0 0 0 0
0.093505859 0.044647217 -0.36425781 0 0 0 0
0.09576416 0.044647217 -0.36425781 0 0 0 0
0.098022461 0.044647217 -0.36425781 0 0 0 0
0.10003662 0.044525146 -0.36328125 0 0 0 0
0.10198975 0.044403076 -0.36230469 0 0 0 0
0.10394287 0.044281006 -0.36132812 0 0 0 0
0.105896 0.044158936 -0.36035156 0 0 0 0
0.10784912 0.044036865 -0.359375 0 0 0 0
0.10980225 0.043914795 -0.35839844 0 0 0 0
0.11199951 0.043914795 -0.35839844 0 0 0 0
0.1138916 0.043792725 -0.35717773 0 0 0 0
0.1161499 0.043792725 -0.35717773 0 0 0 0
0.11834717 0.043792725 -0.35717773 0 0 0 0
0.12023926 0.043670654 -0.35620117 0 0 0 0
0.12243652 0.043670654 -0.35620117 0 0 0 0
0.12469482 0.043670654 -0.35620117 0 0 0 0
0.12683105 0.043670654 -0.35620117 0 0 0 0
0.12902832 0.043670654 -0.35620117 0 0 0 0
0.13122559 0.043670654 -0.35620117 0 0 0 0
0.13354492 0.043670654 -0.35620117 0 0 0 0
0.13574219 0.043670654 -0.35620117 0 0 0 0
0.13793945 0.043670654 -0.35620117 0 0 0 0
0.14013672 0.043670654 -0.35620117 0 0 0 0
0.14233398 0.043670654 -0.35620117 0 0 0 0
0.14453125 0.043670654 -0.35620117 0 0 0 0
0.14672852 0.043670654 -0.35620117 0 0 0 0
0.14904785 0.043670654 -0.35620117 0 0 0 0
0.15124512 0.043670654 -0.35620117 0 0 0 0
0.15344238 0.043670654 -0.35620117 0 0 0 0
0.15563965 0.043670654 -0.35620117 0 0 0 0
0.15783691 0.043670654 -0.35620117 0 0 0 0
0.16003418 0.043670654 -0.35620117 0 0 0 0
0.16223145 0.043670654 -0.35620117 0 0 0 0
0.16455078 0.043670654 -0.35620117 0 0 0 0
0.16674805 0.043670654 -0.35620117 0 0 0 0
0.16894531 0.043670654 -0.35620117 0 0 0 0
0.1706543 0.043548584 -0.35522461 0 0 0 0
0.17285156 0.043548584 -0.35522461 0 0 0 0
0.17504883 0.043548584 -0.35522461 0 0 0 0
0.17724609 0.043548584 -0.35522461 0 0 0 0
0.17944336 0.043548584 -0.35522461 0 0 0 0
0.1817627 0.043548584 -0.35522461 0 0 0 0
0.18395996 0.043548584 -0.35522461 0 0 0 0
0.18615723 0.043548584 -0.35522461 0 0 0 0
0.18835449 0.043548584 -0.35522461 0 0 0 0
0.19055176 0.043548584 -0.35522461 0 0 0 0
0.19274902 0.043548584 -0.35522461 0 0 0 0
0.19494629 0.043548584 -0.35522461 0 0 0 0
0.19714355 0.043548584 -0.35522461 0 0 0 0
0.19995117 0.043670654 -0.35620117 0 0 0 0
0.20214844 0.043670654 -0.35620117 0 0 0 0
0.024368286 0.044250488 -0.38037109 0 0 0 0
0.026733398 0.044250488 -0.38037109 0 0 0 0
0.029174805 0.044372559 -0.38134766 0 0 0 0
0.031616211 0.044494629 -0.38232422 0 0 0 0
0.034088135 0.044616699 -0.38330078 0 0 0 0
0.036560059 0.04473877 -0.38427734 0 0 0 0
0.0390625 0.04486084 -0.38549805 0 0 0 0
0.041564941 0.044952393 -0.38647461 0 0 0 0
0.04397583 0.044952393 -0.38647461 0 0 0 0
0.046478271 0.045074463 -0.38745117 0 0 0 0
0.04876709 0.044952393 -0.38647461 0 0 0 0
0.057312012 0.044158936 -0.37939453 0 0 0 0
0.059661865 0.044158936 -0.37939453 0 0 0 0
0.061859131 0.044036865 -0.37841797 0 0 0 0
0.064025879 0.043914795 -0.37744141 0 0 0 0
0.066223145 0.043792725 -0.37646484 0 0 0 0
0.06817627 0.043579102 -0.37426758 0 0 0 0
0.0703125 0.043457031 -0.37329102 0 0 0 0
0.072265625 0.043212891 -0.37133789 0 0 0 0
0.07434082 0.04309082 -0.37036133 0 0 0 0
0.076416016 0.04296875 -0.36938477 0 0 0 0
0.078308105 0.042755127 -0.36743164 0 0 0 0
0.080383301 0.042633057 -0.36621094 0 0 0 0
0.082397461 0.042510986 -0.36523438 0 0 0 0
0.084716797 0.042510986 -0.36523438 0 0 0 0
0.086730957 0.042388916 -0.36425781 0 0 0 0
0.088989258 0.042388916 -0.36425781 0 0 0 0
0.091247559 0.042388916 -0.36425781 0 0 0 0
0.093261719 0.042266846 -0.36328125 0 0 0 0
0.09552002 0.042266846 -0.36328125 0 0 0 0
0.09777832 0.042266846 -0.36328125 0 0 0 0
0.10003662 0.042266846 -0.36328125 0 0 0 0
0.10198975 0.042175293 -0.36230469 0 0 0 0
0.10394287 0.042053223 -0.36132812 0 0 0 0
0.105896 0.041931152 -0.36035156 0 0 0 0
0.10784912 0.041809082 -0.359375 0 0 0 0
0.10980225 0.041687012 -0.35839844 0 0 0 0
0.11199951 0.041687012 -0.35839844 0 0 0 0
0.1138916 0.041564941 -0.35717773 0 0 0 0
0.1161499 0.041564941 -0.35717773 0 0 0 0
0.11804199 0.041473389 -0.35620117 0 0 0 0
0.12023926 0.041473389 -0.35620117 0 0 0 0
0.12243652 0.041473389 -0.35620117 0 0 0 0
0.12469482 0.041473389 -0.35620117 0 0 0 0
0.12683105 0.041473389 -0.35620117 0 0 0 0
0.12902832 0.041473389 -0.35620117 0 0 0 0
0.13122559 0.041473389 -0.35620117 0 0 0 0
0.13354492 0.041473389 -0.35620117 0 0 0 0
0.13574219 0.041473389 -0.35620117 0 0 0 0
0.13793945 0.041473389 -0.35620117 0 0 0 0
0.14013672 0.041473389 -0.35620117 0 0 0 0
0.14233398 0.041473389 -0.35620117 0 0 0 0
0.14453125 0.041473389 -0.35620117 0 0 0 0
0.14672852 0.041473389 -0.35620117 0 0 0 0
0.14904785 0.041473389 -0.35620117 0 0 0 0
0.15124512 0.041473389 -0.35620117 0 0 0 0
0.15344238 0.041473389 -0.35620117 0 0 0 0
0.15563965 0.041473389 -0.35620117 0 0 0 0
0.15783691 0.041473389 -0.35620117 0 0 0 0
0.16003418 0.041473389 -0.35620117 0 0 0 0
0.16223145 0.041473389 -0.35620117 0 0 0 0
0.16455078 0.041473389 -0.35620117 0 0 0 0
0.16674805 0.041473389 -0.35620117 0 0 0 0
0.16845703 0.041351318 -0.35522461 0 0 0 0
0.1706543 0.041351318 -0.35522461 0 0 0 0
0.17285156 0.041351318 -0.35522461 0 0 0 0
0.17504883 0.041351318 -0.35522461 0 0 0 0
0.17724609 0.041351318 -0.35522461 0 0 0 0
0.17944336 0.041351318 -0.35522461 0 0 0 0
0.1817627 0.041351318 -0.35522461 0 0 0 0
0.18395996 0.041351318 -0.35522461 0 0 0 0
0.18615723 0.041351318 -0.35522461 0 0 0 0
0.18835449 0.041351318 -0.35522461 0 0 0 0
0.19055176 0.041351318 -0.35522461 0 0 0 0
0.19274902 0.041351318 -0.35522461 0 0 0 0
0.19494629 0.041351318 -0.35522461 0 0 0 0
0.19714355 0.041351318 -0.35522461 0 0 0 0
0.19934082 0.041351318 -0.35522461 0 0 0 0
0.20153809 0.041351318 -0.35522461 0 0 0 0
0.057617188 0.042022705 -0.38134766 0 0 0 0
0.059814453 0.041900635 -0.38037109 0 0 0 0
0.062194824 0.041900635 -0.38037109 0 0 0 0
0.06439209 0.041778564 -0.37939453 0 0 0 0
0.066345215 0.041564941 -0.37744141 0 0 0 0
0.068359375 0.041351318 -0.37524414 0 0 0 0
0.070495605 0.041229248 -0.37426758 0 0 0 0
0.07244873 0.041015625 -0.37231445 0 0 0 0
0.07434082 0.040802002 -0.37036133 0 0 0 0
0.076416016 0.040679932 -0.36938477 0 0 0 0
0.078491211 0.040588379 -0.3684082 0 0 0 0
0.080383301 0.040344238 -0.36621094 0 0 0 0
0.082397461 0.040252686 -0.36523438 0 0 0 0
0.084716797 0.040252686 -0.36523438 0 0 0 0
0.086730957 0.040130615 -0.36425781 0 0 0 0
0.088989258 0.040130615 -0.36425781 0 0 0 0
0.091003418 0.040008545 -0.36328125 0 0 0 0
0.093261719 0.040008545 -0.36328125 0 0 0 0
0.09552002 0.040008545 -0.36328125 0 0 0 0
0.09777832 0.040008545 -0.36328125 0 0 0 0
0.099731445 0.039916992 -0.36230469 0 0 0 0
0.10198975 0.039916992 -0.36230469 0 0 0 0
0.10394287 0.039794922 -0.36132812 0 0 0 0
0.105896 0.039703369 -0.36035156 0 0 0 0
0.10784912 0.039581299 -0.359375 0 0 0 0
0.10980225 0.039459229 -0.35839844 0 0 0 0
0.11169434 0.039367676 -0.35717773 0 0 0 0
0.1138916 0.039367676 -0.35717773 0 0 0 0
0.1161499 0.039367676 -0.35717773 0 0 0 0
0.11804199 0.039245605 -0.35620117 0 0 0 0
0.12023926 0.039245605 -0.35620117 0 0 0 0
0.12243652 0.039245605 -0.35620117 0 0 0 0
0.12469482 0.039245605 -0.35620117 0 0 0 0
0.12683105 0.039245605 -0.35620117 0 0 0 0
0.12902832 0.039245605 -0.35620117 0 0 0 0
0.13122559 0.039245605 -0.35620117 0 0 0 0
0.13354492 0.039245605 -0.35620117 0 0 0 0
0.13574219 0.039245605 -0.35620117 0 0 0 0
0.13793945 0.039245605 -0.35620117 0 0 0 0
0.14013672 0.039245605 -0.35620117 0 0 0 0
0.14233398 0.039245605 -0.35620117 0 0 0 0
0.14453125 0.039245605 -0.35620117 0 0 0 0
0.14672852 0.039245605 -0.35620117 0 0 0 0
0.14904785 0.039245605 -0.35620117 0 0 0 0
0.15124512 0.039245605 -0.35620117 0 0 0 0
0.15344238 0.039245605 -0.35620117 0 0 0 0
0.15563965 0.039245605 -0.35620117 0 0 0 0
0.15783691 0.039245605 -0.35620117 0 0 0 0
0.16003418 0.039245605 -0.35620117 0 0 0 0
0.16223145 0.039245605 -0.35620117 0 0 0 0
0.1640625 0.039123535 -0.35522461 0 0 0 0
0.16625977 0.039123535 -0.35522461 0 0 0 0
0.16845703 0.039123535 -0.35522461 0 0 0 0
0.1706543 0.039123535 -0.35522461 0 0 0 0
0.17285156 0.039123535 -0.35522461 0 0 0 0
0.17504883 0.039123535 -0.35522461 0 0 0 0
0.17724609 0.039123535 -0.35522461 0 0 0 0
0.17944336 0.039123535 -0.35522461 0 0 0 0
0.18115234 0.039031982 -0.35424805 0 0 0 0
0.18334961 0.039031982 -0.35424805 0 0 0 0
0.18554688 0.039031982 -0.35424805 0 0 0 0
0.18835449 0.039123535 -0.35522461 0 0 0 0
0.19055176 0.039123535 -0.35522461 0 0 0 0
0.19274902 0.039123535 -0.35522461 0 0 0 0
0.19494629 0.039123535 -0.35522461 0 0 0 0
0.19714355 0.039123535 -0.35522461 0 0 0 0
0.19934082 0.039123535 -0.35522461 0 0 0 0
0.20153809 0.039123535 -0.35522461 0 0 0 0
0.059997559 0.039642334 -0.38134766 0 0 0 0
0.062347412 0.039642334 -0.38134766 0 0 0 0
0.064697266 0.039642334 -0.38134766 0 0 0 0
0.066711426 0.039428711 -0.37939453 0 0 0 0
0.068725586 0.039215088 -0.37744141 0 0 0 0
0.070678711 0.039001465 -0.37524414 0 0 0 0
0.072631836 0.038818359 -0.37329102 0 0 0 0
0.074523926 0.038604736 -0.37133789 0 0 0 0
0.076660156 0.038482666 -0.37036133 0 0 0 0
0.078491211 0.038299561 -0.3684082 0 0 0 0
0.080566406 0.03817749 -0.36743164 0 0 0 0
0.082641602 0.038085938 -0.36621094 0 0 0 0
0.084716797 0.037963867 -0.36523438 0 0 0 0
0.086730957 0.037872314 -0.36425781 0 0 0 0
0.088989258 0.037872314 -0.36425781 0 0 0 0
0.091003418 0.037750244 -0.36328125 0 0 0 0
0.093261719 0.037750244 -0.36328125 0 0 0 0
0.09552002 0.037750244 -0.36328125 0 0 0 0
0.09777832 0.037750244 -0.36328125 0 0 0 0
0.099731445 0.037658691 -0.36230469 0 0 0 0
0.10174561 0.037567139 -0.36132812 0 0 0 0
0.10394287 0.037567139 -0.36132812 0 0 0 0
0.105896 0.037445068 -0.36035156 0 0 0 0
0.10784912 0.037353516 -0.359375 0 0 0 0
0.10980225 0.037231445 -0.35839844 0 0 0 0
0.11169434 0.037139893 -0.35717773 0 0 0 0
0.1138916 0.037139893 -0.35717773 0 0 0 0
0.1161499 0.037139893 -0.35717773 0 0 0 0
0.11804199 0.037017822 -0.35620117 0 0 0 0
0.12023926 0.037017822 -0.35620117 0 0 0 0
0.12243652 0.037017822 -0.35620117 0 0 0 0
0.12469482 0.037017822 -0.35620117 0 0 0 0
0.12683105 0.037017822 -0.35620117 0 0 0 0
0.12902832 0.037017822 -0.35620117 0 0 0 0
0.13122559 0.037017822 -0.35620117 0 0 0 0
0.13354492 0.037017822 -0.35620117 0 0 0 0
0.13574219 0.037017822 -0.35620117 0 0 0 0
0.13793945 0.037017822 -0.35620117 0 0 0 0
0.14013672 0.037017822 -0.35620117 0 0 0 0
0.14233398 0.037017822 -0.35620117 0 0 0 0
0.14453125 0.037017822 -0.35620117 0 0 0 0
0.14672852 0.037017822 -0.35620117 0 0 0 0
0.14904785 0.037017822 -0.35620117 0 0 0 0
0.15124512 0.037017822 -0.35620117 0 0 0 0
0.15344238 0.037017822 -0.35620117 0 0 0 0
0.15563965 0.037017822 -0.35620117 0 0 0 0
0.15783691 0.037017822 -0.35620117 0 0 0 0
0.16003418 0.037017822 -0.35620117 0 0 0 0
0.16186523 0.03692627 -0.35522461 0 0 0 0
0.1640625 0.03692627 -0.35522461 0 0 0 0
0.16625977 0.03692627 -0.35522461 0 0 0 0
0.16845703 0.03692627 -0.35522461 0 0 0 0
0.1706543 0.03692627 -0.35522461 0 0 0 0
0.17285156 0.03692627 -0.35522461 0 0 0 0
0.17504883 0.03692627 -0.35522461 0 0 0 0
0.17675781 0.036834717 -0.35424805 0 0 0 0
0.17895508 0.036834717 -0.35424805 0 0 0 0
0.18115234 0.036834717 -0.35424805 0 0 0 0
0.18334961 0.036834717 -0.35424805 0 0 0 0
0.18554688 0.036834717 -0.35424805 0 0 0 0
0.18774414 0.036834717 -0.35424805 0 0 0 0
0.18994141 0.036834717 -0.35424805 0 0 0 0
0.19226074 0.036834717 -0.35424805 0 0 0 0
0.19494629 0.03692627 -0.35522461 0 0 0 0
0.19714355 0.03692627 -0.35522461 0 0 0 0
0.19934082 0.03692627 -0.35522461 0 0 0 0
0.060150146 0.037384033 -0.38232422 0 0 0 0
0.062683105 0.037475586 -0.38330078 0 0 0 0
0.065063477 0.037475586 -0.38330078 0 0 0 0
0.067077637 0.037261963 -0.38134766 0 0 0 0
0.068908691 0.036987305 -0.37841797 0 0 0 0
0.070861816 0.036773682 -0.37646484 0 0 0 0
0.072814941 0.036590576 -0.37426758 0 0 0 0
0.074768066 0.036376953 -0.37231445 0 0 0 0
0.076660156 0.036193848 -0.37036133 0 0 0 0
0.078735352 0.036102295 -0.36938477 0 0 0 0
0.080566406 0.035888672 -0.36743164 0 0 0 0
0.082641602 0.035797119 -0.36621094 0 0 0 0
0.084716797 0.035705566 -0.36523438 0 0 0 0
0.086730957 0.035614014 -0.36425781 0 0 0 0
0.088989258 0.035614014 -0.36425781 0 0 0 0
0.091003418 0.035491943 -0.36328125 0 0 0 0
0.093261719 0.035491943 -0.36328125 0 0 0 0
0.09552002 0.035491943 -0.36328125 0 0 0 0
0.097473145 0.035400391 -0.36230469 0 0 0 0
0.099731445 0.035400391 -0.36230469 0 0 0 0
0.10174561 0.035308838 -0.36132812 0 0 0 0
0.10369873 0.035217285 -0.36035156 0 0 0 0
0.10565186 0.035125732 -0.359375 0 0 0 0
0.10784912 0.035125732 -0.359375 0 0 0 0
0.10980225 0.035003662 -0.35839844 0 0 0 0
0.11169434 0.034912109 -0.35717773 0 0 0 0
0.1138916 0.034912109 -0.35717773 0 0 0 0
0.1161499 0.034912109 -0.35717773 0 0 0 0
0.11804199 0.034820557 -0.35620117 0 0 0 0
0.12023926 0.034820557 -0.35620117 0 0 0 0
0.12243652 0.034820557 -0.35620117 0 0 0 0
0.12469482 0.034820557 -0.35620117 0 0 0 0
0.12683105 0.034820557 -0.35620117 0 0 0 0
0.12902832 0.034820557 -0.35620117 0 0 0 0
0.13122559 0.034820557 -0.35620117 0 0 0 0
0.13354492 0.034820557 -0.35620117 0 0 0 0
0.13574219 0.034820557 -0.35620117 0 0 0 0
0.13793945 0.034820557 -0.35620117 0 0 0 0
0.14013672 0.034820557 -0.35620117 0 0 0 0
0.14233398 0.034820557 -0.35620117 0 0 0 0
0.14453125 0.034820557 -0.35620117 0 0 0 0
0.14672852 0.034820557 -0.35620117 0 0 0 0
0.14904785 0.034820557 -0.35620117 0 0 0 0
0.15124512 0.034820557 -0.35620117 0 0 0 0
0.15344238 0.034820557 -0.35620117 0 0 0 0
0.15563965 0.034820557 -0.35620117 0 0 0 0
0.15783691 0.034820557 -0.35620117 0 0 0 0
0.15966797 0.034729004 -0.35522461 0 0 0 0
0.16186523 0.034729004 -0.35522461 0 0 0 0
0.1640625 0.034729004 -0.35522461 0 0 0 0
0.16625977 0.034729004 -0.35522461 0 0 0 0
0.16845703 0.034729004 -0.35522461 0 0 0 0
0.1706543 0.034729004 -0.35522461 0 0 0 0
0.17285156 0.034729004 -0.35522461 0 0 0 0
0.17456055 0.034606934 -0.35424805 0 0 0 0
0.17675781 0.034606934 -0.35424805 0 0 0 0
0.17895508 0.034606934 -0.35424805 0 0 0 0
0.18115234 0.034606934 -0.35424805 0 0 0 0
0.18334961 0.034606934 -0.35424805 0 0 0 0
0.18554688 0.034606934 -0.35424805 0 0 0 0
0.18774414 0.034606934 -0.35424805 0 0 0 0
0.18994141 0.034606934 -0.35424805 0 0 0 0
0.19226074 0.034606934 -0.35424805 0 0 0 0
0.19445801 0.034606934 -0.35424805 0 0 0 0
0.19665527 0.034606934 -0.35424805 0 0 0 0
0.19934082 0.034729004 -0.35522461 0 0 0 0
0.063171387 0.035369873 -0.38647461 0 0 0 0
0.065551758 0.035369873 -0.38647461 0 0 0 0
0.067626953 0.035186768 -0.38427734 0 0 0 0
0.069274902 0.034820557 -0.38037109 0 0 0 0
0.071044922 0.034545898 -0.37744141 0 0 0 0
0.072998047 0.034362793 -0.37524414 0 0 0 0
0.074951172 0.034179688 -0.37329102 0 0 0 0
0.076843262 0.033996582 -0.37133789 0 0 0 0
0.078918457 0.033905029 -0.37036133 0 0 0 0
0.080810547 0.033691406 -0.3684082 0 0 0 0
0.082885742 0.033599854 -0.36743164 0 0 0 0
0.084899902 0.033508301 -0.36621094 0 0 0 0
0.086975098 0.033416748 -0.36523438 0 0 0 0
0.088989258 0.033325195 -0.36425781 0 0 0 0
0.091247559 0.033325195 -0.36425781 0 0 0 0
0.093261719 0.033233643 -0.36328125 0 0 0 0
0.09552002 0.033233643 -0.36328125 0 0 0 0
0.097473145 0.03314209 -0.36230469 0 0 0 0
0.099487305 0.033050537 -0.36132812 0 0 0 0
0.10174561 0.033050537 -0.36132812 0 0 0 0
0.10369873 0.032958984 -0.36035156 0 0 0 0
0.10565186 0.032867432 -0.359375 0 0 0 0
0.10754395 0.032775879 -0.35839844 0 0 0 0
0.10980225 0.032775879 -0.35839844 0 0 0 0
0.11169434 0.032684326 -0.35717773 0 0 0 0
0.1138916 0.032684326 -0.35717773 0 0 0 0
0.11578369 0.032592773 -0.35620117 0 0 0 0
0.11804199 0.032592773 -0.35620117 0 0 0 0
0.12023926 0.032592773 -0.35620117 0 0 0 0
0.12243652 0.032592773 -0.35620117 0 0 0 0
0.12469482 0.032592773 -0.35620117 0 0 0 0
0.12683105 0.032592773 -0.35620117 0 0 0 0
0.12902832 0.032592773 -0.35620117 0 0 0 0
0.13122559 0.032592773 -0.35620117 0 0 0 0
0.13354492 0.032592773 -0.35620117 0 0 0 0
0.13574219 0.032592773 -0.35620117 0 0 0 0
0.13793945 0.032592773 -0.35620117 0 0 0 0
0.14013672 0.032592773 -0.35620117 0 0 0 0
0.14233398 0.032592773 -0.35620117 0 0 0 0
0.14453125 0.032592773 -0.35620117 0 0 0 0
0.14672852 0.032592773 -0.35620117 0 0 0 0
0.14904785 0.032592773 -0.35620117 0 0 0 0
0.15124512 0.032592773 -0.35620117 0 0 0 0
0.15344238 0.032592773 -0.35620117 0 0 0 0
0.15563965 0.032592773 -0.35620117 0 0 0 0
0.15783691 0.032592773 -0.35620117 0 0 0 0
0.15966797 0.032501221 -0.35522461 0 0 0 0
0.16186523 0.032501221 -0.35522461 0 0 0 0
0.1640625 0.032501221 -0.35522461 0 0 0 0
0.16625977 0.032501221 -0.35522461 0 0 0 0
0.16845703 0.032501221 -0.35522461 0 0 0 0
0.1706543 0.032501221 -0.35522461 0 0 0 0
0.17236328 0.032409668 -0.35424805 0 0 0 0
0.17456055 0.032409668 -0.35424805 0 0 0 0
0.17675781 0.032409668 -0.35424805 0 0 0 0
0.17895508 0.032409668 -0.35424805 0 0 0 0
0.18115234 0.032409668 -0.35424805 0 0 0 0
0.18334961 0.032409668 -0.35424805 0 0 0 0
0.18554688 0.032409668 -0.35424805 0 0 0 0
0.18774414 0.032409668 -0.35424805 0 0 0 0
0.18994141 0.032409668 -0.35424805 0 0 0 0
0.19226074 0.032409668 -0.35424805 0 0 0 0
0.19445801 0.032409668 -0.35424805 0 0 0 0
0.19665527 0.032409668 -0.35424805 0 0 0 0
0.19934082 0.032501221 -0.35522461 0 0 0 0
0.06463623 0.033721924 -0.39550781 0 0 0 0
0.066223145 0.033294678 -0.39038086 0 0 0 0
0.068115234 0.033050537 -0.38745117 0 0 0 0
0.069641113 0.032623291 -0.38232422 0 0 0 0
0.071472168 0.032348633 -0.37939453 0 0 0 0
0.073242188 0.032104492 -0.37646484 0 0 0 0
0.075134277 0.031921387 -0.37426758 0 0 0 0
0.077087402 0.031768799 -0.37231445 0 0 0 0
0.078918457 0.031585693 -0.37036133 0 0 0 0
0.081054688 0.031494141 -0.36938477 0 0 0 0
0.083068848 0.031402588 -0.3684082 0 0 0 0
0.085144043 0.031341553 -0.36743164 0 0 0 0
0.086975098 0.031173706 -0.36523438 0 0 0 0
0.088989258 0.031082153 -0.36425781 0 0 0 0
0.091247559 0.031082153 -0.36425781 0 0 0 0
0.093261719 0.030990601 -0.36328125 0 0 0 0
0.09552002 0.030990601 -0.36328125 0 0 0 0
0.097473145 0.030914307 -0.36230469 0 0 0 0
0.099487305 0.030822754 -0.36132812 0 0 0 0
0.10144043 0.03074646 -0.36035156 0 0 0 0
0.10369873 0.03074646 -0.36035156 0 0 0 0
0.10565186 0.030654907 -0.359375 0 0 0 0
0.10754395 0.030563354 -0.35839844 0 0 0 0
0.10949707 0.030487061 -0.35717773 0 0 0 0
0.11169434 0.030487061 -0.35717773 0 0 0 0
0.1138916 0.030487061 -0.35717773 0 0 0 0
0.11578369 0.030395508 -0.35620117 0 0 0 0
0.11804199 0.030395508 -0.35620117 0 0 0 0
0.12023926 0.030395508 -0.35620117 0 0 0 0
0.12243652 0.030395508 -0.35620117 0 0 0 0
0.12469482 0.030395508 -0.35620117 0 0 0 0
0.12683105 0.030395508 -0.35620117 0 0 0 0
0.12902832 0.030395508 -0.35620117 0 0 0 0
0.13122559 0.030395508 -0.35620117 0 0 0 0
0.13354492 0.030395508 -0.35620117 0 0 0 0
0.13574219 0.030395508 -0.35620117 0 0 0 0
0.13793945 0.030395508 -0.35620117 0 0 0 0
0.14013672 0.030395508 -0.35620117 0 0 0 0
0.14233398 0.030395508 -0.35620117 0 0 0 0
0.14453125 0.030395508 -0.35620117 0 0 0 0
0.14672852 0.030395508 -0.35620117 0 0 0 0
0.14904785 0.030395508 -0.35620117 0 0 0 0
0.15124512 0.030395508 -0.35620117 0 0 0 0
0.15344238 0.030395508 -0.35620117 0 0 0 0
0.15563965 0.030395508 -0.35620117 0 0 0 0
0.1574707 0.030303955 -0.35522461 0 0 0 0
0.15966797 0.030303955 -0.35522461 0 0 0 0
0.16186523 0.030303955 -0.35522461 0 0 0 0
0.1640625 0.030303955 -0.35522461 0 0 0 0
0.16625977 0.030303955 -0.35522461 0 0 0 0
0.16845703 0.030303955 -0.35522461 0 0 0 0
0.17016602 0.030227661 -0.35424805 0 0 0 0
0.17236328 0.030227661 -0.35424805 0 0 0 0
0.17456055 0.030227661 -0.35424805 0 0 0 0
0.17675781 0.030227661 -0.35424805 0 0 0 0
0.17895508 0.030227661 -0.35424805 0 0 0 0
0.18115234 0.030227661 -0.35424805 0 0 0 0
0.18334961 0.030227661 -0.35424805 0 0 0 0
0.18554688 0.030227661 -0.35424805 0 0 0 0
0.18774414 0.030227661 -0.35424805 0 0 0 0
0.18994141 0.030227661 -0.35424805 0 0 0 0
0.19226074 0.030227661 -0.35424805 0 0 0 0
0.19445801 0.030227661 -0.35424805 0 0 0 0
0.19665527 0.030227661 -0.35424805 0 0 0 0
0.065124512 0.031524658 -0.3984375 0 0 0 0
0.066894531 0.031204224 -0.39453125 0 0 0 0
0.068847656 0.030960083 -0.39135742 0 0 0 0
0.069824219 0.030319214 -0.38330078 0 0 0 0
0.071655273 0.030090332 -0.38037109 0 0 0 0
0.073425293 0.029846191 -0.37744141 0 0 0 0
0.075378418 0.029693604 -0.37524414 0 0 0 0
0.077270508 0.029525757 -0.37329102 0 0 0 0
0.079162598 0.029373169 -0.37133789 0 0 0 0
0.081237793 0.029296875 -0.37036133 0 0 0 0
0.083068848 0.029129028 -0.3684082 0 0 0 0
0.085144043 0.029052734 -0.36743164 0 0 0 0
0.087219238 0.02897644 -0.36621094 0 0 0 0
0.089233398 0.028900146 -0.36523438 0 0 0 0
0.091247559 0.028823853 -0.36425781 0 0 0 0
0.093261719 0.0287323 -0.36328125 0 0 0 0
0.09552002 0.0287323 -0.36328125 0 0 0 0
0.097473145 0.028656006 -0.36230469 0 0 0 0
0.099487305 0.028579712 -0.36132812 0 0 0 0
0.10144043 0.028503418 -0.36035156 0 0 0 0
0.10339355 0.028427124 -0.359375 0 0 0 0
0.10534668 0.028335571 -0.35839844 0 0 0 0
0.10754395 0.028335571 -0.35839844 0 0 0 0
0.10949707 0.028259277 -0.35717773 0 0 0 0
0.11169434 0.028259277 -0.35717773 0 0 0 0
0.1138916 0.028259277 -0.35717773 0 0 0 0
0.11578369 0.028182983 -0.35620117 0 0 0 0
0.11804199 0.028182983 -0.35620117 0 0 0 0
0.12023926 0.028182983 -0.35620117 0 0 0 0
0.12243652 0.028182983 -0.35620117 0 0 0 0
0.12469482 0.028182983 -0.35620117 0 0 0 0
0.12683105 0.028182983 -0.35620117 0 0 0 0
0.12902832 0.028182983 -0.35620117 0 0 0 0
0.13122559 0.028182983 -0.35620117 0 0 0 0
0.13354492 0.028182983 -0.35620117 0 0 0 0
0.13574219 0.028182983 -0.35620117 0 0 0 0
0.13793945 0.028182983 -0.35620117 0 0 0 0
0.14013672 0.028182983 -0.35620117 0 0 0 0
0.14233398 0.028182983 -0.35620117 0 0 0 0
0.14453125 0.028182983 -0.35620117 0 0 0 0
0.14672852 0.028182983 -0.35620117 0 0 0 0
0.14904785 0.028182983 -0.35620117 0 0 0 0
0.15124512 0.028182983 -0.35620117 0 0 0 0
0.15344238 0.028182983 -0.35620117 0 0 0 0
0.15515137 0.028106689 -0.35522461 0 0 0 0
0.1574707 0.028106689 -0.35522461 0 0 0 0
0.15966797 0.028106689 -0.35522461 0 0 0 0
0.16186523 0.028106689 -0.35522461 0 0 0 0
0.1640625 0.028106689 -0.35522461 0 0 0 0
0.16625977 0.028106689 -0.35522461 0 0 0 0
0.16845703 0.028106689 -0.35522461 0 0 0 0
0.17016602 0.028030396 -0.35424805 0 0 0 0
0.17236328 0.028030396 -0.35424805 0 0 0 0
0.17456055 0.028030396 -0.35424805 0 0 0 0
0.17675781 0.028030396 -0.35424805 0 0 0 0
0.17895508 0.028030396 -0.35424805 0 0 0 0
0.18115234 0.028030396 -0.35424805 0 0 0 0
0.18334961 0.028030396 -0.35424805 0 0 0 0
0.18554688 0.028030396 -0.35424805 0 0 0 0
0.18774414 0.028030396 -0.35424805 0 0 0 0
0.18994141 0.028030396 -0.35424805 0 0 0 0
0.19226074 0.028030396 -0.35424805 0 0 0 0
0.19445801 0.028030396 -0.35424805 0 0 0 0
0.19665527 0.028030396 -0.35424805 0 0 0 0
0.067626953 0.029037476 -0.3984375 0 0 0 0
0.069702148 0.028900146 -0.39648438 0 0 0 0
0.070007324 0.028015137 -0.38427734 0 0 0 0
0.071655273 0.02772522 -0.38037109 0 0 0 0
0.073425293 0.027511597 -0.37744141 0 0 0 0
0.075378418 0.027359009 -0.37524414 0 0 0 0
0.077270508 0.027206421 -0.37329102 0 0 0 0
0.079406738 0.027145386 -0.37231445 0 0 0 0
0.081237793 0.026992798 -0.37036133 0 0 0 0
0.083312988 0.026916504 -0.36938477 0 0 0 0
0.085388184 0.02684021 -0.3684082 0 0 0 0
0.087219238 0.026702881 -0.36621094 0 0 0 0
0.089233398 0.026626587 -0.36523438 0 0 0 0
0.091247559 0.026550293 -0.36425781 0 0 0 0
0.093261719 0.026473999 -0.36328125 0 0 0 0
0.09552002 0.026473999 -0.36328125 0 0 0 0
0.097229004 0.02633667 -0.36132812 0 0 0 0
0.099182129 0.026260376 -0.36035156 0 0 0 0
0.10113525 0.026184082 -0.359375 0 0 0 0
0.10339355 0.026184082 -0.359375 0 0 0 0
0.10534668 0.026107788 -0.35839844 0 0 0 0
0.10723877 0.026046753 -0.35717773 0 0 0 0
0.10949707 0.026046753 -0.35717773 0 0 0 0
0.11169434 0.026046753 -0.35717773 0 0 0 0
0.1138916 0.026046753 -0.35717773 0 0 0 0
0.11578369 0.025970459 -0.35620117 0 0 0 0
0.11804199 0.025970459 -0.35620117 0 0 0 0
0.12023926 0.025970459 -0.35620117 0 0 0 0
0.12243652 0.025970459 -0.35620117 0 0 0 0
0.12469482 0.025970459 -0.35620117 0 0 0 0
0.12683105 0.025970459 -0.35620117 0 0 0 0
0.12902832 0.025970459 -0.35620117 0 0 0 0
0.13122559 0.025970459 -0.35620117 0 0 0 0
0.13354492 0.025970459 -0.35620117 0 0 0 0
0.13574219 0.025970459 -0.35620117 0 0 0 0
0.13793945 0.025970459 -0.35620117 0 0 0 0
0.14013672 0.025970459 -0.35620117 0 0 0 0
0.14233398 0.025970459 -0.35620117 0 0 0 0
0.14453125 0.025970459 -0.35620117 0 0 0 0
0.14672852 0.025970459 -0.35620117 0 0 0 0
0.14904785 0.025970459 -0.35620117 0 0 0 0
0.15075684 0.025894165 -0.35522461 0 0 0 0
0.1529541 0.025894165 -0.35522461 0 0 0 0
0.15515137 0.025894165 -0.35522461 0 0 0 0
0.1574707 0.025894165 -0.35522461 0 0 0 0
0.15966797 0.025894165 -0.35522461 0 0 0 0
0.16186523 0.025894165 -0.35522461 0 0 0 0
0.1640625 0.025894165 -0.35522461 0 0 0 0
0.16625977 0.025894165 -0.35522461 0 0 0 0
0.16796875 0.025817871 -0.35424805 0 0 0 0
0.17016602 0.025817871 -0.35424805 0 0 0 0
0.17236328 0.025817871 -0.35424805 0 0 0 0
0.17456055 0.025817871 -0.35424805 0 0 0 0
0.17675781 0.025817871 -0.35424805 0 0 0 0
0.17895508 0.025817871 -0.35424805 0 0 0 0
0.18115234 0.025817871 -0.35424805 0 0 0 0
0.18334961 0.025817871 -0.35424805 0 0 0 0
0.18554688 0.025817871 -0.35424805 0 0 0 0
0.18774414 0.025817871 -0.35424805 0 0 0 0
0.18994141 0.025817871 -0.35424805 0 0 0 0
0.19226074 0.025817871 -0.35424805 0 0 0 0
0.19445801 0.025817871 -0.35424805 0 0 0 0
0.19665527 0.025817871 -0.35424805 0 0 0 0
0.073425293 0.025161743 -0.37744141 0 0 0 0
0.075378418 0.025024414 -0.37524414 0 0 0 0
0.077270508 0.024887085 -0.37329102 0 0 0 0
0.079406738 0.02482605 -0.37231445 0 0 0 0
0.081481934 0.024749756 -0.37133789 0 0 0 0
0.083312988 0.024627686 -0.36938477 0 0 0 0
0.085388184 0.024551392 -0.3684082 0 0 0 0
0.097229004 0.024093628 -0.36132812 0 0 0 0
0.098937988 0.023956299 -0.359375 0 0 0 0
0.10113525 0.023956299 -0.359375 0 0 0 0
0.10308838 0.023880005 -0.35839844 0 0 0 0
0.10534668 0.023880005 -0.35839844 0 0 0 0
0.10723877 0.02381897 -0.35717773 0 0 0 0
0.10949707 0.02381897 -0.35717773 0 0 0 0
0.11169434 0.02381897 -0.35717773 0 0 0 0
0.11358643 0.023757935 -0.35620117 0 0 0 0
0.11578369 0.023757935 -0.35620117 0 0 0 0
0.11804199 0.023757935 -0.35620117 0 0 0 0
0.12023926 0.023757935 -0.35620117 0 0 0 0
0.12243652 0.023757935 -0.35620117 0 0 0 0
0.12469482 0.023757935 -0.35620117 0 0 0 0
0.12683105 0.023757935 -0.35620117 0 0 0 0
0.12902832 0.023757935 -0.35620117 0 0 0 0
0.13122559 0.023757935 -0.35620117 0 0 0 0
0.13354492 0.023757935 -0.35620117 0 0 0 0
0.13574219 0.023757935 -0.35620117 0 0 0 0
0.13793945 0.023757935 -0.35620117 0 0 0 0
0.14013672 0.023757935 -0.35620117 0 0 0 0
0.14233398 0.023757935 -0.35620117 0 0 0 0
0.14416504 0.023681641 -0.35522461 0 0 0 0
0.1463623 0.023681641 -0.35522461 0 0 0 0
0.14855957 0.023681641 -0.35522461 0 0 0 0
0.15075684 0.023681641 -0.35522461 0 0 0 0
0.1529541 0.023681641 -0.35522461 0 0 0 0
0.15515137 0.023681641 -0.35522461 0 0 0 0
0.1574707 0.023681641 -0.35522461 0 0 0 0
0.15966797 0.023681641 -0.35522461 0 0 0 0
0.16186523 0.023681641 -0.35522461 0 0 0 0
0.1640625 0.023681641 -0.35522461 0 0 0 0
0.16625977 0.023681641 -0.35522461 0 0 0 0
0.16796875 0.023620605 -0.35424805 0 0 0 0
0.17016602 0.023620605 -0.35424805 0 0 0 0
0.17236328 0.023620605 -0.35424805 0 0 0 0
0.17456055 0.023620605 -0.35424805 0 0 0 0
0.17675781 0.023620605 -0.35424805 0 0 0 0
0.17895508 0.023620605 -0.35424805 0 0 0 0
0.18115234 0.023620605 -0.35424805 0 0 0 0
0.18334961 0.023620605 -0.35424805 0 0 0 0
0.18505859 0.02355957 -0.35327148 0 0 0 0
0.18725586 0.02355957 -0.35327148 0 0 0 0
0.18945312 0.02355957 -0.35327148 0 0 0 0
0.19226074 0.023620605 -0.35424805 0 0 0 0
0.19445801 0.023620605 -0.35424805 0 0 0 0
0.19665527 0.023620605 -0.35424805 0 0 0 0
0.098632812 0.02166748 -0.35839844 0 0 0 0
0.10089111 0.02166748 -0.35839844 0 0 0 0
0.10308838 0.02166748 -0.35839844 0 0 0 0
0.1050415 0.021606445 -0.35717773 0 0 0 0
0.10723877 0.021606445 -0.35717773 0 0 0 0
0.10949707 0.021606445 -0.35717773 0 0 0 0
0.11138916 0.02154541 -0.35620117 0 0 0 0
0.11358643 0.02154541 -0.35620117 0 0 0 0
0.11578369 0.02154541 -0.35620117 0 0 0 0
0.11804199 0.02154541 -0.35620117 0 0 0 0
0.12023926 0.02154541 -0.35620117 0 0 0 0
0.12243652 0.02154541 -0.35620117 0 0 0 0
0.12469482 0.02154541 -0.35620117 0 0 0 0
0.12683105 0.02154541 -0.35620117 0 0 0 0
0.12902832 0.02154541 -0.35620117 0 0 0 0
0.13122559 0.02154541 -0.35620117 0 0 0 0
0.13354492 0.02154541 -0.35620117 0 0 0 0
0.13574219 0.02154541 -0.35620117 0 0 0 0
0.13793945 0.02154541 -0.35620117 0 0 0 0
0.13977051 0.021484375 -0.35522461 0 0 0 0
0.14196777 0.021484375 -0.35522461 0 0 0 0
0.14416504 0.021484375 -0.35522461 0 0 0 0
0.1463623 0.021484375 -0.35522461 0 0 0 0
0.14855957 0.021484375 -0.35522461 0 0 0 0
0.15075684 0.021484375 -0.35522461 0 0 0 0
0.1529541 0.021484375 -0.35522461 0 0 0 0
0.15515137 0.021484375 -0.35522461 0 0 0 0
0.1574707 0.021484375 -0.35522461 0 0 0 0
0.15966797 0.021484375 -0.35522461 0 0 0 0
0.16186523 0.021484375 -0.35522461 0 0 0 0
0.1640625 0.021484375 -0.35522461 0 0 0 0
0.16577148 0.02142334 -0.35424805 0 0 0 0
0.16796875 0.02142334 -0.35424805 0 0 0 0
0.17016602 0.02142334 -0.35424805 0 0 0 0
0.17236328 0.02142334 -0.35424805 0 0 0 0
0.17456055 0.02142334 -0.35424805 0 0 0 0
0.17675781 0.02142334 -0.35424805 0 0 0 0
0.1784668 0.021362305 -0.35327148 0 0 0 0
0.18066406 0.021362305 -0.35327148 0 0 0 0
0.18286133 0.021362305 -0.35327148 0 0 0 0
0.18505859 0.021362305 -0.35327148 0 0 0 0
0.18725586 0.021362305 -0.35327148 0 0 0 0
0.18945312 0.021362305 -0.35327148 0 0 0 0
0.19165039 0.021362305 -0.35327148 0 0 0 0
0.19445801 0.02142334 -0.35424805 0 0 0 0
0.098632812 0.019439697 -0.35839844 0 0 0 0
0.10089111 0.019439697 -0.35839844 0 0 0 0
0.10284424 0.019378662 -0.35717773 0 0 0 0
0.1050415 0.019378662 -0.35717773 0 0 0 0
0.10723877 0.019378662 -0.35717773 0 0 0 0
0.10919189 0.019317627 -0.35620117 0 0 0 0
0.11138916 0.019317627 -0.35620117 0 0 0 0
0.11358643 0.019317627 -0.35620117 0 0 0 0
0.11578369 0.019317627 -0.35620117 0 0 0 0
0.11804199 0.019317627 -0.35620117 0 0 0 0
0.12023926 0.019317627 -0.35620117 0 0 0 0
0.12243652 0.019317627 -0.35620117 0 0 0 0
0.12469482 0.019317627 -0.35620117 0 0 0 0
0.12683105 0.019317627 -0.35620117 0 0 0 0
0.12902832 0.019317627 -0.35620117 0 0 0 0
0.13122559 0.019317627 -0.35620117 0 0 0 0
0.13354492 0.019317627 -0.35620117 0 0 0 0
0.13537598 0.019271851 -0.35522461 0 0 0 0
0.13757324 0.019271851 -0.35522461 0 0 0 0
0.13977051 0.019271851 -0.35522461 0 0 0 0
0.14196777 0.019271851 -0.35522461 0 0 0 0
0.14416504 0.019271851 -0.35522461 0 0 0 0
0.1463623 0.019271851 -0.35522461 0 0 0 0
0.14855957 0.019271851 -0.35522461 0 0 0 0
0.15075684 0.019271851 -0.35522461 0 0 0 0
0.1529541 0.019271851 -0.35522461 0 0 0 0
0.15515137 0.019271851 -0.35522461 0 0 0 0
0.1574707 0.019271851 -0.35522461 0 0 0 0
0.15966797 0.019271851 -0.35522461 0 0 0 0
0.16186523 0.019271851 -0.35522461 0 0 0 0
0.16357422 0.019210815 -0.35424805 0 0 0 0
0.16577148 0.019210815 -0.35424805 0 0 0 0
0.16796875 0.019210815 -0.35424805 0 0 0 0
0.17016602 0.019210815 -0.35424805 0 0 0 0
0.17236328 0.019210815 -0.35424805 0 0 0 0
0.17456055 0.019210815 -0.35424805 0 0 0 0
0.17626953 0.019165039 -0.35327148 0 0 0 0
0.1784668 0.019165039 -0.35327148 0 0 0 0
0.18066406 0.019165039 -0.35327148 0 0 0 0
0.18286133 0.019165039 -0.35327148 0 0 0 0
0.18505859 0.019165039 -0.35327148 0 0 0 0
0.18725586 0.019165039 -0.35327148 0 0 0 0
0.18945312 0.019165039 -0.35327148 0 0 0 0
0.19165039 0.019165039 -0.35327148 0 0 0 0
0.19384766 0.019165039 -0.35327148 0 0 0 0
0.098632812 0.017211914 -0.35839844 0 0 0 0
0.10058594 0.017150879 -0.35717773 0 0 0 0
0.10284424 0.017150879 -0.35717773 0 0 0 0
0.1050415 0.017150879 -0.35717773 0 0 0 0
0.10693359 0.017105103 -0.35620117 0 0 0 0
0.10919189 0.017105103 -0.35620117 0 0 0 0
0.11138916 0.017105103 -0.35620117 0 0 0 0
0.11358643 0.017105103 -0.35620117 0 0 0 0
0.11578369 0.017105103 -0.35620117 0 0 0 0
0.11804199 0.017105103 -0.35620117 0 0 0 0
0.12023926 0.017105103 -0.35620117 0 0 0 0
0.12243652 0.017105103 -0.35620117 0 0 0 0
0.12469482 0.017105103 -0.35620117 0 0 0 0
0.12683105 0.017105103 -0.35620117 0 0 0 0
0.12902832 0.017105103 -0.35620117 0 0 0 0
0.13122559 0.017105103 -0.35620117 0 0 0 0
0.13317871 0.017059326 -0.35522461 0 0 0 0
0.13537598 0.017059326 -0.35522461 0 0 0 0
0.13757324 0.017059326 -0.35522461 0 0 0 0
0.13977051 0.017059326 -0.35522461 0 0 0 0
0.14196777 0.017059326 -0.35522461 0 0 0 0
0.14416504 0.017059326 -0.35522461 0 0 0 0
0.1463623 0.017059326 -0.35522461 0 0 0 0
0.14855957 0.017059326 -0.35522461 0 0 0 0
0.15075684 0.017059326 -0.35522461 0 0 0 0
0.1529541 0.017059326 -0.35522461 0 0 0 0
0.15515137 0.017059326 -0.35522461 0 0 0 0
0.15698242 0.01701355 -0.35424805 0 0 0 0
0.15917969 0.01701355 -0.35424805 0 0 0 0
0.16137695 0.01701355 -0.35424805 0 0 0 0
0.16357422 0.01701355 -0.35424805 0 0 0 0
0.16577148 0.01701355 -0.35424805 0 0 0 0
0.16796875 0.01701355 -0.35424805 0 0 0 0
0.17016602 0.01701355 -0.35424805 0 0 0 0
0.17236328 0.01701355 -0.35424805 0 0 0 0
0.17407227 0.016967773 -0.35327148 0 0 0 0
0.17626953 0.016967773 -0.35327148 0 0 0 0
0.1784668 0.016967773 -0.35327148 0 0 0 0
0.18066406 0.016967773 -0.35327148 0 0 0 0
0.18286133 0.016967773 -0.35327148 0 0 0 0
0.18505859 0.016967773 -0.35327148 0 0 0 0
0.18725586 0.016967773 -0.35327148 0 0 0 0
0.18945312 0.016967773 -0.35327148 0 0 0 0
0.19165039 0.016967773 -0.35327148 0 0 0 0
0.19384766 0.016967773 -0.35327148 0 0 0 0
0.098388672 0.014938354 -0.35717773 0 0 0 0
0.10058594 0.014938354 -0.35717773 0 0 0 0
0.10284424 0.014938354 -0.35717773 0 0 0 0
0.10473633 0.014900208 -0.35620117 0 0 0 0
0.10693359 0.014900208 -0.35620117 0 0 0 0
0.10919189 0.014900208 -0.35620117 0 0 0 0
0.11138916 0.014900208 -0.35620117 0 0 0 0
0.11358643 0.014900208 -0.35620117 0 0 0 0
0.11578369 0.014900208 -0.35620117 0 0 0 0
0.11804199 0.014900208 -0.35620117 0 0 0 0
0.12023926 0.014900208 -0.35620117 0 0 0 0
0.12243652 0.014900208 -0.35620117 0 0 0 0
0.12469482 0.014900208 -0.35620117 0 0 0 0
0.12646484 0.014854431 -0.35522461 0 0 0 0
0.12866211 0.014854431 -0.35522461 0 0 0 0
0.13085938 0.014854431 -0.35522461 0 0 0 0
0.13317871 0.014854431 -0.35522461 0 0 0 0
0.13537598 0.014854431 -0.35522461 0 0 0 0
0.13757324 0.014854431 -0.35522461 0 0 0 0
0.13977051 0.014854431 -0.35522461 0 0 0 0
0.14196777 0.014854431 -0.35522461 0 0 0 0
0.14416504 0.014854431 -0.35522461 0 0 0 0
0.1463623 0.014854431 -0.35522461 0 0 0 0
0.14855957 0.014854431 -0.35522461 0 0 0 0
0.15039062 0.014816284 -0.35424805 0 0 0 0
0.15258789 0.014816284 -0.35424805 0 0 0 0
0.15478516 0.014816284 -0.35424805 0 0 0 0
0.15698242 0.014816284 -0.35424805 0 0 0 0
0.15917969 0.014816284 -0.35424805 0 0 0 0
0.16137695 0.014816284 -0.35424805 0 0 0 0
0.16357422 0.014816284 -0.35424805 0 0 0 0
0.16577148 0.014816284 -0.35424805 0 0 0 0
0.16796875 0.014816284 -0.35424805 0 0 0 0
0.17016602 0.014816284 -0.35424805 0 0 0 0
0.171875 0.014770508 -0.35327148 0 0 0 0
