ply
format ascii 1.0
comment PCL generated
element vertex 1085
property float x
property float y
property float z
property float nx
property float ny
property float nz
property float curvature
element face 0
element camera 0
property float view_px
property float view_py
property float view_pz
property float x_axisx
property float x_axisy
property float x_axisz
property float y_axisx
property float y_axisy
property float y_axisz
property float z_axisx
property float z_axisy
property float z_axisz
property float focal
property float scalex
property float scaley
property float centerx
property float centery
property int viewportx
property int viewporty
property float k1
property float k2
end_header
0.068786621 0.024353027 -0.36523438 0 0 0 0
0.071044922 0.024353027 -0.36523438 0 0 0 0
0.073364258 0.024353027 -0.36523438 0 0 0 0
0.089904785 0.026565552 -0.3984375 0 0 0 0
0.091918945 0.026428223 -0.39648438 0 0 0 0
0.09387207 0.026290894 -0.39453125 0 0 0 0
0.095825195 0.026168823 -0.39233398 0 0 0 0
0.09777832 0.026031494 -0.39038086 0 0 0 0
0.09967041 0.025894165 -0.38842773 0 0 0 0
0.10186768 0.02583313 -0.38745117 0 0 0 0
0.10400391 0.025756836 -0.38647461 0 0 0 0
0.10638428 0.025756836 -0.38647461 0 0 0 0
0.10876465 0.025756836 -0.38647461 0 0 0 0
0.11175537 0.025894165 -0.38842773 0 0 0 0
0.11419678 0.025894165 -0.38842773 0 0 0 0
0.11688232 0.0259552 -0.3894043 0 0 0 0
0.11932373 0.0259552 -0.3894043 0 0 0 0
0.12176514 0.0259552 -0.3894043 0 0 0 0
0.12414551 0.0259552 -0.3894043 0 0 0 0
0.12658691 0.0259552 -0.3894043 0 0 0 0
0.12927246 0.026031494 -0.39038086 0 0 0 0
0.13171387 0.026031494 -0.39038086 0 0 0 0
0.13415527 0.026031494 -0.39038086 0 0 0 0
0.13659668 0.026031494 -0.39038086 0 0 0 0
0.13867188 0.0259552 -0.3894043 0 0 0 0
0.14111328 0.0259552 -0.3894043 0 0 0 0
0.14306641 0.025894165 -0.38842773 0 0 0 0
0.13757324 0.024093628 -0.36132812 0 0 0 0
0.13952637 0.024017334 -0.36035156 0 0 0 0
0.14099121 0.023880005 -0.35839844 0 0 0 0
0.14233398 0.023757935 -0.35620117 0 0 0 0
0.14379883 0.023620605 -0.35424805 0 0 0 0
0.1451416 0.023483276 -0.35229492 0 0 0 0
0.14611816 0.023284912 -0.34912109 0 0 0 0
0.14733887 0.023147583 -0.34716797 0 0 0 0
0.14819336 0.022949219 -0.34423828 0 0 0 0
0.14953613 0.02281189 -0.34228516 0 0 0 0
0.15075684 0.022689819 -0.34008789 0 0 0 0
0.15148926 0.022476196 -0.3371582 0 0 0 0
0.15270996 0.022354126 -0.33520508 0 0 0 0
0.15380859 0.022216797 -0.33325195 0 0 0 0
0.1550293 0.022079468 -0.33105469 0 0 0 0
0.15612793 0.021942139 -0.32910156 0 0 0 0
0.15759277 0.021881104 -0.328125 0 0 0 0
0.15869141 0.021743774 -0.32617188 0 0 0 0
0.16027832 0.021682739 -0.32519531 0 0 0 0
0.16223145 0.021682739 -0.32519531 0 0 0 0
0.16430664 0.021682739 -0.32519531 0 0 0 0
0.16625977 0.021682739 -0.32519531 0 0 0 0
0.16833496 0.021682739 -0.32519531 0 0 0 0
0.17089844 0.021743774 -0.32617188 0 0 0 0
0.17346191 0.02180481 -0.32714844 0 0 0 0
0.17602539 0.021881104 -0.328125 0 0 0 0
0.17858887 0.021942139 -0.32910156 0 0 0 0
0.18115234 0.022018433 -0.33007812 0 0 0 0
0.18432617 0.022140503 -0.33227539 0 0 0 0
0.18701172 0.022216797 -0.33325195 0 0 0 0
0.1895752 0.022277832 -0.33422852 0 0 0 0
0.19226074 0.022354126 -0.33520508 0 0 0 0
0.19555664 0.022476196 -0.3371582 0 0 0 0
0.19824219 0.02255249 -0.33813477 0 0 0 0
0.20092773 0.022613525 -0.33911133 0 0 0 0
0.20422363 0.022750854 -0.34130859 0 0 0 0
0.20690918 0.02281189 -0.34228516 0 0 0 0
0.2097168 0.022888184 -0.34326172 0 0 0 0
0.21240234 0.022949219 -0.34423828 0 0 0 0
0.21582031 0.023086548 -0.34619141 0 0 0 0
0.21862793 0.023147583 -0.34716797 0 0 0 0
0.22143555 0.023223877 -0.34814453 0 0 0 0
0.22424316 0.023284912 -0.34912109 0 0 0 0
0.22766113 0.023422241 -0.35131836 0 0 0 0
0.23046875 0.023483276 -0.35229492 0 0 0 0
0.23339844 0.02355957 -0.35327148 0 0 0 0
0.23620605 0.023620605 -0.35424805 0 0 0 0
0.23913574 0.023681641 -0.35522461 0 0 0 0
0.24133301 0.023681641 -0.35522461 0 0 0 0
0.029937744 0.023666382 -0.39135742 0 0 0 0
0.031951904 0.023361206 -0.38647461 0 0 0 0
0.034179688 0.023239136 -0.38427734 0 0 0 0
0.0362854 0.02305603 -0.38134766 0 0 0 0
0.038330078 0.022872925 -0.37841797 0 0 0 0
0.040466309 0.022750854 -0.37646484 0 0 0 0
0.042480469 0.022567749 -0.37329102 0 0 0 0
0.044555664 0.022445679 -0.37133789 0 0 0 0
0.046600342 0.022323608 -0.36938477 0 0 0 0
0.04876709 0.022262573 -0.3684082 0 0 0 0
0.050933838 0.022201538 -0.36743164 0 0 0 0
0.053070068 0.022140503 -0.36621094 0 0 0 0
0.055175781 0.022079468 -0.36523438 0 0 0 0
0.0574646 0.022079468 -0.36523438 0 0 0 0
0.0597229 0.022079468 -0.36523438 0 0 0 0
0.061828613 0.022018433 -0.36425781 0 0 0 0
0.064086914 0.022018433 -0.36425781 0 0 0 0
0.066345215 0.022018433 -0.36425781 0 0 0 0
0.068786621 0.022079468 -0.36523438 0 0 0 0
0.071044922 0.022079468 -0.36523438 0 0 0 0
0.073364258 0.022079468 -0.36523438 0 0 0 0
0.090148926 0.024154663 -0.39941406 0 0 0 0
0.092163086 0.024032593 -0.39746094 0 0 0 0
0.094116211 0.023910522 -0.39550781 0 0 0 0
0.095825195 0.023727417 -0.39233398 0 0 0 0
0.09777832 0.023605347 -0.39038086 0 0 0 0
0.09967041 0.023483276 -0.38842773 0 0 0 0
0.10186768 0.023422241 -0.38745117 0 0 0 0
0.10400391 0.023361206 -0.38647461 0 0 0 0
0.10638428 0.023361206 -0.38647461 0 0 0 0
0.10906982 0.023422241 -0.38745117 0 0 0 0
0.11206055 0.023544312 -0.3894043 0 0 0 0
0.11474609 0.023605347 -0.39038086 0 0 0 0
0.1171875 0.023605347 -0.39038086 0 0 0 0
0.11993408 0.023666382 -0.39135742 0 0 0 0
0.12207031 0.023605347 -0.39038086 0 0 0 0
0.12451172 0.023605347 -0.39038086 0 0 0 0
0.12683105 0.023605347 -0.39038086 0 0 0 0
0.12927246 0.023605347 -0.39038086 0 0 0 0
0.13171387 0.023605347 -0.39038086 0 0 0 0
0.13415527 0.023605347 -0.39038086 0 0 0 0
0.13623047 0.023544312 -0.3894043 0 0 0 0
0.13830566 0.023483276 -0.38842773 0 0 0 0
0.14074707 0.023483276 -0.38842773 0 0 0 0
0.1427002 0.023422241 -0.38745117 0 0 0 0
0.13806152 0.021896362 -0.36230469 0 0 0 0
0.13952637 0.021774292 -0.36035156 0 0 0 0
0.14099121 0.02166748 -0.35839844 0 0 0 0
0.14233398 0.02154541 -0.35620117 0 0 0 0
0.14379883 0.02142334 -0.35424805 0 0 0 0
0.1451416 0.02130127 -0.35229492 0 0 0 0
0.14611816 0.021118164 -0.34912109 0 0 0 0
0.14733887 0.020996094 -0.34716797 0 0 0 0
0.14819336 0.020812988 -0.34423828 0 0 0 0
0.14953613 0.020690918 -0.34228516 0 0 0 0
0.15075684 0.020568848 -0.34008789 0 0 0 0
0.15148926 0.020385742 -0.3371582 0 0 0 0
0.15270996 0.020263672 -0.33520508 0 0 0 0
0.15380859 0.020141602 -0.33325195 0 0 0 0
0.1550293 0.020019531 -0.33105469 0 0 0 0
0.15612793 0.019897461 -0.32910156 0 0 0 0
0.15759277 0.019836426 -0.328125 0 0 0 0
0.15869141 0.019714355 -0.32617188 0 0 0 0
0.16027832 0.01965332 -0.32519531 0 0 0 0
0.16223145 0.01965332 -0.32519531 0 0 0 0
0.16430664 0.01965332 -0.32519531 0 0 0 0
0.16625977 0.01965332 -0.32519531 0 0 0 0
0.16833496 0.01965332 -0.32519531 0 0 0 0
0.17089844 0.019714355 -0.32617188 0 0 0 0
0.17346191 0.019775391 -0.32714844 0 0 0 0
0.17602539 0.019836426 -0.328125 0 0 0 0
0.17858887 0.019897461 -0.32910156 0 0 0 0
0.18115234 0.019958496 -0.33007812 0 0 0 0
0.18383789 0.020019531 -0.33105469 0 0 0 0
0.18701172 0.020141602 -0.33325195 0 0 0 0
0.1895752 0.020202637 -0.33422852 0 0 0 0
0.19226074 0.020263672 -0.33520508 0 0 0 0
0.19555664 0.020385742 -0.3371582 0 0 0 0
0.19824219 0.020446777 -0.33813477 0 0 0 0
0.20092773 0.020507812 -0.33911133 0 0 0 0
0.20361328 0.020568848 -0.34008789 0 0 0 0
0.20690918 0.020690918 -0.34228516 0 0 0 0
0.2097168 0.020751953 -0.34326172 0 0 0 0
0.21240234 0.020812988 -0.34423828 0 0 0 0
0.21582031 0.020935059 -0.34619141 0 0 0 0
0.21862793 0.020996094 -0.34716797 0 0 0 0
0.22143555 0.021057129 -0.34814453 0 0 0 0
0.22424316 0.021118164 -0.34912109 0 0 0 0
0.22705078 0.021179199 -0.3503418 0 0 0 0
0.23046875 0.02130127 -0.35229492 0 0 0 0
0.23339844 0.021362305 -0.35327148 0 0 0 0
0.23620605 0.02142334 -0.35424805 0 0 0 0
0.23913574 0.021484375 -0.35522461 0 0 0 0
0.24133301 0.021484375 -0.35522461 0 0 0 0
0.2442627 0.02154541 -0.35620117 0 0 0 0
0.030258179 0.021453857 -0.39550781 0 0 0 0
0.032287598 0.021179199 -0.39038086 0 0 0 0
0.034454346 0.021011353 -0.38745117 0 0 0 0
0.036560059 0.020843506 -0.38427734 0 0 0 0
0.038543701 0.020629883 -0.38037109 0 0 0 0
0.040588379 0.020462036 -0.37744141 0 0 0 0
0.042602539 0.020309448 -0.37426758 0 0 0 0
0.044677734 0.020202637 -0.37231445 0 0 0 0
0.04675293 0.020080566 -0.37036133 0 0 0 0
0.048919678 0.02003479 -0.36938477 0 0 0 0
0.050933838 0.019927979 -0.36743164 0 0 0 0
0.053070068 0.019866943 -0.36621094 0 0 0 0
0.055328369 0.019866943 -0.36621094 0 0 0 0
0.0574646 0.019821167 -0.36523438 0 0 0 0
0.0597229 0.019821167 -0.36523438 0 0 0 0
0.062011719 0.019821167 -0.36523438 0 0 0 0
0.06427002 0.019821167 -0.36523438 0 0 0 0
0.06652832 0.019821167 -0.36523438 0 0 0 0
0.068786621 0.019821167 -0.36523438 0 0 0 0
0.071044922 0.019821167 -0.36523438 0 0 0 0
0.092346191 0.021606445 -0.3984375 0 0 0 0
0.094116211 0.021453857 -0.39550781 0 0 0 0
0.096069336 0.021331787 -0.39331055 0 0 0 0
0.098022461 0.021224976 -0.39135742 0 0 0 0
0.09967041 0.021072388 -0.38842773 0 0 0 0
0.10186768 0.021011353 -0.38745117 0 0 0 0
0.10400391 0.020950317 -0.38647461 0 0 0 0
0.10638428 0.020950317 -0.38647461 0 0 0 0
0.10906982 0.021011353 -0.38745117 0 0 0 0
0.11291504 0.021286011 -0.39233398 0 0 0 0
0.11566162 0.021331787 -0.39331055 0 0 0 0
0.11810303 0.021331787 -0.39331055 0 0 0 0
0.12054443 0.021331787 -0.39331055 0 0 0 0
0.12268066 0.021286011 -0.39233398 0 0 0 0
0.12512207 0.021286011 -0.39233398 0 0 0 0
0.12719727 0.021224976 -0.39135742 0 0 0 0
0.12963867 0.021224976 -0.39135742 0 0 0 0
0.13171387 0.021179199 -0.39038086 0 0 0 0
0.13378906 0.021118164 -0.3894043 0 0 0 0
0.13623047 0.021118164 -0.3894043 0 0 0 0
0.13793945 0.021011353 -0.38745117 0 0 0 0
0.14001465 0.020950317 -0.38647461 0 0 0 0
0.14196777 0.020904541 -0.38549805 0 0 0 0
0.14294434 0.020690918 -0.38134766 0 0 0 0
0.13806152 0.01965332 -0.36230469 0 0 0 0
0.13952637 0.019546509 -0.36035156 0 0 0 0
0.14099121 0.019439697 -0.35839844 0 0 0 0
0.14233398 0.019317627 -0.35620117 0 0 0 0
0.14379883 0.019210815 -0.35424805 0 0 0 0
0.1451416 0.019104004 -0.35229492 0 0 0 0
0.14611816 0.018936157 -0.34912109 0 0 0 0
0.14733887 0.018829346 -0.34716797 0 0 0 0
0.14819336 0.018676758 -0.34423828 0 0 0 0
0.14953613 0.018554688 -0.34228516 0 0 0 0
0.15075684 0.018447876 -0.34008789 0 0 0 0
0.15148926 0.018295288 -0.3371582 0 0 0 0
0.15270996 0.018173218 -0.33520508 0 0 0 0
0.15380859 0.018066406 -0.33325195 0 0 0 0
0.1550293 0.017959595 -0.33105469 0 0 0 0
0.15612793 0.017852783 -0.32910156 0 0 0 0
0.15710449 0.017745972 -0.32714844 0 0 0 0
0.15869141 0.017684937 -0.32617188 0 0 0 0
0.16027832 0.01763916 -0.32519531 0 0 0 0
0.16223145 0.01763916 -0.32519531 0 0 0 0
0.16381836 0.017578125 -0.32421875 0 0 0 0
0.16625977 0.01763916 -0.32519531 0 0 0 0
0.16833496 0.01763916 -0.32519531 0 0 0 0
0.17089844 0.017684937 -0.32617188 0 0 0 0
0.17346191 0.017745972 -0.32714844 0 0 0 0
0.17602539 0.017807007 -0.328125 0 0 0 0
0.17858887 0.017852783 -0.32910156 0 0 0 0
0.18115234 0.017913818 -0.33007812 0 0 0 0
0.18383789 0.017959595 -0.33105469 0 0 0 0
0.18701172 0.018066406 -0.33325195 0 0 0 0
0.1895752 0.018127441 -0.33422852 0 0 0 0
0.19226074 0.018173218 -0.33520508 0 0 0 0
0.19494629 0.018234253 -0.33618164 0 0 0 0
0.19824219 0.018341064 -0.33813477 0 0 0 0
0.20092773 0.0184021 -0.33911133 0 0 0 0
0.20361328 0.018447876 -0.34008789 0 0 0 0
0.20690918 0.018554688 -0.34228516 0 0 0 0
0.2097168 0.018615723 -0.34326172 0 0 0 0
0.21240234 0.018676758 -0.34423828 0 0 0 0
0.21520996 0.018722534 -0.34521484 0 0 0 0
0.21862793 0.018829346 -0.34716797 0 0 0 0
0.22143555 0.018890381 -0.34814453 0 0 0 0
0.22424316 0.018936157 -0.34912109 0 0 0 0
0.22705078 0.018997192 -0.3503418 0 0 0 0
0.2298584 0.019058228 -0.35131836 0 0 0 0
0.23339844 0.019165039 -0.35327148 0 0 0 0
0.23620605 0.019210815 -0.35424805 0 0 0 0
0.23913574 0.019271851 -0.35522461 0 0 0 0
0.24133301 0.019271851 -0.35522461 0 0 0 0
0.2442627 0.019317627 -0.35620117 0 0 0 0
0.030410767 0.019088745 -0.39746094 0 0 0 0
0.032531738 0.018890381 -0.39331055 0 0 0 0
0.034790039 0.018798828 -0.39135742 0 0 0 0
0.036956787 0.01864624 -0.38842773 0 0 0 0
0.038757324 0.018356323 -0.38232422 0 0 0 0
0.040802002 0.018218994 -0.37939453 0 0 0 0
0.042694092 0.01802063 -0.37524414 0 0 0 0
0.044799805 0.017929077 -0.37329102 0 0 0 0
0.046875 0.017837524 -0.37133789 0 0 0 0
0.048919678 0.017730713 -0.36938477 0 0 0 0
0.051055908 0.017684937 -0.3684082 0 0 0 0
0.053222656 0.01763916 -0.36743164 0 0 0 0
0.055328369 0.017593384 -0.36621094 0 0 0 0
0.057617188 0.017593384 -0.36621094 0 0 0 0
0.0597229 0.017547607 -0.36523438 0 0 0 0
0.062011719 0.017547607 -0.36523438 0 0 0 0
0.06427002 0.017547607 -0.36523438 0 0 0 0
0.06652832 0.017547607 -0.36523438 0 0 0 0
0.068786621 0.017547607 -0.36523438 0 0 0 0
0.071044922 0.017547607 -0.36523438 0 0 0 0
0.094604492 0.019088745 -0.39746094 0 0 0 0
0.096313477 0.018936157 -0.39453125 0 0 0 0
0.098266602 0.018844604 -0.39233398 0 0 0 0
0.099975586 0.018707275 -0.3894043 0 0 0 0
0.10186768 0.018600464 -0.38745117 0 0 0 0
0.10400391 0.018554688 -0.38647461 0 0 0 0
0.10638428 0.018554688 -0.38647461 0 0 0 0
0.109375 0.01864624 -0.38842773 0 0 0 0
0.11376953 0.018997192 -0.39550781 0 0 0 0
0.11627197 0.018997192 -0.39550781 0 0 0 0
0.11901855 0.019042969 -0.39648438 0 0 0 0
0.12115479 0.018997192 -0.39550781 0 0 0 0
0.12329102 0.018936157 -0.39453125 0 0 0 0
0.12536621 0.018890381 -0.39331055 0 0 0 0
0.12756348 0.018844604 -0.39233398 0 0 0 0
0.12963867 0.018798828 -0.39135742 0 0 0 0
0.13171387 0.018753052 -0.39038086 0 0 0 0
0.13378906 0.018707275 -0.3894043 0 0 0 0
0.13586426 0.01864624 -0.38842773 0 0 0 0
0.13793945 0.018600464 -0.38745117 0 0 0 0
0.13964844 0.018508911 -0.38549805 0 0 0 0
0.14160156 0.018463135 -0.38427734 0 0 0 0
0.14331055 0.018356323 -0.38232422 0 0 0 0
0.13806152 0.01739502 -0.36230469 0 0 0 0
0.13952637 0.017303467 -0.36035156 0 0 0 0
0.14099121 0.017211914 -0.35839844 0 0 0 0
0.14233398 0.017105103 -0.35620117 0 0 0 0
0.14379883 0.01701355 -0.35424805 0 0 0 0
0.14477539 0.016860962 -0.35131836 0 0 0 0
0.14611816 0.016769409 -0.34912109 0 0 0 0
0.14733887 0.016677856 -0.34716797 0 0 0 0
0.14819336 0.016525269 -0.34423828 0 0 0 0
0.14953613 0.016433716 -0.34228516 0 0 0 0
0.15075684 0.016342163 -0.34008789 0 0 0 0
0.15148926 0.016189575 -0.3371582 0 0 0 0
0.15270996 0.016098022 -0.33520508 0 0 0 0
0.15380859 0.01600647 -0.33325195 0 0 0 0
0.1550293 0.015899658 -0.33105469 0 0 0 0
0.15612793 0.015808105 -0.32910156 0 0 0 0
0.15710449 0.015716553 -0.32714844 0 0 0 0
0.15869141 0.015655518 -0.32617188 0 0 0 0
0.16027832 0.015617371 -0.32519531 0 0 0 0
0.16223145 0.015617371 -0.32519531 0 0 0 0
0.16381836 0.015571594 -0.32421875 0 0 0 0
0.16577148 0.015571594 -0.32421875 0 0 0 0
0.16833496 0.015617371 -0.32519531 0 0 0 0
0.17028809 0.015617371 -0.32519531 0 0 0 0
0.17285156 0.015655518 -0.32617188 0 0 0 0
0.17541504 0.015716553 -0.32714844 0 0 0 0
0.17858887 0.015808105 -0.32910156 0 0 0 0
0.18115234 0.015853882 -0.33007812 0 0 0 0
0.18383789 0.015899658 -0.33105469 0 0 0 0
0.18640137 0.015945435 -0.33227539 0 0 0 0
0.1895752 0.016052246 -0.33422852 0 0 0 0
0.19226074 0.016098022 -0.33520508 0 0 0 0
0.19494629 0.016143799 -0.33618164 0 0 0 0
0.19824219 0.016235352 -0.33813477 0 0 0 0
0.20092773 0.016296387 -0.33911133 0 0 0 0
0.20361328 0.016342163 -0.34008789 0 0 0 0
0.20629883 0.016387939 -0.34130859 0 0 0 0
0.2097168 0.016479492 -0.34326172 0 0 0 0
0.21240234 0.016525269 -0.34423828 0 0 0 0
0.21520996 0.016586304 -0.34521484 0 0 0 0
0.21801758 0.01663208 -0.34619141 0 0 0 0
0.22143555 0.016723633 -0.34814453 0 0 0 0
0.22424316 0.016769409 -0.34912109 0 0 0 0
0.22705078 0.016815186 -0.3503418 0 0 0 0
0.2298584 0.016860962 -0.35131836 0 0 0 0
0.23266602 0.016921997 -0.35229492 0 0 0 0
0.23620605 0.01701355 -0.35424805 0 0 0 0
0.23840332 0.01701355 -0.35424805 0 0 0 0
0.24133301 0.017059326 -0.35522461 0 0 0 0
0.2442627 0.017105103 -0.35620117 0 0 0 0
0.030639648 0.016738892 -0.40039062 0 0 0 0
0.032867432 0.016616821 -0.39746094 0 0 0 0
0.035064697 0.016494751 -0.39453125 0 0 0 0
0.037322998 0.016403198 -0.39233398 0 0 0 0
0.038848877 0.016021729 -0.38330078 0 0 0 0
0.040924072 0.015899658 -0.38037109 0 0 0 0
0.042816162 0.015731812 -0.37646484 0 0 0 0
0.044799805 0.015609741 -0.37329102 0 0 0 0
0.046875 0.015525818 -0.37133789 0 0 0 0
0.049041748 0.015487671 -0.37036133 0 0 0 0
0.051055908 0.015403748 -0.3684082 0 0 0 0
0.053222656 0.015357971 -0.36743164 0 0 0 0
0.055328369 0.015319824 -0.36621094 0 0 0 0
0.057617188 0.015319824 -0.36621094 0 0 0 0
0.0597229 0.015274048 -0.36523438 0 0 0 0
0.062011719 0.015274048 -0.36523438 0 0 0 0
0.06427002 0.015274048 -0.36523438 0 0 0 0
0.06652832 0.015274048 -0.36523438 0 0 0 0
0.068786621 0.015274048 -0.36523438 0 0 0 0
0.094848633 0.016662598 -0.3984375 0 0 0 0
0.096862793 0.016571045 -0.39648438 0 0 0 0
0.098815918 0.016494751 -0.39453125 0 0 0 0
0.10021973 0.016326904 -0.39038086 0 0 0 0
0.1015625 0.016159058 -0.38647461 0 0 0 0
0.10400391 0.016159058 -0.38647461 0 0 0 0
0.10638428 0.016159058 -0.38647461 0 0 0 0
0.12176514 0.016616821 -0.39746094 0 0 0 0
0.12426758 0.016616821 -0.39746094 0 0 0 0
0.12609863 0.016525269 -0.39550781 0 0 0 0
0.12817383 0.016494751 -0.39453125 0 0 0 0
0.13024902 0.016448975 -0.39331055 0 0 0 0
0.13208008 0.016357422 -0.39135742 0 0 0 0
0.13415527 0.016326904 -0.39038086 0 0 0 0
0.13586426 0.016235352 -0.38842773 0 0 0 0
0.13757324 0.016159058 -0.38647461 0 0 0 0
0.13964844 0.016113281 -0.38549805 0 0 0 0
0.14123535 0.016021729 -0.38330078 0 0 0 0
0.14294434 0.015945435 -0.38134766 0 0 0 0
0.13806152 0.015151978 -0.36230469 0 0 0 0
0.13989258 0.015106201 -0.36132812 0 0 0 0
0.14099121 0.014984131 -0.35839844 0 0 0 0
0.14233398 0.014900208 -0.35620117 0 0 0 0
0.14379883 0.014816284 -0.35424805 0 0 0 0
0.14477539 0.014686584 -0.35131836 0 0 0 0
0.14611816 0.014602661 -0.34912109 0 0 0 0
0.14733887 0.014518738 -0.34716797 0 0 0 0
0.14819336 0.014396667 -0.34423828 0 0 0 0
0.14953613 0.014312744 -0.34228516 0 0 0 0
0.15026855 0.014183044 -0.33911133 0 0 0 0
0.15148926 0.014099121 -0.3371582 0 0 0 0
0.15270996 0.014015198 -0.33520508 0 0 0 0
0.15380859 0.013931274 -0.33325195 0 0 0 0
0.1550293 0.013847351 -0.33105469 0 0 0 0
0.15612793 0.013763428 -0.32910156 0 0 0 0
0.15710449 0.013679504 -0.32714844 0 0 0 0
0.15869141 0.013641357 -0.32617188 0 0 0 0
0.16027832 0.013595581 -0.32519531 0 0 0 0
0.16174316 0.013557434 -0.32421875 0 0 0 0
0.16381836 0.013557434 -0.32421875 0 0 0 0
0.16577148 0.013557434 -0.32421875 0 0 0 0
0.16833496 0.013595581 -0.32519531 0 0 0 0
0.17028809 0.013595581 -0.32519531 0 0 0 0
0.17285156 0.013641357 -0.32617188 0 0 0 0
0.17541504 0.013679504 -0.32714844 0 0 0 0
0.17810059 0.013725281 -0.328125 0 0 0 0
0.18115234 0.013809204 -0.33007812 0 0 0 0
0.18383789 0.013847351 -0.33105469 0 0 0 0
0.18640137 0.013893127 -0.33227539 0 0 0 0
0.18908691 0.013931274 -0.33325195 0 0 0 0
0.19226074 0.014015198 -0.33520508 0 0 0 0
0.19494629 0.014060974 -0.33618164 0 0 0 0
0.19763184 0.014099121 -0.3371582 0 0 0 0
0.20092773 0.014183044 -0.33911133 0 0 0 0
0.20361328 0.014228821 -0.34008789 0 0 0 0
0.20629883 0.014266968 -0.34130859 0 0 0 0
0.2097168 0.014350891 -0.34326172 0 0 0 0
0.21240234 0.014396667 -0.34423828 0 0 0 0
0.21520996 0.014434814 -0.34521484 0 0 0 0
0.21801758 0.014480591 -0.34619141 0 0 0 0
0.22070312 0.014518738 -0.34716797 0 0 0 0
0.22424316 0.014602661 -0.34912109 0 0 0 0
0.22705078 0.014648438 -0.3503418 0 0 0 0
0.2298584 0.014686584 -0.35131836 0 0 0 0
0.23266602 0.014732361 -0.35229492 0 0 0 0
0.2355957 0.014770508 -0.35327148 0 0 0 0
0.23840332 0.014816284 -0.35424805 0 0 0 0
0.24133301 0.014854431 -0.35522461 0 0 0 0
0.2442627 0.014900208 -0.35620117 0 0 0 0
0.035430908 0.014183044 -0.3984375 0 0 0 0
0.037811279 0.014152527 -0.39746094 0 0 0 0
0.042694092 0.013366699 -0.37524414 0 0 0 0
0.044799805 0.013290405 -0.37329102 0 0 0 0
0.046875 0.013221741 -0.37133789 0 0 0 0
0.049041748 0.013183594 -0.37036133 0 0 0 0
0.051208496 0.013145447 -0.36938477 0 0 0 0
0.053344727 0.013114929 -0.3684082 0 0 0 0
0.055480957 0.013076782 -0.36743164 0 0 0 0
0.057617188 0.013038635 -0.36621094 0 0 0 0
0.059906006 0.013038635 -0.36621094 0 0 0 0
0.062011719 0.013008118 -0.36523438 0 0 0 0
0.06427002 0.013008118 -0.36523438 0 0 0 0
0.06652832 0.013008118 -0.36523438 0 0 0 0
0.12670898 0.014152527 -0.39746094 0 0 0 0
0.12878418 0.01411438 -0.39648438 0 0 0 0
0.13061523 0.014045715 -0.39453125 0 0 0 0
0.13269043 0.014007568 -0.39331055 0 0 0 0
0.13452148 0.013938904 -0.39135742 0 0 0 0
0.13623047 0.01386261 -0.3894043 0 0 0 0
0.13757324 0.013755798 -0.38647461 0 0 0 0
0.13928223 0.013687134 -0.38427734 0 0 0 0
0.14086914 0.01361084 -0.38232422 0 0 0 0
0.13842773 0.013145447 -0.36938477 0 0 0 0
0.13842773 0.012931824 -0.36328125 0 0 0 0
0.13989258 0.012863159 -0.36132812 0 0 0 0
0.14135742 0.012794495 -0.359375 0 0 0 0
0.14233398 0.012687683 -0.35620117 0 0 0 0
0.14379883 0.012611389 -0.35424805 0 0 0 0
0.14477539 0.012504578 -0.35131836 0 0 0 0
0.14611816 0.012435913 -0.34912109 0 0 0 0
0.14697266 0.012329102 -0.34619141 0 0 0 0
0.14819336 0.012252808 -0.34423828 0 0 0 0
0.14953613 0.012184143 -0.34228516 0 0 0 0
0.15026855 0.012077332 -0.33911133 0 0 0 0
0.15148926 0.012008667 -0.3371582 0 0 0 0
0.15270996 0.011932373 -0.33520508 0 0 0 0
0.15332031 0.011825562 -0.33227539 0 0 0 0
0.15454102 0.011756897 -0.33007812 0 0 0 0
0.15612793 0.01171875 -0.32910156 0 0 0 0
0.15710449 0.011650085 -0.32714844 0 0 0 0
0.15869141 0.011611938 -0.32617188 0 0 0 0
0.16027832 0.011573792 -0.32519531 0 0 0 0
0.16174316 0.011543274 -0.32421875 0 0 0 0
0.16381836 0.011543274 -0.32421875 0 0 0 0
0.16577148 0.011543274 -0.32421875 0 0 0 0
0.16784668 0.011543274 -0.32421875 0 0 0 0
0.17028809 0.011573792 -0.32519531 0 0 0 0
0.17285156 0.011611938 -0.32617188 0 0 0 0
0.17541504 0.011650085 -0.32714844 0 0 0 0
0.17810059 0.011680603 -0.328125 0 0 0 0
0.18066406 0.01171875 -0.32910156 0 0 0 0
0.18383789 0.011787415 -0.33105469 0 0 0 0
0.18640137 0.011825562 -0.33227539 0 0 0 0
0.18908691 0.011863708 -0.33325195 0 0 0 0
0.19226074 0.011932373 -0.33520508 0 0 0 0
0.19494629 0.01197052 -0.33618164 0 0 0 0
0.19763184 0.012008667 -0.3371582 0 0 0 0
0.20092773 0.012077332 -0.33911133 0 0 0 0
0.20361328 0.012115479 -0.34008789 0 0 0 0
0.20629883 0.012145996 -0.34130859 0 0 0 0
0.20910645 0.012184143 -0.34228516 0 0 0 0
0.21240234 0.012252808 -0.34423828 0 0 0 0
0.21520996 0.012290955 -0.34521484 0 0 0 0
0.21801758 0.012329102 -0.34619141 0 0 0 0
0.22070312 0.012359619 -0.34716797 0 0 0 0
0.22351074 0.012397766 -0.34814453 0 0 0 0
0.22705078 0.012466431 -0.3503418 0 0 0 0
0.2298584 0.012504578 -0.35131836 0 0 0 0
0.23266602 0.012542725 -0.35229492 0 0 0 0
0.2355957 0.012580872 -0.35327148 0 0 0 0
0.23840332 0.012611389 -0.35424805 0 0 0 0
0.24060059 0.012611389 -0.35424805 0 0 0 0
0.046875 0.010910034 -0.37133789 0 0 0 0
0.049041748 0.010879517 -0.37036133 0 0 0 0
0.051208496 0.010856628 -0.36938477 0 0 0 0
0.053344727 0.010826111 -0.3684082 0 0 0 0
0.055480957 0.010795593 -0.36743164 0 0 0 0
0.057617188 0.010765076 -0.36621094 0 0 0 0
0.059906006 0.010765076 -0.36621094 0 0 0 0
0.062164307 0.010765076 -0.36621094 0 0 0 0
0.13134766 0.011650085 -0.39648438 0 0 0 0
0.13305664 0.01158905 -0.39453125 0 0 0 0
0.13513184 0.011558533 -0.39331055 0 0 0 0
0.13659668 0.011474609 -0.39038086 0 0 0 0
0.13757324 0.011352539 -0.38647461 0 0 0 0
0.13928223 0.011299133 -0.38427734 0 0 0 0
0.14050293 0.011207581 -0.38134766 0 0 0 0
0.13769531 0.010795593 -0.36743164 0 0 0 0
0.13842773 0.010673523 -0.36328125 0 0 0 0
0.13989258 0.010620117 -0.36132812 0 0 0 0
0.14135742 0.010559082 -0.359375 0 0 0 0
0.14233398 0.010467529 -0.35620117 0 0 0 0
0.14379883 0.010414124 -0.35424805 0 0 0 0
0.14477539 0.010322571 -0.35131836 0 0 0 0
0.14611816 0.010261536 -0.34912109 0 0 0 0
0.14697266 0.010177612 -0.34619141 0 0 0 0
0.14819336 0.010116577 -0.34423828 0 0 0 0
0.14953613 0.010055542 -0.34228516 0 0 0 0
0.15026855 0.0099716187 -0.33911133 0 0 0 0
0.15148926 0.0099105835 -0.3371582 0 0 0 0
0.15270996 0.0098495483 -0.33520508 0 0 0 0
0.15332031 0.009765625 -0.33227539 0 0 0 0
0.15454102 0.0097045898 -0.33007812 0 0 0 0
0.15612793 0.0096740723 -0.32910156 0 0 0 0
0.15710449 0.0096130371 -0.32714844 0 0 0 0
0.15869141 0.0095825195 -0.32617188 0 0 0 0
0.16027832 0.009552002 -0.32519531 0 0 0 0
0.16174316 0.0095291138 -0.32421875 0 0 0 0
0.16381836 0.0095291138 -0.32421875 0 0 0 0
0.16577148 0.0095291138 -0.32421875 0 0 0 0
0.16784668 0.0095291138 -0.32421875 0 0 0 0
0.17028809 0.009552002 -0.32519531 0 0 0 0
0.17285156 0.0095825195 -0.32617188 0 0 0 0
0.17541504 0.0096130371 -0.32714844 0 0 0 0
0.17810059 0.0096435547 -0.328125 0 0 0 0
0.18066406 0.0096740723 -0.32910156 0 0 0 0
0.18322754 0.0097045898 -0.33007812 0 0 0 0
0.18640137 0.009765625 -0.33227539 0 0 0 0
0.18908691 0.0097885132 -0.33325195 0 0 0 0
0.19165039 0.0098190308 -0.33422852 0 0 0 0
0.19494629 0.0098800659 -0.33618164 0 0 0 0
0.19763184 0.0099105835 -0.3371582 0 0 0 0
0.20092773 0.0099716187 -0.33911133 0 0 0 0
0.20361328 0.0099945068 -0.34008789 0 0 0 0
0.20629883 0.010025024 -0.34130859 0 0 0 0
0.20910645 0.010055542 -0.34228516 0 0 0 0
0.21240234 0.010116577 -0.34423828 0 0 0 0
0.21520996 0.010147095 -0.34521484 0 0 0 0
0.21801758 0.010177612 -0.34619141 0 0 0 0
0.22070312 0.01020813 -0.34716797 0 0 0 0
0.22351074 0.010231018 -0.34814453 0 0 0 0
0.22644043 0.010261536 -0.34912109 0 0 0 0
0.2298584 0.010322571 -0.35131836 0 0 0 0
0.23266602 0.010353088 -0.35229492 0 0 0 0
0.2355957 0.010383606 -0.35327148 0 0 0 0
0.23779297 0.010383606 -0.35327148 0 0 0 0
0.24060059 0.010414124 -0.35424805 0 0 0 0
0.13378906 0.009185791 -0.39648438 0 0 0 0
0.13586426 0.0091629028 -0.39550781 0 0 0 0
0.1373291 0.0090942383 -0.39233398 0 0 0 0
0.13793945 0.0089797974 -0.38745117 0 0 0 0
0.13891602 0.0088806152 -0.38330078 0 0 0 0
0.14013672 0.0088119507 -0.38037109 0 0 0 0
0.13769531 0.0085144043 -0.36743164 0 0 0 0
0.13842773 0.0084152222 -0.36328125 0 0 0 0
0.13989258 0.0083694458 -0.36132812 0 0 0 0
0.14135742 0.0083236694 -0.359375 0 0 0 0
0.14233398 0.0082550049 -0.35620117 0 0 0 0
0.14379883 0.0082092285 -0.35424805 0 0 0 0
0.14477539 0.008140564 -0.35131836 0 0 0 0
0.14611816 0.0080947876 -0.34912109 0 0 0 0
0.14697266 0.008026123 -0.34619141 0 0 0 0
0.14819336 0.0079727173 -0.34423828 0 0 0 0
0.14904785 0.0079040527 -0.34130859 0 0 0 0
0.15026855 0.0078582764 -0.33911133 0 0 0 0
0.15148926 0.0078125 -0.3371582 0 0 0 0
0.15270996 0.0077705383 -0.33520508 0 0 0 0
0.15332031 0.0076980591 -0.33227539 0 0 0 0
0.15454102 0.0076522827 -0.33007812 0 0 0 0
0.15612793 0.0076293945 -0.32910156 0 0 0 0
0.15710449 0.0075836182 -0.32714844 0 0 0 0
0.15869141 0.00756073 -0.32617188 0 0 0 0
0.16027832 0.0075378418 -0.32519531 0 0 0 0
0.16174316 0.0075111389 -0.32421875 0 0 0 0
0.16381836 0.0075111389 -0.32421875 0 0 0 0
0.16577148 0.0075111389 -0.32421875 0 0 0 0
0.16784668 0.0075111389 -0.32421875 0 0 0 0
0.17028809 0.0075378418 -0.32519531 0 0 0 0
0.17285156 0.00756073 -0.32617188 0 0 0 0
0.17541504 0.0075836182 -0.32714844 0 0 0 0
0.17810059 0.0076065063 -0.328125 0 0 0 0
0.18066406 0.0076293945 -0.32910156 0 0 0 0
0.18322754 0.0076522827 -0.33007812 0 0 0 0
0.18579102 0.0076751709 -0.33105469 0 0 0 0
0.18908691 0.0077209473 -0.33325195 0 0 0 0
0.19165039 0.0077438354 -0.33422852 0 0 0 0
0.19494629 0.0077934265 -0.33618164 0 0 0 0
0.19763184 0.0078125 -0.3371582 0 0 0 0
0.20031738 0.0078353882 -0.33813477 0 0 0 0
0.20361328 0.0078811646 -0.34008789 0 0 0 0
0.20629883 0.0079040527 -0.34130859 0 0 0 0
0.20910645 0.0079269409 -0.34228516 0 0 0 0
0.21179199 0.0079498291 -0.34326172 0 0 0 0
0.21520996 0.0080032349 -0.34521484 0 0 0 0
0.21801758 0.008026123 -0.34619141 0 0 0 0
0.22070312 0.0080490112 -0.34716797 0 0 0 0
0.22351074 0.0080718994 -0.34814453 0 0 0 0
0.22644043 0.0080947876 -0.34912109 0 0 0 0
0.22924805 0.0081176758 -0.3503418 0 0 0 0
0.23205566 0.008140564 -0.35131836 0 0 0 0
0.23486328 0.0081634521 -0.35229492 0 0 0 0
0.23779297 0.0081863403 -0.35327148 0 0 0 0
0.23999023 0.0081863403 -0.35327148 0 0 0 0
0.13867188 0.0067253113 -0.39648438 0 0 0 0
0.13977051 0.0066566467 -0.39233398 0 0 0 0
0.13757324 0.0063323975 -0.37329102 0 0 0 0
0.13720703 0.0062141418 -0.36621094 0 0 0 0
0.13842773 0.0061607361 -0.36328125 0 0 0 0
0.13989258 0.0061264038 -0.36132812 0 0 0 0
0.14099121 0.0060768127 -0.35839844 0 0 0 0
0.14233398 0.0060424805 -0.35620117 0 0 0 0
0.14331055 0.0059928894 -0.35327148 0 0 0 0
0.14477539 0.0059585571 -0.35131836 0 0 0 0
0.14611816 0.0059242249 -0.34912109 0 0 0 0
0.14697266 0.0058708191 -0.34619141 0 0 0 0
0.14819336 0.0058403015 -0.34423828 0 0 0 0
0.14904785 0.0057868958 -0.34130859 0 0 0 0
0.15026855 0.0057525635 -0.33911133 0 0 0 0
0.15148926 0.0057182312 -0.3371582 0 0 0 0
0.15270996 0.0056838989 -0.33520508 0 0 0 0
0.15332031 0.0056343079 -0.33227539 0 0 0 0
0.15454102 0.0055999756 -0.33007812 0 0 0 0
0.15563965 0.0055656433 -0.328125 0 0 0 0
0.15710449 0.0055503845 -0.32714844 0 0 0 0
0.15869141 0.005531311 -0.32617188 0 0 0 0
0.16027832 0.0055160522 -0.32519531 0 0 0 0
0.16174316 0.0054969788 -0.32421875 0 0 0 0
0.16381836 0.0054969788 -0.32421875 0 0 0 0
0.16577148 0.0054969788 -0.32421875 0 0 0 0
0.16784668 0.0054969788 -0.32421875 0 0 0 0
0.17028809 0.0055160522 -0.32519531 0 0 0 0
0.17236328 0.0055160522 -0.32519531 0 0 0 0
0.17492676 0.005531311 -0.32617188 0 0 0 0
0.17749023 0.0055503845 -0.32714844 0 0 0 0
0.18066406 0.0055847168 -0.32910156 0 0 0 0
0.18322754 0.0055999756 -0.33007812 0 0 0 0
0.18579102 0.0056190491 -0.33105469 0 0 0 0
0.18847656 0.0056343079 -0.33227539 0 0 0 0
0.19165039 0.0056686401 -0.33422852 0 0 0 0
0.19433594 0.0056838989 -0.33520508 0 0 0 0
0.19763184 0.0057182312 -0.3371582 0 0 0 0
0.20031738 0.0057373047 -0.33813477 0 0 0 0
0.20300293 0.0057525635 -0.33911133 0 0 0 0
0.20629883 0.0057868958 -0.34130859 0 0 0 0
0.20910645 0.0058059692 -0.34228516 0 0 0 0
0.21179199 0.005821228 -0.34326172 0 0 0 0
0.21459961 0.0058403015 -0.34423828 0 0 0 0
0.21801758 0.0058708191 -0.34619141 0 0 0 0
0.22070312 0.0058898926 -0.34716797 0 0 0 0
0.22351074 0.0059051514 -0.34814453 0 0 0 0
0.22644043 0.0059242249 -0.34912109 0 0 0 0
0.22924805 0.0059394836 -0.3503418 0 0 0 0
0.23205566 0.0059585571 -0.35131836 0 0 0 0
0.23486328 0.0059738159 -0.35229492 0 0 0 0
0.23779297 0.0059928894 -0.35327148 0 0 0 0
0.23999023 0.0059928894 -0.35327148 0 0 0 0
0.13684082 0.0039253235 -0.36523438 0 0 0 0
0.13842773 0.0039043427 -0.36328125 0 0 0 0
0.13952637 0.0038719177 -0.36035156 0 0 0 0
0.14099121 0.0038509369 -0.35839844 0 0 0 0
0.14233398 0.0038299561 -0.35620117 0 0 0 0
0.14331055 0.0037975311 -0.35327148 0 0 0 0
0.14477539 0.0037746429 -0.35131836 0 0 0 0
0.14562988 0.003742218 -0.34814453 0 0 0 0
0.14697266 0.0037212372 -0.34619141 0 0 0 0
0.14819336 0.0037002563 -0.34423828 0 0 0 0
0.14904785 0.0036678314 -0.34130859 0 0 0 0
0.15026855 0.0036468506 -0.33911133 0 0 0 0
0.15148926 0.0036239624 -0.3371582 0 0 0 0
0.15270996 0.0036029816 -0.33520508 0 0 0 0
0.15332031 0.0035705566 -0.33227539 0 0 0 0
0.15454102 0.0035495758 -0.33007812 0 0 0 0
0.15563965 0.0035266876 -0.328125 0 0 0 0
0.15710449 0.0035171509 -0.32714844 0 0 0 0
0.15869141 0.0035057068 -0.32617188 0 0 0 0
0.16027832 0.0034942627 -0.32519531 0 0 0 0
0.16174316 0.003484726 -0.32421875 0 0 0 0
0.16381836 0.003484726 -0.32421875 0 0 0 0
0.16577148 0.003484726 -0.32421875 0 0 0 0
0.16784668 0.003484726 -0.32421875 0 0 0 0
0.17028809 0.0034942627 -0.32519531 0 0 0 0
0.17236328 0.0034942627 -0.32519531 0 0 0 0
0.17492676 0.0035057068 -0.32617188 0 0 0 0
0.17749023 0.0035171509 -0.32714844 0 0 0 0
0.18005371 0.0035266876 -0.328125 0 0 0 0
0.18322754 0.0035495758 -0.33007812 0 0 0 0
0.18579102 0.0035591125 -0.33105469 0 0 0 0
0.18847656 0.0035705566 -0.33227539 0 0 0 0
0.19165039 0.0035915375 -0.33422852 0 0 0 0
0.19433594 0.0036029816 -0.33520508 0 0 0 0
0.19702148 0.0036144257 -0.33618164 0 0 0 0
0.20031738 0.0036354065 -0.33813477 0 0 0 0
0.20300293 0.0036468506 -0.33911133 0 0 0 0
0.20629883 0.0036678314 -0.34130859 0 0 0 0
0.20910645 0.0036773682 -0.34228516 0 0 0 0
0.21179199 0.0036888123 -0.34326172 0 0 0 0
0.21459961 0.0037002563 -0.34423828 0 0 0 0
0.21728516 0.0037097931 -0.34521484 0 0 0 0
0.22070312 0.0037326813 -0.34716797 0 0 0 0
0.22351074 0.003742218 -0.34814453 0 0 0 0
0.22644043 0.0037536621 -0.34912109 0 0 0 0
0.22924805 0.0037651062 -0.3503418 0 0 0 0
0.23205566 0.0037746429 -0.35131836 0 0 0 0
0.23486328 0.003786087 -0.35229492 0 0 0 0
0.23706055 0.003786087 -0.35229492 0 0 0 0
0.23999023 0.0037975311 -0.35327148 0 0 0 0
0.13647461 0.0016517639 -0.36425781 0 0 0 0
0.13806152 0.0016422272 -0.36230469 0 0 0 0
0.13952637 0.0016336441 -0.36035156 0 0 0 0
0.14099121 0.0016241074 -0.35839844 0 0 0 0
0.14233398 0.0016155243 -0.35620117 0 0 0 0
0.14331055 0.0016012192 -0.35327148 0 0 0 0
0.14477539 0.0015926361 -0.35131836 0 0 0 0
0.14562988 0.0015792847 -0.34814453 0 0 0 0
0.14697266 0.0015697479 -0.34619141 0 0 0 0
0.14819336 0.0015602112 -0.34423828 0 0 0 0
0.14904785 0.0015468597 -0.34130859 0 0 0 0
0.15026855 0.0015382767 -0.33911133 0 0 0 0
0.15148926 0.0015287399 -0.3371582 0 0 0 0
0.15270996 0.0015201569 -0.33520508 0 0 0 0
0.15332031 0.0015058517 -0.33227539 0 0 0 0
0.15454102 0.0014972687 -0.33007812 0 0 0 0
0.15563965 0.0014877319 -0.328125 0 0 0 0
0.15710449 0.0014829636 -0.32714844 0 0 0 0
0.15869141 0.0014791489 -0.32617188 0 0 0 0
0.16027832 0.0014743805 -0.32519531 0 0 0 0
0.16174316 0.0014696121 -0.32421875 0 0 0 0
0.16381836 0.0014696121 -0.32421875 0 0 0 0
0.16577148 0.0014696121 -0.32421875 0 0 0 0
0.16784668 0.0014696121 -0.32421875 0 0 0 0
0.17028809 0.0014743805 -0.32519531 0 0 0 0
0.17236328 0.0014743805 -0.32519531 0 0 0 0
0.17492676 0.0014791489 -0.32617188 0 0 0 0
0.17749023 0.0014829636 -0.32714844 0 0 0 0
0.18005371 0.0014877319 -0.328125 0 0 0 0
0.18261719 0.0014925003 -0.32910156 0 0 0 0
0.18579102 0.0015010834 -0.33105469 0 0 0 0
0.18847656 0.0015058517 -0.33227539 0 0 0 0
0.19116211 0.0015106201 -0.33325195 0 0 0 0
0.19433594 0.0015201569 -0.33520508 0 0 0 0
0.19702148 0.0015239716 -0.33618164 0 0 0 0
0.20031738 0.0015335083 -0.33813477 0 0 0 0
0.20300293 0.0015382767 -0.33911133 0 0 0 0
0.20568848 0.0015420914 -0.34008789 0 0 0 0
0.20910645 0.0015516281 -0.34228516 0 0 0 0
0.21179199 0.0015563965 -0.34326172 0 0 0 0
0.21459961 0.0015602112 -0.34423828 0 0 0 0
0.21728516 0.0015649796 -0.34521484 0 0 0 0
0.22009277 0.0015697479 -0.34619141 0 0 0 0
0.22351074 0.0015792847 -0.34814453 0 0 0 0
0.22644043 0.0015830994 -0.34912109 0 0 0 0
0.22924805 0.0015878677 -0.3503418 0 0 0 0
0.23205566 0.0015926361 -0.35131836 0 0 0 0
0.23486328 0.0015974045 -0.35229492 0 0 0 0
0.23706055 0.0015974045 -0.35229492 0 0 0 0
0.23999023 0.0016012192 -0.35327148 0 0 0 0
0.13647461 -0.00061178207 -0.36425781 0 0 0 0
0.13757324 -0.0006070137 -0.36132812 0 0 0 0
0.13952637 -0.00060510635 -0.36035156 0 0 0 0
0.14099121 -0.00060176849 -0.35839844 0 0 0 0
0.14196777 -0.00059700012 -0.35522461 0 0 0 0
0.14331055 -0.00059318542 -0.35327148 0 0 0 0
0.14477539 -0.00058984756 -0.35131836 0 0 0 0
0.14562988 -0.00058507919 -0.34814453 0 0 0 0
0.14697266 -0.00058174133 -0.34619141 0 0 0 0
0.14819336 -0.00057840347 -0.34423828 0 0 0 0
0.14904785 -0.00057315826 -0.34130859 0 0 0 0
0.15026855 -0.0005698204 -0.33911133 0 0 0 0
0.15148926 -0.00056648254 -0.3371582 0 0 0 0
0.15270996 -0.00056314468 -0.33520508 0 0 0 0
0.15332031 -0.00055789948 -0.33227539 0 0 0 0
0.15454102 -0.00055456161 -0.33007812 0 0 0 0
0.15612793 -0.0005531311 -0.32910156 0 0 0 0
0.15710449 -0.00054979324 -0.32714844 0 0 0 0
0.15869141 -0.00054788589 -0.32617188 0 0 0 0
0.15979004 -0.00054454803 -0.32421875 0 0 0 0
0.16174316 -0.00054454803 -0.32421875 0 0 0 0
0.16381836 -0.00054454803 -0.32421875 0 0 0 0
0.16577148 -0.00054454803 -0.32421875 0 0 0 0
0.16784668 -0.00054454803 -0.32421875 0 0 0 0
0.1697998 -0.00054454803 -0.32421875 0 0 0 0
0.17236328 -0.00054597855 -0.32519531 0 0 0 0
0.17492676 -0.00054788589 -0.32617188 0 0 0 0
0.17749023 -0.00054979324 -0.32714844 0 0 0 0
0.18005371 -0.00055122375 -0.328125 0 0 0 0
0.18261719 -0.0005531311 -0.32910156 0 0 0 0
0.18579102 -0.00055646896 -0.33105469 0 0 0 0
0.18847656 -0.00055789948 -0.33227539 0 0 0 0
0.19116211 -0.00055980682 -0.33325195 0 0 0 0
0.19433594 -0.00056314468 -0.33520508 0 0 0 0
0.19702148 -0.0005645752 -0.33618164 0 0 0 0
0.19970703 -0.00056648254 -0.3371582 0 0 0 0
0.20300293 -0.0005698204 -0.33911133 0 0 0 0
0.20568848 -0.00057172775 -0.34008789 0 0 0 0
0.20849609 -0.00057315826 -0.34130859 0 0 0 0
0.21179199 -0.00057649612 -0.34326172 0 0 0 0
0.21459961 -0.00057840347 -0.34423828 0 0 0 0
0.21728516 -0.00057983398 -0.34521484 0 0 0 0
0.22009277 -0.00058174133 -0.34619141 0 0 0 0
0.22290039 -0.00058317184 -0.34716797 0 0 0 0
0.22570801 -0.00058507919 -0.34814453 0 0 0 0
0.22851562 -0.0005865097 -0.34912109 0 0 0 0
0.23144531 -0.00058841705 -0.3503418 0 0 0 0
0.23425293 -0.00058984756 -0.35131836 0 0 0 0
0.23706055 -0.00059175491 -0.35229492 0 0 0 0
0.23925781 -0.00059175491 -0.35229492 0 0 0 0
0.13757324 -0.0028514862 -0.36132812 0 0 0 0
0.13903809 -0.0028362274 -0.359375 0 0 0 0
0.14050293 -0.0028209686 -0.35717773 0 0 0 0
0.14196777 -0.0028038025 -0.35522461 0 0 0 0
0.14331055 -0.0027885437 -0.35327148 0 0 0 0
0.14477539 -0.0027732849 -0.35131836 0 0 0 0
0.14562988 -0.0027484894 -0.34814453 0 0 0 0
0.14697266 -0.0027332306 -0.34619141 0 0 0 0
0.14819336 -0.0027179718 -0.34423828 0 0 0 0
0.14904785 -0.0026931763 -0.34130859 0 0 0 0
0.15026855 -0.0026779175 -0.33911133 0 0 0 0
0.15148926 -0.0026607513 -0.3371582 0 0 0 0
0.15270996 -0.0026454926 -0.33520508 0 0 0 0
0.15332031 -0.0026226044 -0.33227539 0 0 0 0
0.15454102 -0.0026054382 -0.33007812 0 0 0 0
0.15612793 -0.0025978088 -0.32910156 0 0 0 0
0.15710449 -0.00258255 -0.32714844 0 0 0 0
0.15869141 -0.0025749207 -0.32617188 0 0 0 0
0.15979004 -0.0025577545 -0.32421875 0 0 0 0
0.16174316 -0.0025577545 -0.32421875 0 0 0 0
0.16320801 -0.0025501251 -0.32324219 0 0 0 0
0.1652832 -0.0025501251 -0.32324219 0 0 0 0
0.16784668 -0.0025577545 -0.32421875 0 0 0 0
0.1697998 -0.0025577545 -0.32421875 0 0 0 0
0.17236328 -0.0025672913 -0.32519531 0 0 0 0
0.17492676 -0.0025749207 -0.32617188 0 0 0 0
0.17749023 -0.00258255 -0.32714844 0 0 0 0
0.18005371 -0.0025901794 -0.328125 0 0 0 0
0.18261719 -0.0025978088 -0.32910156 0 0 0 0
0.18579102 -0.002614975 -0.33105469 0 0 0 0
0.18847656 -0.0026226044 -0.33227539 0 0 0 0
0.19116211 -0.0026302338 -0.33325195 0 0 0 0
0.19372559 -0.0026378632 -0.33422852 0 0 0 0
0.19702148 -0.0026531219 -0.33618164 0 0 0 0
0.19970703 -0.0026607513 -0.3371582 0 0 0 0
0.20300293 -0.0026779175 -0.33911133 0 0 0 0
0.20568848 -0.0026855469 -0.34008789 0 0 0 0
0.20849609 -0.0026931763 -0.34130859 0 0 0 0
0.21118164 -0.0027008057 -0.34228516 0 0 0 0
0.21459961 -0.0027179718 -0.34423828 0 0 0 0
0.21728516 -0.0027256012 -0.34521484 0 0 0 0
0.22009277 -0.0027332306 -0.34619141 0 0 0 0
0.22290039 -0.00274086 -0.34716797 0 0 0 0
0.22570801 -0.0027484894 -0.34814453 0 0 0 0
0.22851562 -0.0027561188 -0.34912109 0 0 0 0
0.23144531 -0.0027656555 -0.3503418 0 0 0 0
0.23425293 -0.0027732849 -0.35131836 0 0 0 0
0.23706055 -0.0027809143 -0.35229492 0 0 0 0
0.23925781 -0.0027809143 -0.35229492 0 0 0 0
0.13720703 -0.0050811768 -0.36035156 0 0 0 0
0.13903809 -0.0050697327 -0.359375 0 0 0 0
0.14050293 -0.0050392151 -0.35717773 0 0 0 0
0.14196777 -0.0050125122 -0.35522461 0 0 0 0
0.14331055 -0.0049819946 -0.35327148 0 0 0 0
0.14477539 -0.0049552917 -0.35131836 0 0 0 0
0.14562988 -0.0049133301 -0.34814453 0 0 0 0
0.14697266 -0.0048828125 -0.34619141 0 0 0 0
0.14819336 -0.0048561096 -0.34423828 0 0 0 0
0.14904785 -0.0048141479 -0.34130859 0 0 0 0
0.15026855 -0.0047836304 -0.33911133 0 0 0 0
0.15148926 -0.0047569275 -0.3371582 0 0 0 0
0.15270996 -0.0047302246 -0.33520508 0 0 0 0
0.15380859 -0.004699707 -0.33325195 0 0 0 0
0.15454102 -0.0046577454 -0.33007812 0 0 0 0
0.15612793 -0.0046424866 -0.32910156 0 0 0 0
0.15710449 -0.0046157837 -0.32714844 0 0 0 0
0.15869141 -0.0046005249 -0.32617188 0 0 0 0
0.15979004 -0.004573822 -0.32421875 0 0 0 0
0.16174316 -0.004573822 -0.32421875 0 0 0 0
0.16320801 -0.0045585632 -0.32324219 0 0 0 0
0.1652832 -0.0045585632 -0.32324219 0 0 0 0
0.16784668 -0.004573822 -0.32421875 0 0 0 0
0.1697998 -0.004573822 -0.32421875 0 0 0 0
0.17236328 -0.0045852661 -0.32519531 0 0 0 0
0.17492676 -0.0046005249 -0.32617188 0 0 0 0
0.17749023 -0.0046157837 -0.32714844 0 0 0 0
0.18005371 -0.0046310425 -0.328125 0 0 0 0
0.18261719 -0.0046424866 -0.32910156 0 0 0 0
0.18530273 -0.0046577454 -0.33007812 0 0 0 0
0.18847656 -0.0046844482 -0.33227539 0 0 0 0
0.19116211 -0.004699707 -0.33325195 0 0 0 0
0.19372559 -0.0047149658 -0.33422852 0 0 0 0
0.19702148 -0.0047416687 -0.33618164 0 0 0 0
0.19970703 -0.0047569275 -0.3371582 0 0 0 0
0.20239258 -0.0047721863 -0.33813477 0 0 0 0
0.20568848 -0.0047988892 -0.34008789 0 0 0 0
0.20849609 -0.0048141479 -0.34130859 0 0 0 0
0.21118164 -0.0048294067 -0.34228516 0 0 0 0
0.21398926 -0.0048408508 -0.34326172 0 0 0 0
0.21728516 -0.0048713684 -0.34521484 0 0 0 0
0.22009277 -0.0048828125 -0.34619141 0 0 0 0
0.22290039 -0.0048980713 -0.34716797 0 0 0 0
0.22570801 -0.0049133301 -0.34814453 0 0 0 0
0.22851562 -0.0049285889 -0.34912109 0 0 0 0
0.23144531 -0.004940033 -0.3503418 0 0 0 0
0.23425293 -0.0049552917 -0.35131836 0 0 0 0
0.23706055 -0.0049705505 -0.35229492 0 0 0 0
0.23925781 -0.0049705505 -0.35229492 0 0 0 0
0.13720703 -0.0073204041 -0.36035156 0 0 0 0
0.13903809 -0.0073013306 -0.359375 0 0 0 0
0.14050293 -0.0072593689 -0.35717773 0 0 0 0
0.14196777 -0.0072212219 -0.35522461 0 0 0 0
0.14331055 -0.0071792603 -0.35327148 0 0 0 0
0.14477539 -0.0071372986 -0.35131836 0 0 0 0
0.14562988 -0.0070762634 -0.34814453 0 0 0 0
0.14697266 -0.0070381165 -0.34619141 0 0 0 0
0.14819336 -0.0069961548 -0.34423828 0 0 0 0
0.14904785 -0.0069351196 -0.34130859 0 0 0 0
0.15026855 -0.006893158 -0.33911133 0 0 0 0
0.15148926 -0.0068511963 -0.3371582 0 0 0 0
0.15270996 -0.0068130493 -0.33520508 0 0 0 0
0.15380859 -0.0067710876 -0.33325195 0 0 0 0
0.15454102 -0.0067100525 -0.33007812 0 0 0 0
0.15612793 -0.006690979 -0.32910156 0 0 0 0
0.15710449 -0.0066490173 -0.32714844 0 0 0 0
0.15820312 -0.0066070557 -0.32519531 0 0 0 0
0.15979004 -0.0065879822 -0.32421875 0 0 0 0
0.16174316 -0.0065879822 -0.32421875 0 0 0 0
0.16320801 -0.0065689087 -0.32324219 0 0 0 0
0.1652832 -0.0065689087 -0.32324219 0 0 0 0
0.16784668 -0.0065879822 -0.32421875 0 0 0 0
0.1697998 -0.0065879822 -0.32421875 0 0 0 0
0.17236328 -0.0066070557 -0.32519531 0 0 0 0
0.17492676 -0.0066299438 -0.32617188 0 0 0 0
0.17749023 -0.0066490173 -0.32714844 0 0 0 0
0.18005371 -0.0066680908 -0.328125 0 0 0 0
0.18261719 -0.006690979 -0.32910156 0 0 0 0
0.18530273 -0.0067100525 -0.33007812 0 0 0 0
0.18847656 -0.0067520142 -0.33227539 0 0 0 0
0.19116211 -0.0067710876 -0.33325195 0 0 0 0
0.19372559 -0.0067901611 -0.33422852 0 0 0 0
0.19641113 -0.0068130493 -0.33520508 0 0 0 0
0.19970703 -0.0068511963 -0.3371582 0 0 0 0
0.20239258 -0.0068740845 -0.33813477 0 0 0 0
0.20507812 -0.006893158 -0.33911133 0 0 0 0
0.20849609 -0.0069351196 -0.34130859 0 0 0 0
0.21118164 -0.0069541931 -0.34228516 0 0 0 0
0.21398926 -0.0069732666 -0.34326172 0 0 0 0
0.2166748 -0.0069961548 -0.34423828 0 0 0 0
0.22009277 -0.0070381165 -0.34619141 0 0 0 0
0.22290039 -0.0070571899 -0.34716797 0 0 0 0
0.22570801 -0.0070762634 -0.34814453 0 0 0 0
0.22851562 -0.0070991516 -0.34912109 0 0 0 0
0.23144531 -0.0071182251 -0.3503418 0 0 0 0
0.23425293 -0.0071372986 -0.35131836 0 0 0 0
0.23706055 -0.0071601868 -0.35229492 0 0 0 0
0.23925781 -0.0071601868 -0.35229492 0 0 0 0
0.24145508 -0.0071601868 -0.35229492 0 0 0 0
0.13537598 -0.0095825195 -0.36132812 0 0 0 0
0.13720703 -0.0095596313 -0.36035156 0 0 0 0
0.13903809 -0.0095291138 -0.359375 0 0 0 0
0.14050293 -0.0094833374 -0.35717773 0 0 0 0
0.14196777 -0.0094299316 -0.35522461 0 0 0 0
0.14331055 -0.0093765259 -0.35327148 0 0 0 0
0.14428711 -0.0092926025 -0.3503418 0 0 0 0
0.14562988 -0.0092391968 -0.34814453 0 0 0 0
0.14697266 -0.009185791 -0.34619141 0 0 0 0
0.14782715 -0.0091094971 -0.34326172 0 0 0 0
0.14904785 -0.0090560913 -0.34130859 0 0 0 0
0.15026855 -0.0090026855 -0.33911133 0 0 0 0
0.15148926 -0.0089492798 -0.3371582 0 0 0 0
0.15270996 -0.008895874 -0.33520508 0 0 0 0
0.15380859 -0.0088424683 -0.33325195 0 0 0 0
0.15454102 -0.0087585449 -0.33007812 0 0 0 0
0.15612793 -0.0087356567 -0.32910156 0 0 0 0
0.15710449 -0.008682251 -0.32714844 0 0 0 0
0.15820312 -0.0086288452 -0.32519531 0 0 0 0
0.15979004 -0.0085983276 -0.32421875 0 0 0 0
0.16174316 -0.0085983276 -0.32421875 0 0 0 0
0.16320801 -0.0085754395 -0.32324219 0 0 0 0
0.1652832 -0.0085754395 -0.32324219 0 0 0 0
0.16784668 -0.0085983276 -0.32421875 0 0 0 0
0.1697998 -0.0085983276 -0.32421875 0 0 0 0
0.17236328 -0.0086288452 -0.32519531 0 0 0 0
0.17492676 -0.0086517334 -0.32617188 0 0 0 0
0.17749023 -0.008682251 -0.32714844 0 0 0 0
0.18005371 -0.0087051392 -0.328125 0 0 0 0
0.18261719 -0.0087356567 -0.32910156 0 0 0 0
0.18530273 -0.0087585449 -0.33007812 0 0 0 0
0.18847656 -0.0088119507 -0.33227539 0 0 0 0
0.19116211 -0.0088424683 -0.33325195 0 0 0 0
0.19372559 -0.0088653564 -0.33422852 0 0 0 0
0.19641113 -0.008895874 -0.33520508 0 0 0 0
0.19970703 -0.0089492798 -0.3371582 0 0 0 0
0.20239258 -0.008972168 -0.33813477 0 0 0 0
0.20507812 -0.0090026855 -0.33911133 0 0 0 0
0.20788574 -0.0090255737 -0.34008789 0 0 0 0
0.21118164 -0.0090789795 -0.34228516 0 0 0 0
0.21398926 -0.0091094971 -0.34326172 0 0 0 0
0.2166748 -0.0091323853 -0.34423828 0 0 0 0
0.21948242 -0.0091629028 -0.34521484 0 0 0 0
0.22290039 -0.0092163086 -0.34716797 0 0 0 0
0.22570801 -0.0092391968 -0.34814453 0 0 0 0
0.22851562 -0.0092697144 -0.34912109 0 0 0 0
0.23144531 -0.0092926025 -0.3503418 0 0 0 0
0.23425293 -0.0093231201 -0.35131836 0 0 0 0
0.2364502 -0.0093231201 -0.35131836 0 0 0 0
0.23925781 -0.0093460083 -0.35229492 0 0 0 0
0.24145508 -0.0093460083 -0.35229492 0 0 0 0
0.13574219 -0.011863708 -0.36230469 0 0 0 0
0.13720703 -0.011802673 -0.36035156 0 0 0 0
0.13903809 -0.011764526 -0.359375 0 0 0 0
0.14050293 -0.011703491 -0.35717773 0 0 0 0
0.14196777 -0.011634827 -0.35522461 0 0 0 0
0.14331055 -0.011566162 -0.35327148 0 0 0 0
0.14428711 -0.01146698 -0.3503418 0 0 0 0
0.14562988 -0.011405945 -0.34814453 0 0 0 0
0.14697266 -0.01133728 -0.34619141 0 0 0 0
0.14782715 -0.011238098 -0.34326172 0 0 0 0
0.14904785 -0.011177063 -0.34130859 0 0 0 0
0.15026855 -0.011108398 -0.33911133 0 0 0 0
0.15148926 -0.011039734 -0.3371582 0 0 0 0
0.15270996 -0.010978699 -0.33520508 0 0 0 0
0.15332031 -0.010879517 -0.33227539 0 0 0 0
0.15454102 -0.010810852 -0.33007812 0 0 0 0
0.15612793 -0.010780334 -0.32910156 0 0 0 0
0.15710449 -0.01071167 -0.32714844 0 0 0 0
0.15820312 -0.010650635 -0.32519531 0 0 0 0
0.15979004 -0.010612488 -0.32421875 0 0 0 0
0.16174316 -0.010612488 -0.32421875 0 0 0 0
0.16320801 -0.01058197 -0.32324219 0 0 0 0
0.1652832 -0.01058197 -0.32324219 0 0 0 0
0.16784668 -0.010612488 -0.32421875 0 0 0 0
0.1697998 -0.010612488 -0.32421875 0 0 0 0
0.17236328 -0.010650635 -0.32519531 0 0 0 0
0.17492676 -0.010681152 -0.32617188 0 0 0 0
0.17749023 -0.01071167 -0.32714844 0 0 0 0
0.18005371 -0.010749817 -0.328125 0 0 0 0
0.18261719 -0.010780334 -0.32910156 0 0 0 0
0.18530273 -0.010810852 -0.33007812 0 0 0 0
0.18786621 -0.010848999 -0.33105469 0 0 0 0
0.19116211 -0.010910034 -0.33325195 0 0 0 0
0.19372559 -0.010940552 -0.33422852 0 0 0 0
0.19641113 -0.010978699 -0.33520508 0 0 0 0
0.19909668 -0.011009216 -0.33618164 0 0 0 0
0.20239258 -0.011077881 -0.33813477 0 0 0 0
0.20507812 -0.011108398 -0.33911133 0 0 0 0
0.20788574 -0.011138916 -0.34008789 0 0 0 0
0.21057129 -0.011177063 -0.34130859 0 0 0 0
0.21398926 -0.011238098 -0.34326172 0 0 0 0
0.2166748 -0.011276245 -0.34423828 0 0 0 0
0.21948242 -0.011306763 -0.34521484 0 0 0 0
