ply
format ascii 1.0
comment PCL generated
element vertex 1097
property float x
property float y
property float z
property float nx
property float ny
property float nz
property float curvature
element face 0
element camera 0
property float view_px
property float view_py
property float view_pz
property float x_axisx
property float x_axisy
property float x_axisz
property float y_axisx
property float y_axisy
property float y_axisz
property float z_axisx
property float z_axisy
property float z_axisz
property float focal
property float scalex
property float scaley
property float centerx
property float centery
property int viewportx
property int viewporty
property float k1
property float k2
end_header
0.19104004 0.076904297 -0.35620117 0 0 0 0
0.1932373 0.076904297 -0.35620117 0 0 0 0
0.19555664 0.076904297 -0.35620117 0 0 0 0
0.19775391 0.076904297 -0.35620117 0 0 0 0
0.19995117 0.076904297 -0.35620117 0 0 0 0
0.20214844 0.076904297 -0.35620117 0 0 0 0
0.2043457 0.076904297 -0.35620117 0 0 0 0
0.20654297 0.076904297 -0.35620117 0 0 0 0
0.20874023 0.076904297 -0.35620117 0 0 0 0
0.21044922 0.076660156 -0.35522461 0 0 0 0
0.0078887939 0.080322266 -0.38330078 0 0 0 0
0.010353088 0.080993652 -0.38647461 0 0 0 0
0.012748718 0.080993652 -0.38647461 0 0 0 0
0.015075684 0.080566406 -0.38427734 0 0 0 0
0.017410278 0.080322266 -0.38330078 0 0 0 0
0.019699097 0.07989502 -0.38134766 0 0 0 0
0.022003174 0.079711914 -0.38037109 0 0 0 0
0.024307251 0.079528809 -0.37939453 0 0 0 0
0.026596069 0.079284668 -0.37841797 0 0 0 0
0.028945923 0.079284668 -0.37841797 0 0 0 0
0.031219482 0.079101562 -0.37744141 0 0 0 0
0.033630371 0.079284668 -0.37841797 0 0 0 0
0.035980225 0.079284668 -0.37841797 0 0 0 0
0.038330078 0.079284668 -0.37841797 0 0 0 0
0.040802002 0.079528809 -0.37939453 0 0 0 0
0.043060303 0.079284668 -0.37841797 0 0 0 0
0.13208008 0.075073242 -0.35839844 0 0 0 0
0.13427734 0.075073242 -0.35839844 0 0 0 0
0.13647461 0.075073242 -0.35839844 0 0 0 0
0.13867188 0.075073242 -0.35839844 0 0 0 0
0.14099121 0.075073242 -0.35839844 0 0 0 0
0.14318848 0.075073242 -0.35839844 0 0 0 0
0.14538574 0.075073242 -0.35839844 0 0 0 0
0.14758301 0.075073242 -0.35839844 0 0 0 0
0.14978027 0.075073242 -0.35839844 0 0 0 0
0.15161133 0.074890137 -0.35717773 0 0 0 0
0.15380859 0.074890137 -0.35717773 0 0 0 0
0.15612793 0.074890137 -0.35717773 0 0 0 0
0.1583252 0.074890137 -0.35717773 0 0 0 0
0.16052246 0.074890137 -0.35717773 0 0 0 0
0.16271973 0.074890137 -0.35717773 0 0 0 0
0.16491699 0.074890137 -0.35717773 0 0 0 0
0.16723633 0.074890137 -0.35717773 0 0 0 0
0.16943359 0.074890137 -0.35717773 0 0 0 0
0.17163086 0.074890137 -0.35717773 0 0 0 0
0.17382812 0.074890137 -0.35717773 0 0 0 0
0.17602539 0.074890137 -0.35717773 0 0 0 0
0.17834473 0.074890137 -0.35717773 0 0 0 0
0.18005371 0.074645996 -0.35620117 0 0 0 0
0.18225098 0.074645996 -0.35620117 0 0 0 0
0.18444824 0.074645996 -0.35620117 0 0 0 0
0.18664551 0.074645996 -0.35620117 0 0 0 0
0.18884277 0.074645996 -0.35620117 0 0 0 0
0.19104004 0.074645996 -0.35620117 0 0 0 0
0.1932373 0.074645996 -0.35620117 0 0 0 0
0.19555664 0.074645996 -0.35620117 0 0 0 0
0.19775391 0.074645996 -0.35620117 0 0 0 0
0.19995117 0.074645996 -0.35620117 0 0 0 0
0.20214844 0.074645996 -0.35620117 0 0 0 0
0.2043457 0.074645996 -0.35620117 0 0 0 0
0.20654297 0.074645996 -0.35620117 0 0 0 0
0.20874023 0.074645996 -0.35620117 0 0 0 0
0.21105957 0.074645996 -0.35620117 0 0 0 0
0.21264648 0.074462891 -0.35522461 0 0 0 0
0.21484375 0.074462891 -0.35522461 0 0 0 0
0.21704102 0.074462891 -0.35522461 0 0 0 0
0.010429382 0.079162598 -0.3894043 0 0 0 0
0.0128479 0.079162598 -0.3894043 0 0 0 0
0.015190125 0.078796387 -0.38745117 0 0 0 0
0.017501831 0.078369141 -0.38549805 0 0 0 0
0.019790649 0.077941895 -0.38330078 0 0 0 0
0.022064209 0.077575684 -0.38134766 0 0 0 0
0.024368286 0.077331543 -0.38037109 0 0 0 0
0.026657104 0.077148438 -0.37939453 0 0 0 0
0.028945923 0.076965332 -0.37841797 0 0 0 0
0.031219482 0.076721191 -0.37744141 0 0 0 0
0.033538818 0.076721191 -0.37744141 0 0 0 0
0.035980225 0.076965332 -0.37841797 0 0 0 0
0.038330078 0.076965332 -0.37841797 0 0 0 0
0.040710449 0.076965332 -0.37841797 0 0 0 0
0.043060303 0.076965332 -0.37841797 0 0 0 0
0.13208008 0.072875977 -0.35839844 0 0 0 0
0.13427734 0.072875977 -0.35839844 0 0 0 0
0.13647461 0.072875977 -0.35839844 0 0 0 0
0.13867188 0.072875977 -0.35839844 0 0 0 0
0.14099121 0.072875977 -0.35839844 0 0 0 0
0.14318848 0.072875977 -0.35839844 0 0 0 0
0.14538574 0.072875977 -0.35839844 0 0 0 0
0.14758301 0.072875977 -0.35839844 0 0 0 0
0.14941406 0.072631836 -0.35717773 0 0 0 0
0.15161133 0.072631836 -0.35717773 0 0 0 0
0.15380859 0.072631836 -0.35717773 0 0 0 0
0.15612793 0.072631836 -0.35717773 0 0 0 0
0.1583252 0.072631836 -0.35717773 0 0 0 0
0.16052246 0.072631836 -0.35717773 0 0 0 0
0.16271973 0.072631836 -0.35717773 0 0 0 0
0.16491699 0.072631836 -0.35717773 0 0 0 0
0.16723633 0.072631836 -0.35717773 0 0 0 0
0.16943359 0.072631836 -0.35717773 0 0 0 0
0.17163086 0.072631836 -0.35717773 0 0 0 0
0.17382812 0.072631836 -0.35717773 0 0 0 0
0.17553711 0.07244873 -0.35620117 0 0 0 0
0.17773438 0.07244873 -0.35620117 0 0 0 0
0.18005371 0.07244873 -0.35620117 0 0 0 0
0.18225098 0.07244873 -0.35620117 0 0 0 0
0.18444824 0.07244873 -0.35620117 0 0 0 0
0.18664551 0.07244873 -0.35620117 0 0 0 0
0.18884277 0.07244873 -0.35620117 0 0 0 0
0.19104004 0.07244873 -0.35620117 0 0 0 0
0.1932373 0.07244873 -0.35620117 0 0 0 0
0.19555664 0.07244873 -0.35620117 0 0 0 0
0.19775391 0.07244873 -0.35620117 0 0 0 0
0.19995117 0.07244873 -0.35620117 0 0 0 0
0.20214844 0.07244873 -0.35620117 0 0 0 0
0.2043457 0.07244873 -0.35620117 0 0 0 0
0.20654297 0.07244873 -0.35620117 0 0 0 0
0.20874023 0.07244873 -0.35620117 0 0 0 0
0.21105957 0.07244873 -0.35620117 0 0 0 0
0.21264648 0.072265625 -0.35522461 0 0 0 0
0.21484375 0.072265625 -0.35522461 0 0 0 0
0.21704102 0.072265625 -0.35522461 0 0 0 0
0.21923828 0.072265625 -0.35522461 0 0 0 0
0.22143555 0.072265625 -0.35522461 0 0 0 0
0.010620117 0.078125 -0.39648438 0 0 0 0
0.012954712 0.077331543 -0.39233398 0 0 0 0
0.015312195 0.076965332 -0.39038086 0 0 0 0
0.017593384 0.07635498 -0.38745117 0 0 0 0
0.019851685 0.075805664 -0.38427734 0 0 0 0
0.022125244 0.075378418 -0.38232422 0 0 0 0
0.024429321 0.075195312 -0.38134766 0 0 0 0
0.026657104 0.074768066 -0.37939453 0 0 0 0
0.029022217 0.074768066 -0.37939453 0 0 0 0
0.031280518 0.074584961 -0.37841797 0 0 0 0
0.033630371 0.074584961 -0.37841797 0 0 0 0
0.035980225 0.074584961 -0.37841797 0 0 0 0
0.038330078 0.074584961 -0.37841797 0 0 0 0
0.040710449 0.074584961 -0.37841797 0 0 0 0
0.043060303 0.074584961 -0.37841797 0 0 0 0
0.13208008 0.070617676 -0.35839844 0 0 0 0
0.13427734 0.070617676 -0.35839844 0 0 0 0
0.13647461 0.070617676 -0.35839844 0 0 0 0
0.13867188 0.070617676 -0.35839844 0 0 0 0
0.14099121 0.070617676 -0.35839844 0 0 0 0
0.14318848 0.070617676 -0.35839844 0 0 0 0
0.14501953 0.07043457 -0.35717773 0 0 0 0
0.1472168 0.07043457 -0.35717773 0 0 0 0
0.14941406 0.07043457 -0.35717773 0 0 0 0
0.15161133 0.07043457 -0.35717773 0 0 0 0
0.15380859 0.07043457 -0.35717773 0 0 0 0
0.15612793 0.07043457 -0.35717773 0 0 0 0
0.1583252 0.07043457 -0.35717773 0 0 0 0
0.16052246 0.07043457 -0.35717773 0 0 0 0
0.16271973 0.07043457 -0.35717773 0 0 0 0
0.16491699 0.07043457 -0.35717773 0 0 0 0
0.16723633 0.07043457 -0.35717773 0 0 0 0
0.16943359 0.07043457 -0.35717773 0 0 0 0
0.17114258 0.070251465 -0.35620117 0 0 0 0
0.17333984 0.070251465 -0.35620117 0 0 0 0
0.17553711 0.070251465 -0.35620117 0 0 0 0
0.17773438 0.070251465 -0.35620117 0 0 0 0
0.18005371 0.070251465 -0.35620117 0 0 0 0
0.18225098 0.070251465 -0.35620117 0 0 0 0
0.18444824 0.070251465 -0.35620117 0 0 0 0
0.18664551 0.070251465 -0.35620117 0 0 0 0
0.18884277 0.070251465 -0.35620117 0 0 0 0
0.19104004 0.070251465 -0.35620117 0 0 0 0
0.1932373 0.070251465 -0.35620117 0 0 0 0
0.19555664 0.070251465 -0.35620117 0 0 0 0
0.19775391 0.070251465 -0.35620117 0 0 0 0
0.19995117 0.070251465 -0.35620117 0 0 0 0
0.20214844 0.070251465 -0.35620117 0 0 0 0
0.2043457 0.070251465 -0.35620117 0 0 0 0
0.20654297 0.070251465 -0.35620117 0 0 0 0
0.20874023 0.070251465 -0.35620117 0 0 0 0
0.21105957 0.070251465 -0.35620117 0 0 0 0
0.21264648 0.070007324 -0.35522461 0 0 0 0
0.21484375 0.070007324 -0.35522461 0 0 0 0
0.21704102 0.070007324 -0.35522461 0 0 0 0
0.21923828 0.070007324 -0.35522461 0 0 0 0
0.22143555 0.070007324 -0.35522461 0 0 0 0
0.22363281 0.070007324 -0.35522461 0 0 0 0
0.010726929 0.076477051 -0.40039062 0 0 0 0
0.013084412 0.075683594 -0.39648438 0 0 0 0
0.015426636 0.075134277 -0.39331055 0 0 0 0
0.017730713 0.074523926 -0.39038086 0 0 0 0
0.019958496 0.073791504 -0.38647461 0 0 0 0
0.022186279 0.073181152 -0.38330078 0 0 0 0
0.024505615 0.072998047 -0.38232422 0 0 0 0
0.026809692 0.072814941 -0.38134766 0 0 0 0
0.029098511 0.072631836 -0.38037109 0 0 0 0
0.03137207 0.07244873 -0.37939453 0 0 0 0
0.033721924 0.07244873 -0.37939453 0 0 0 0
0.036102295 0.07244873 -0.37939453 0 0 0 0
0.038452148 0.07244873 -0.37939453 0 0 0 0
0.040802002 0.07244873 -0.37939453 0 0 0 0
0.043151855 0.07244873 -0.37939453 0 0 0 0
0.12976074 0.06842041 -0.35839844 0 0 0 0
0.13208008 0.06842041 -0.35839844 0 0 0 0
0.13427734 0.06842041 -0.35839844 0 0 0 0
0.13647461 0.06842041 -0.35839844 0 0 0 0
0.13867188 0.06842041 -0.35839844 0 0 0 0
0.14099121 0.06842041 -0.35839844 0 0 0 0
0.1427002 0.068237305 -0.35717773 0 0 0 0
0.14501953 0.068237305 -0.35717773 0 0 0 0
0.1472168 0.068237305 -0.35717773 0 0 0 0
0.14941406 0.068237305 -0.35717773 0 0 0 0
0.15161133 0.068237305 -0.35717773 0 0 0 0
0.15380859 0.068237305 -0.35717773 0 0 0 0
0.15612793 0.068237305 -0.35717773 0 0 0 0
0.1583252 0.068237305 -0.35717773 0 0 0 0
0.16052246 0.068237305 -0.35717773 0 0 0 0
0.16271973 0.068237305 -0.35717773 0 0 0 0
0.16491699 0.068237305 -0.35717773 0 0 0 0
0.16723633 0.068237305 -0.35717773 0 0 0 0
0.16894531 0.067993164 -0.35620117 0 0 0 0
0.17114258 0.067993164 -0.35620117 0 0 0 0
0.17333984 0.067993164 -0.35620117 0 0 0 0
0.17553711 0.067993164 -0.35620117 0 0 0 0
0.17773438 0.067993164 -0.35620117 0 0 0 0
0.18005371 0.067993164 -0.35620117 0 0 0 0
0.18225098 0.067993164 -0.35620117 0 0 0 0
0.18444824 0.067993164 -0.35620117 0 0 0 0
0.18664551 0.067993164 -0.35620117 0 0 0 0
0.18884277 0.067993164 -0.35620117 0 0 0 0
0.19104004 0.067993164 -0.35620117 0 0 0 0
0.1932373 0.067993164 -0.35620117 0 0 0 0
0.19555664 0.067993164 -0.35620117 0 0 0 0
0.19775391 0.067993164 -0.35620117 0 0 0 0
0.19995117 0.067993164 -0.35620117 0 0 0 0
0.20214844 0.067993164 -0.35620117 0 0 0 0
0.2043457 0.067993164 -0.35620117 0 0 0 0
0.20654297 0.067993164 -0.35620117 0 0 0 0
0.20874023 0.067993164 -0.35620117 0 0 0 0
0.21105957 0.067993164 -0.35620117 0 0 0 0
0.21264648 0.067810059 -0.35522461 0 0 0 0
0.21484375 0.067810059 -0.35522461 0 0 0 0
0.21704102 0.067810059 -0.35522461 0 0 0 0
0.21923828 0.067810059 -0.35522461 0 0 0 0
0.22143555 0.067810059 -0.35522461 0 0 0 0
0.22424316 0.067993164 -0.35620117 0 0 0 0
0.013183594 0.073791504 -0.39941406 0 0 0 0
0.015548706 0.073242188 -0.39648438 0 0 0 0
0.017868042 0.072692871 -0.39331055 0 0 0 0
0.020004272 0.071533203 -0.38745117 0 0 0 0
0.022293091 0.071166992 -0.38549805 0 0 0 0
0.02456665 0.070800781 -0.38330078 0 0 0 0
0.026870728 0.070617676 -0.38232422 0 0 0 0
0.029174805 0.07043457 -0.38134766 0 0 0 0
0.031463623 0.070251465 -0.38037109 0 0 0 0
0.033813477 0.070251465 -0.38037109 0 0 0 0
0.036193848 0.070251465 -0.38037109 0 0 0 0
0.038543701 0.070251465 -0.38037109 0 0 0 0
0.040924072 0.070251465 -0.38037109 0 0 0 0
0.043273926 0.070251465 -0.38037109 0 0 0 0
0.12976074 0.066162109 -0.35839844 0 0 0 0
0.13208008 0.066162109 -0.35839844 0 0 0 0
0.13427734 0.066162109 -0.35839844 0 0 0 0
0.13647461 0.066162109 -0.35839844 0 0 0 0
0.13830566 0.065979004 -0.35717773 0 0 0 0
0.14050293 0.065979004 -0.35717773 0 0 0 0
0.1427002 0.065979004 -0.35717773 0 0 0 0
0.14501953 0.065979004 -0.35717773 0 0 0 0
0.1472168 0.065979004 -0.35717773 0 0 0 0
0.14941406 0.065979004 -0.35717773 0 0 0 0
0.15161133 0.065979004 -0.35717773 0 0 0 0
0.15380859 0.065979004 -0.35717773 0 0 0 0
0.15612793 0.065979004 -0.35717773 0 0 0 0
0.1583252 0.065979004 -0.35717773 0 0 0 0
0.16052246 0.065979004 -0.35717773 0 0 0 0
0.16271973 0.065979004 -0.35717773 0 0 0 0
0.16491699 0.065979004 -0.35717773 0 0 0 0
0.16674805 0.065795898 -0.35620117 0 0 0 0
0.16894531 0.065795898 -0.35620117 0 0 0 0
0.17114258 0.065795898 -0.35620117 0 0 0 0
0.17333984 0.065795898 -0.35620117 0 0 0 0
0.17553711 0.065795898 -0.35620117 0 0 0 0
0.17773438 0.065795898 -0.35620117 0 0 0 0
0.18005371 0.065795898 -0.35620117 0 0 0 0
0.18225098 0.065795898 -0.35620117 0 0 0 0
0.18444824 0.065795898 -0.35620117 0 0 0 0
0.18664551 0.065795898 -0.35620117 0 0 0 0
0.18884277 0.065795898 -0.35620117 0 0 0 0
0.19104004 0.065795898 -0.35620117 0 0 0 0
0.1932373 0.065795898 -0.35620117 0 0 0 0
0.19555664 0.065795898 -0.35620117 0 0 0 0
0.19775391 0.065795898 -0.35620117 0 0 0 0
0.19995117 0.065795898 -0.35620117 0 0 0 0
0.20214844 0.065795898 -0.35620117 0 0 0 0
0.2043457 0.065795898 -0.35620117 0 0 0 0
0.20654297 0.065795898 -0.35620117 0 0 0 0
0.20874023 0.065795898 -0.35620117 0 0 0 0
0.21105957 0.065795898 -0.35620117 0 0 0 0
0.21325684 0.065795898 -0.35620117 0 0 0 0
0.21484375 0.065612793 -0.35522461 0 0 0 0
0.21704102 0.065612793 -0.35522461 0 0 0 0
0.21923828 0.065612793 -0.35522461 0 0 0 0
0.22143555 0.065612793 -0.35522461 0 0 0 0
0.22424316 0.065795898 -0.35620117 0 0 0 0
0.013282776 0.071838379 -0.40234375 0 0 0 0
0.015701294 0.071472168 -0.40039062 0 0 0 0
0.018096924 0.071105957 -0.3984375 0 0 0 0
0.020050049 0.069335938 -0.38842773 0 0 0 0
0.022293091 0.068786621 -0.38549805 0 0 0 0
0.024627686 0.068603516 -0.38427734 0 0 0 0
0.026947021 0.06842041 -0.38330078 0 0 0 0
0.029327393 0.06842041 -0.38330078 0 0 0 0
0.031616211 0.068237305 -0.38232422 0 0 0 0
0.033996582 0.068237305 -0.38232422 0 0 0 0
0.0362854 0.068054199 -0.38134766 0 0 0 0
0.038635254 0.068054199 -0.38134766 0 0 0 0
0.041137695 0.068237305 -0.38232422 0 0 0 0
0.043518066 0.068237305 -0.38232422 0 0 0 0
0.046112061 0.068603516 -0.38427734 0 0 0 0
0.048522949 0.068603516 -0.38427734 0 0 0 0
0.05090332 0.068603516 -0.38427734 0 0 0 0
0.053283691 0.068603516 -0.38427734 0 0 0 0
0.05581665 0.068786621 -0.38549805 0 0 0 0
0.058227539 0.068786621 -0.38549805 0 0 0 0
0.060760498 0.068969727 -0.38647461 0 0 0 0
0.063354492 0.069152832 -0.38745117 0 0 0 0
0.065734863 0.069152832 -0.38745117 0 0 0 0
0.12976074 0.063964844 -0.35839844 0 0 0 0
0.13208008 0.063964844 -0.35839844 0 0 0 0
0.13391113 0.063781738 -0.35717773 0 0 0 0
0.1361084 0.063781738 -0.35717773 0 0 0 0
0.13830566 0.063781738 -0.35717773 0 0 0 0
0.14050293 0.063781738 -0.35717773 0 0 0 0
0.1427002 0.063781738 -0.35717773 0 0 0 0
0.14501953 0.063781738 -0.35717773 0 0 0 0
0.1472168 0.063781738 -0.35717773 0 0 0 0
0.14941406 0.063781738 -0.35717773 0 0 0 0
0.15161133 0.063781738 -0.35717773 0 0 0 0
0.15380859 0.063781738 -0.35717773 0 0 0 0
0.15612793 0.063781738 -0.35717773 0 0 0 0
0.1583252 0.063781738 -0.35717773 0 0 0 0
0.16052246 0.063781738 -0.35717773 0 0 0 0
0.16271973 0.063781738 -0.35717773 0 0 0 0
0.16455078 0.063598633 -0.35620117 0 0 0 0
0.16674805 0.063598633 -0.35620117 0 0 0 0
0.16894531 0.063598633 -0.35620117 0 0 0 0
0.17114258 0.063598633 -0.35620117 0 0 0 0
0.17333984 0.063598633 -0.35620117 0 0 0 0
0.17553711 0.063598633 -0.35620117 0 0 0 0
0.17773438 0.063598633 -0.35620117 0 0 0 0
0.18005371 0.063598633 -0.35620117 0 0 0 0
0.18225098 0.063598633 -0.35620117 0 0 0 0
0.18444824 0.063598633 -0.35620117 0 0 0 0
0.18664551 0.063598633 -0.35620117 0 0 0 0
0.18835449 0.063415527 -0.35522461 0 0 0 0
0.19104004 0.063598633 -0.35620117 0 0 0 0
0.1932373 0.063598633 -0.35620117 0 0 0 0
0.19555664 0.063598633 -0.35620117 0 0 0 0
0.19775391 0.063598633 -0.35620117 0 0 0 0
0.19995117 0.063598633 -0.35620117 0 0 0 0
0.20214844 0.063598633 -0.35620117 0 0 0 0
0.2043457 0.063598633 -0.35620117 0 0 0 0
0.20654297 0.063598633 -0.35620117 0 0 0 0
0.20874023 0.063598633 -0.35620117 0 0 0 0
0.21105957 0.063598633 -0.35620117 0 0 0 0
0.21325684 0.063598633 -0.35620117 0 0 0 0
0.21484375 0.063415527 -0.35522461 0 0 0 0
0.21704102 0.063415527 -0.35522461 0 0 0 0
0.21923828 0.063415527 -0.35522461 0 0 0 0
0.22143555 0.063415527 -0.35522461 0 0 0 0
0.22424316 0.063598633 -0.35620117 0 0 0 0
0.024627686 0.066223145 -0.38427734 0 0 0 0
0.027084351 0.06640625 -0.38549805 0 0 0 0
0.02947998 0.06640625 -0.38549805 0 0 0 0
0.031799316 0.066223145 -0.38427734 0 0 0 0
0.034088135 0.066040039 -0.38330078 0 0 0 0
0.036468506 0.066040039 -0.38330078 0 0 0 0
0.038848877 0.066040039 -0.38330078 0 0 0 0
0.041229248 0.066040039 -0.38330078 0 0 0 0
0.043609619 0.066040039 -0.38330078 0 0 0 0
0.046112061 0.066223145 -0.38427734 0 0 0 0
0.048522949 0.066223145 -0.38427734 0 0 0 0
0.05090332 0.066223145 -0.38427734 0 0 0 0
0.053283691 0.066223145 -0.38427734 0 0 0 0
0.05581665 0.06640625 -0.38549805 0 0 0 0
0.058227539 0.06640625 -0.38549805 0 0 0 0
0.060760498 0.066589355 -0.38647461 0 0 0 0
0.063171387 0.066589355 -0.38647461 0 0 0 0
0.065734863 0.066711426 -0.38745117 0 0 0 0
0.068115234 0.066711426 -0.38745117 0 0 0 0
0.070556641 0.066711426 -0.38745117 0 0 0 0
0.072753906 0.066589355 -0.38647461 0 0 0 0
0.074951172 0.06640625 -0.38549805 0 0 0 0
0.077392578 0.06640625 -0.38549805 0 0 0 0
0.12939453 0.061553955 -0.35717773 0 0 0 0
0.13171387 0.061553955 -0.35717773 0 0 0 0
0.13391113 0.061553955 -0.35717773 0 0 0 0
0.1361084 0.061553955 -0.35717773 0 0 0 0
0.13830566 0.061553955 -0.35717773 0 0 0 0
0.14050293 0.061553955 -0.35717773 0 0 0 0
0.1427002 0.061553955 -0.35717773 0 0 0 0
0.14501953 0.061553955 -0.35717773 0 0 0 0
0.1472168 0.061553955 -0.35717773 0 0 0 0
0.14941406 0.061553955 -0.35717773 0 0 0 0
0.15161133 0.061553955 -0.35717773 0 0 0 0
0.15380859 0.061553955 -0.35717773 0 0 0 0
0.15563965 0.061401367 -0.35620117 0 0 0 0
0.15783691 0.061401367 -0.35620117 0 0 0 0
0.16003418 0.061401367 -0.35620117 0 0 0 0
0.16223145 0.061401367 -0.35620117 0 0 0 0
0.16455078 0.061401367 -0.35620117 0 0 0 0
0.16674805 0.061401367 -0.35620117 0 0 0 0
0.16894531 0.061401367 -0.35620117 0 0 0 0
0.17114258 0.061401367 -0.35620117 0 0 0 0
0.17333984 0.061401367 -0.35620117 0 0 0 0
0.17553711 0.061401367 -0.35620117 0 0 0 0
0.17773438 0.061401367 -0.35620117 0 0 0 0
0.18005371 0.061401367 -0.35620117 0 0 0 0
0.18225098 0.061401367 -0.35620117 0 0 0 0
0.18444824 0.061401367 -0.35620117 0 0 0 0
0.18615723 0.061218262 -0.35522461 0 0 0 0
0.18835449 0.061218262 -0.35522461 0 0 0 0
0.19055176 0.061218262 -0.35522461 0 0 0 0
0.1932373 0.061401367 -0.35620117 0 0 0 0
0.19555664 0.061401367 -0.35620117 0 0 0 0
0.19775391 0.061401367 -0.35620117 0 0 0 0
0.19995117 0.061401367 -0.35620117 0 0 0 0
0.20214844 0.061401367 -0.35620117 0 0 0 0
0.2043457 0.061401367 -0.35620117 0 0 0 0
0.20654297 0.061401367 -0.35620117 0 0 0 0
0.20874023 0.061401367 -0.35620117 0 0 0 0
0.21105957 0.061401367 -0.35620117 0 0 0 0
0.21264648 0.061218262 -0.35522461 0 0 0 0
0.21484375 0.061218262 -0.35522461 0 0 0 0
0.21704102 0.061218262 -0.35522461 0 0 0 0
0.21923828 0.061218262 -0.35522461 0 0 0 0
0.22143555 0.061218262 -0.35522461 0 0 0 0
0.22363281 0.061218262 -0.35522461 0 0 0 0
0.024688721 0.064025879 -0.38549805 0 0 0 0
0.02722168 0.064331055 -0.38745117 0 0 0 0
0.029632568 0.064331055 -0.38745117 0 0 0 0
0.031951904 0.064147949 -0.38647461 0 0 0 0
0.03427124 0.064025879 -0.38549805 0 0 0 0
0.036651611 0.064025879 -0.38549805 0 0 0 0
0.03894043 0.063842773 -0.38427734 0 0 0 0
0.041351318 0.063842773 -0.38427734 0 0 0 0
0.043731689 0.063842773 -0.38427734 0 0 0 0
0.046112061 0.063842773 -0.38427734 0 0 0 0
0.048522949 0.063842773 -0.38427734 0 0 0 0
0.05090332 0.063842773 -0.38427734 0 0 0 0
0.053283691 0.063842773 -0.38427734 0 0 0 0
0.05569458 0.063842773 -0.38427734 0 0 0 0
0.058227539 0.064025879 -0.38549805 0 0 0 0
0.06060791 0.064025879 -0.38549805 0 0 0 0
0.063171387 0.064147949 -0.38647461 0 0 0 0
0.065551758 0.064147949 -0.38647461 0 0 0 0
0.067993164 0.064147949 -0.38647461 0 0 0 0
0.070373535 0.064147949 -0.38647461 0 0 0 0
0.072570801 0.064025879 -0.38549805 0 0 0 0
0.074951172 0.064025879 -0.38549805 0 0 0 0
0.077148438 0.063842773 -0.38427734 0 0 0 0
0.079345703 0.063659668 -0.38330078 0 0 0 0
0.12939453 0.059356689 -0.35717773 0 0 0 0
0.13171387 0.059356689 -0.35717773 0 0 0 0
0.13391113 0.059356689 -0.35717773 0 0 0 0
0.1361084 0.059356689 -0.35717773 0 0 0 0
0.13830566 0.059356689 -0.35717773 0 0 0 0
0.14050293 0.059356689 -0.35717773 0 0 0 0
0.1427002 0.059356689 -0.35717773 0 0 0 0
0.14501953 0.059356689 -0.35717773 0 0 0 0
0.1472168 0.059356689 -0.35717773 0 0 0 0
0.14941406 0.059356689 -0.35717773 0 0 0 0
0.15124512 0.059173584 -0.35620117 0 0 0 0
0.15344238 0.059173584 -0.35620117 0 0 0 0
0.15563965 0.059173584 -0.35620117 0 0 0 0
0.15783691 0.059173584 -0.35620117 0 0 0 0
0.16003418 0.059173584 -0.35620117 0 0 0 0
0.16223145 0.059173584 -0.35620117 0 0 0 0
0.16455078 0.059173584 -0.35620117 0 0 0 0
0.16674805 0.059173584 -0.35620117 0 0 0 0
0.16894531 0.059173584 -0.35620117 0 0 0 0
0.17114258 0.059173584 -0.35620117 0 0 0 0
0.17333984 0.059173584 -0.35620117 0 0 0 0
0.17553711 0.059173584 -0.35620117 0 0 0 0
0.17773438 0.059173584 -0.35620117 0 0 0 0
0.18005371 0.059173584 -0.35620117 0 0 0 0
0.18225098 0.059173584 -0.35620117 0 0 0 0
0.18444824 0.059173584 -0.35620117 0 0 0 0
0.18615723 0.059020996 -0.35522461 0 0 0 0
0.18835449 0.059020996 -0.35522461 0 0 0 0
0.19055176 0.059020996 -0.35522461 0 0 0 0
0.19274902 0.059020996 -0.35522461 0 0 0 0
0.19494629 0.059020996 -0.35522461 0 0 0 0
0.19775391 0.059173584 -0.35620117 0 0 0 0
0.19995117 0.059173584 -0.35620117 0 0 0 0
0.20214844 0.059173584 -0.35620117 0 0 0 0
0.2043457 0.059173584 -0.35620117 0 0 0 0
0.20654297 0.059173584 -0.35620117 0 0 0 0
0.20874023 0.059173584 -0.35620117 0 0 0 0
0.21044922 0.059020996 -0.35522461 0 0 0 0
0.21264648 0.059020996 -0.35522461 0 0 0 0
0.21484375 0.059020996 -0.35522461 0 0 0 0
0.21704102 0.059020996 -0.35522461 0 0 0 0
0.21923828 0.059020996 -0.35522461 0 0 0 0
0.22143555 0.059020996 -0.35522461 0 0 0 0
0.22363281 0.059020996 -0.35522461 0 0 0 0
0.027374268 0.062255859 -0.3894043 0 0 0 0
0.02986145 0.062408447 -0.39038086 0 0 0 0
0.032196045 0.062255859 -0.3894043 0 0 0 0
0.034454346 0.061950684 -0.38745117 0 0 0 0
0.036743164 0.061767578 -0.38647461 0 0 0 0
0.0390625 0.06161499 -0.38549805 0 0 0 0
0.041442871 0.06161499 -0.38549805 0 0 0 0
0.043731689 0.061462402 -0.38427734 0 0 0 0
0.046112061 0.061462402 -0.38427734 0 0 0 0
0.048370361 0.061309814 -0.38330078 0 0 0 0
0.05078125 0.061309814 -0.38330078 0 0 0 0
0.053161621 0.061309814 -0.38330078 0 0 0 0
0.05569458 0.061462402 -0.38427734 0 0 0 0
0.058074951 0.061462402 -0.38427734 0 0 0 0
0.06060791 0.06161499 -0.38549805 0 0 0 0
0.062988281 0.06161499 -0.38549805 0 0 0 0
0.065551758 0.061767578 -0.38647461 0 0 0 0
0.067993164 0.061767578 -0.38647461 0 0 0 0
0.070373535 0.061767578 -0.38647461 0 0 0 0
0.072570801 0.06161499 -0.38549805 0 0 0 0
0.074951172 0.06161499 -0.38549805 0 0 0 0
0.077148438 0.061462402 -0.38427734 0 0 0 0
0.079345703 0.061309814 -0.38330078 0 0 0 0
0.081542969 0.061126709 -0.38232422 0 0 0 0
0.08392334 0.061126709 -0.38232422 0 0 0 0
0.12719727 0.057128906 -0.35717773 0 0 0 0
0.12939453 0.057128906 -0.35717773 0 0 0 0
0.13171387 0.057128906 -0.35717773 0 0 0 0
0.13391113 0.057128906 -0.35717773 0 0 0 0
0.1361084 0.057128906 -0.35717773 0 0 0 0
0.13830566 0.057128906 -0.35717773 0 0 0 0
0.14050293 0.057128906 -0.35717773 0 0 0 0
0.1427002 0.057128906 -0.35717773 0 0 0 0
0.14501953 0.057128906 -0.35717773 0 0 0 0
0.1472168 0.057128906 -0.35717773 0 0 0 0
0.14904785 0.056976318 -0.35620117 0 0 0 0
0.15124512 0.056976318 -0.35620117 0 0 0 0
0.15344238 0.056976318 -0.35620117 0 0 0 0
0.15563965 0.056976318 -0.35620117 0 0 0 0
0.15783691 0.056976318 -0.35620117 0 0 0 0
0.16003418 0.056976318 -0.35620117 0 0 0 0
0.16223145 0.056976318 -0.35620117 0 0 0 0
0.16455078 0.056976318 -0.35620117 0 0 0 0
0.16674805 0.056976318 -0.35620117 0 0 0 0
0.16894531 0.056976318 -0.35620117 0 0 0 0
0.17114258 0.056976318 -0.35620117 0 0 0 0
0.17333984 0.056976318 -0.35620117 0 0 0 0
0.17553711 0.056976318 -0.35620117 0 0 0 0
0.17773438 0.056976318 -0.35620117 0 0 0 0
0.18005371 0.056976318 -0.35620117 0 0 0 0
0.18225098 0.056976318 -0.35620117 0 0 0 0
0.18444824 0.056976318 -0.35620117 0 0 0 0
0.18615723 0.056793213 -0.35522461 0 0 0 0
0.18835449 0.056793213 -0.35522461 0 0 0 0
0.19055176 0.056793213 -0.35522461 0 0 0 0
0.19274902 0.056793213 -0.35522461 0 0 0 0
0.19494629 0.056793213 -0.35522461 0 0 0 0
0.19714355 0.056793213 -0.35522461 0 0 0 0
0.19934082 0.056793213 -0.35522461 0 0 0 0
0.20214844 0.056976318 -0.35620117 0 0 0 0
0.2043457 0.056976318 -0.35620117 0 0 0 0
0.20654297 0.056976318 -0.35620117 0 0 0 0
0.20825195 0.056793213 -0.35522461 0 0 0 0
0.21044922 0.056793213 -0.35522461 0 0 0 0
0.21264648 0.056793213 -0.35522461 0 0 0 0
0.21484375 0.056793213 -0.35522461 0 0 0 0
0.21704102 0.056793213 -0.35522461 0 0 0 0
0.21923828 0.056793213 -0.35522461 0 0 0 0
0.22143555 0.056793213 -0.35522461 0 0 0 0
0.22424316 0.056976318 -0.35620117 0 0 0 0
0.028152466 0.061523438 -0.40039062 0 0 0 0
0.030181885 0.06060791 -0.39453125 0 0 0 0
0.03237915 0.060150146 -0.39135742 0 0 0 0
0.034637451 0.059844971 -0.3894043 0 0 0 0
0.036956787 0.059692383 -0.38842773 0 0 0 0
0.039154053 0.059387207 -0.38647461 0 0 0 0
0.041442871 0.059234619 -0.38549805 0 0 0 0
0.043731689 0.059082031 -0.38427734 0 0 0 0
0.046112061 0.059082031 -0.38427734 0 0 0 0
0.048370361 0.058898926 -0.38330078 0 0 0 0
0.05078125 0.058898926 -0.38330078 0 0 0 0
0.053161621 0.058898926 -0.38330078 0 0 0 0
0.055541992 0.058898926 -0.38330078 0 0 0 0
0.057922363 0.058898926 -0.38330078 0 0 0 0
0.060455322 0.059082031 -0.38427734 0 0 0 0
0.062988281 0.059234619 -0.38549805 0 0 0 0
0.065368652 0.059234619 -0.38549805 0 0 0 0
0.067810059 0.059234619 -0.38549805 0 0 0 0
0.07019043 0.059234619 -0.38549805 0 0 0 0
0.072570801 0.059234619 -0.38549805 0 0 0 0
0.074768066 0.059082031 -0.38427734 0 0 0 0
0.077148438 0.059082031 -0.38427734 0 0 0 0
0.079345703 0.058898926 -0.38330078 0 0 0 0
0.081542969 0.058746338 -0.38232422 0 0 0 0
0.08392334 0.058746338 -0.38232422 0 0 0 0
0.12719727 0.054901123 -0.35717773 0 0 0 0
0.12939453 0.054901123 -0.35717773 0 0 0 0
0.13171387 0.054901123 -0.35717773 0 0 0 0
0.13391113 0.054901123 -0.35717773 0 0 0 0
0.1361084 0.054901123 -0.35717773 0 0 0 0
0.13830566 0.054901123 -0.35717773 0 0 0 0
0.14050293 0.054901123 -0.35717773 0 0 0 0
0.1427002 0.054901123 -0.35717773 0 0 0 0
0.14501953 0.054901123 -0.35717773 0 0 0 0
0.14672852 0.054748535 -0.35620117 0 0 0 0
0.14904785 0.054748535 -0.35620117 0 0 0 0
0.15124512 0.054748535 -0.35620117 0 0 0 0
0.15344238 0.054748535 -0.35620117 0 0 0 0
0.15563965 0.054748535 -0.35620117 0 0 0 0
0.15783691 0.054748535 -0.35620117 0 0 0 0
0.16003418 0.054748535 -0.35620117 0 0 0 0
0.16223145 0.054748535 -0.35620117 0 0 0 0
0.16455078 0.054748535 -0.35620117 0 0 0 0
0.16674805 0.054748535 -0.35620117 0 0 0 0
0.16894531 0.054748535 -0.35620117 0 0 0 0
0.17114258 0.054748535 -0.35620117 0 0 0 0
0.17333984 0.054748535 -0.35620117 0 0 0 0
0.17553711 0.054748535 -0.35620117 0 0 0 0
0.17773438 0.054748535 -0.35620117 0 0 0 0
0.18005371 0.054748535 -0.35620117 0 0 0 0
0.18225098 0.054748535 -0.35620117 0 0 0 0
0.18395996 0.054595947 -0.35522461 0 0 0 0
0.18615723 0.054595947 -0.35522461 0 0 0 0
0.18835449 0.054595947 -0.35522461 0 0 0 0
0.19055176 0.054595947 -0.35522461 0 0 0 0
0.19274902 0.054595947 -0.35522461 0 0 0 0
0.19494629 0.054595947 -0.35522461 0 0 0 0
0.19714355 0.054595947 -0.35522461 0 0 0 0
0.19934082 0.054595947 -0.35522461 0 0 0 0
0.20153809 0.054595947 -0.35522461 0 0 0 0
0.20373535 0.054595947 -0.35522461 0 0 0 0
0.20605469 0.054595947 -0.35522461 0 0 0 0
0.20825195 0.054595947 -0.35522461 0 0 0 0
0.21044922 0.054595947 -0.35522461 0 0 0 0
0.21264648 0.054595947 -0.35522461 0 0 0 0
0.21484375 0.054595947 -0.35522461 0 0 0 0
0.21704102 0.054595947 -0.35522461 0 0 0 0
0.21923828 0.054595947 -0.35522461 0 0 0 0
0.22143555 0.054595947 -0.35522461 0 0 0 0
0.028213501 0.059204102 -0.40136719 0 0 0 0
0.030410767 0.05859375 -0.39746094 0 0 0 0
0.032531738 0.058013916 -0.39331055 0 0 0 0
0.034790039 0.05770874 -0.39135742 0 0 0 0
0.03704834 0.057434082 -0.3894043 0 0 0 0
0.039245605 0.057128906 -0.38745117 0 0 0 0
0.041442871 0.05682373 -0.38549805 0 0 0 0
0.043731689 0.056671143 -0.38427734 0 0 0 0
0.04598999 0.056518555 -0.38330078 0 0 0 0
0.048370361 0.056518555 -0.38330078 0 0 0 0
0.050628662 0.056396484 -0.38232422 0 0 0 0
0.053009033 0.056396484 -0.38232422 0 0 0 0
0.055389404 0.056396484 -0.38232422 0 0 0 0
0.057922363 0.056518555 -0.38330078 0 0 0 0
0.060302734 0.056518555 -0.38330078 0 0 0 0
0.062805176 0.056671143 -0.38427734 0 0 0 0
0.065368652 0.05682373 -0.38549805 0 0 0 0
0.067810059 0.05682373 -0.38549805 0 0 0 0
0.07019043 0.05682373 -0.38549805 0 0 0 0
0.072570801 0.05682373 -0.38549805 0 0 0 0
0.074768066 0.056671143 -0.38427734 0 0 0 0
0.077148438 0.056671143 -0.38427734 0 0 0 0
0.079345703 0.056518555 -0.38330078 0 0 0 0
0.081726074 0.056518555 -0.38330078 0 0 0 0
0.08392334 0.056396484 -0.38232422 0 0 0 0
0.12719727 0.05267334 -0.35717773 0 0 0 0
0.12939453 0.05267334 -0.35717773 0 0 0 0
0.13171387 0.05267334 -0.35717773 0 0 0 0
0.13391113 0.05267334 -0.35717773 0 0 0 0
0.1361084 0.05267334 -0.35717773 0 0 0 0
0.13830566 0.05267334 -0.35717773 0 0 0 0
0.14050293 0.05267334 -0.35717773 0 0 0 0
0.1427002 0.05267334 -0.35717773 0 0 0 0
0.14453125 0.052520752 -0.35620117 0 0 0 0
0.14672852 0.052520752 -0.35620117 0 0 0 0
0.14904785 0.052520752 -0.35620117 0 0 0 0
0.15124512 0.052520752 -0.35620117 0 0 0 0
0.15344238 0.052520752 -0.35620117 0 0 0 0
0.15563965 0.052520752 -0.35620117 0 0 0 0
0.15783691 0.052520752 -0.35620117 0 0 0 0
0.16003418 0.052520752 -0.35620117 0 0 0 0
0.16223145 0.052520752 -0.35620117 0 0 0 0
0.16455078 0.052520752 -0.35620117 0 0 0 0
0.16674805 0.052520752 -0.35620117 0 0 0 0
0.16894531 0.052520752 -0.35620117 0 0 0 0
0.17114258 0.052520752 -0.35620117 0 0 0 0
0.17333984 0.052520752 -0.35620117 0 0 0 0
0.17553711 0.052520752 -0.35620117 0 0 0 0
0.17773438 0.052520752 -0.35620117 0 0 0 0
0.18005371 0.052520752 -0.35620117 0 0 0 0
0.18225098 0.052520752 -0.35620117 0 0 0 0
0.18395996 0.052398682 -0.35522461 0 0 0 0
0.18615723 0.052398682 -0.35522461 0 0 0 0
0.18835449 0.052398682 -0.35522461 0 0 0 0
0.19055176 0.052398682 -0.35522461 0 0 0 0
0.19274902 0.052398682 -0.35522461 0 0 0 0
0.19494629 0.052398682 -0.35522461 0 0 0 0
0.19714355 0.052398682 -0.35522461 0 0 0 0
0.19934082 0.052398682 -0.35522461 0 0 0 0
0.20153809 0.052398682 -0.35522461 0 0 0 0
0.20373535 0.052398682 -0.35522461 0 0 0 0
0.20605469 0.052398682 -0.35522461 0 0 0 0
0.20825195 0.052398682 -0.35522461 0 0 0 0
0.21044922 0.052398682 -0.35522461 0 0 0 0
0.21264648 0.052398682 -0.35522461 0 0 0 0
0.21484375 0.052398682 -0.35522461 0 0 0 0
0.21704102 0.052398682 -0.35522461 0 0 0 0
0.21923828 0.052398682 -0.35522461 0 0 0 0
0.22143555 0.052398682 -0.35522461 0 0 0 0
0.030487061 0.056274414 -0.3984375 0 0 0 0
0.032623291 0.05569458 -0.39453125 0 0 0 0
0.034881592 0.055419922 -0.39233398 0 0 0 0
0.03704834 0.054992676 -0.3894043 0 0 0 0
0.039245605 0.054718018 -0.38745117 0 0 0 0
0.041564941 0.05456543 -0.38647461 0 0 0 0
0.043731689 0.054290771 -0.38427734 0 0 0 0
0.04598999 0.054138184 -0.38330078 0 0 0 0
0.048248291 0.054016113 -0.38232422 0 0 0 0
0.050628662 0.054016113 -0.38232422 0 0 0 0
0.053009033 0.054016113 -0.38232422 0 0 0 0
0.055389404 0.054016113 -0.38232422 0 0 0 0
0.057769775 0.054016113 -0.38232422 0 0 0 0
0.060302734 0.054138184 -0.38330078 0 0 0 0
0.062683105 0.054138184 -0.38330078 0 0 0 0
0.065246582 0.054290771 -0.38427734 0 0 0 0
0.067810059 0.054443359 -0.38549805 0 0 0 0
0.07019043 0.054443359 -0.38549805 0 0 0 0
0.072570801 0.054443359 -0.38549805 0 0 0 0
0.074768066 0.054290771 -0.38427734 0 0 0 0
0.077148438 0.054290771 -0.38427734 0 0 0 0
0.079345703 0.054138184 -0.38330078 0 0 0 0
0.081726074 0.054138184 -0.38330078 0 0 0 0
0.08392334 0.054016113 -0.38232422 0 0 0 0
0.12719727 0.050476074 -0.35717773 0 0 0 0
0.12939453 0.050476074 -0.35717773 0 0 0 0
0.13171387 0.050476074 -0.35717773 0 0 0 0
0.13391113 0.050476074 -0.35717773 0 0 0 0
0.1361084 0.050476074 -0.35717773 0 0 0 0
0.13830566 0.050476074 -0.35717773 0 0 0 0
0.14050293 0.050476074 -0.35717773 0 0 0 0
0.1427002 0.050476074 -0.35717773 0 0 0 0
0.14453125 0.050323486 -0.35620117 0 0 0 0
0.14672852 0.050323486 -0.35620117 0 0 0 0
0.14904785 0.050323486 -0.35620117 0 0 0 0
0.15124512 0.050323486 -0.35620117 0 0 0 0
0.15344238 0.050323486 -0.35620117 0 0 0 0
0.15563965 0.050323486 -0.35620117 0 0 0 0
0.15783691 0.050323486 -0.35620117 0 0 0 0
0.16003418 0.050323486 -0.35620117 0 0 0 0
0.16223145 0.050323486 -0.35620117 0 0 0 0
0.16455078 0.050323486 -0.35620117 0 0 0 0
0.16674805 0.050323486 -0.35620117 0 0 0 0
0.16894531 0.050323486 -0.35620117 0 0 0 0
0.17114258 0.050323486 -0.35620117 0 0 0 0
0.17333984 0.050323486 -0.35620117 0 0 0 0
0.17553711 0.050323486 -0.35620117 0 0 0 0
0.17773438 0.050323486 -0.35620117 0 0 0 0
0.18005371 0.050323486 -0.35620117 0 0 0 0
0.1817627 0.050170898 -0.35522461 0 0 0 0
0.18395996 0.050170898 -0.35522461 0 0 0 0
0.18615723 0.050170898 -0.35522461 0 0 0 0
0.18835449 0.050170898 -0.35522461 0 0 0 0
0.19055176 0.050170898 -0.35522461 0 0 0 0
0.19274902 0.050170898 -0.35522461 0 0 0 0
0.19494629 0.050170898 -0.35522461 0 0 0 0
0.19714355 0.050170898 -0.35522461 0 0 0 0
0.19934082 0.050170898 -0.35522461 0 0 0 0
0.20153809 0.050170898 -0.35522461 0 0 0 0
0.20373535 0.050170898 -0.35522461 0 0 0 0
0.20605469 0.050170898 -0.35522461 0 0 0 0
0.20825195 0.050170898 -0.35522461 0 0 0 0
0.21044922 0.050170898 -0.35522461 0 0 0 0
0.21264648 0.050170898 -0.35522461 0 0 0 0
0.21484375 0.050170898 -0.35522461 0 0 0 0
0.21704102 0.050170898 -0.35522461 0 0 0 0
0.21923828 0.050170898 -0.35522461 0 0 0 0
0.22143555 0.050170898 -0.35522461 0 0 0 0
0.030487061 0.05380249 -0.3984375 0 0 0 0
0.032714844 0.053405762 -0.39550781 0 0 0 0
0.034881592 0.052978516 -0.39233398 0 0 0 0
0.03704834 0.052581787 -0.3894043 0 0 0 0
0.039245605 0.052307129 -0.38745117 0 0 0 0
0.041564941 0.052185059 -0.38647461 0 0 0 0
0.043731689 0.0519104 -0.38427734 0 0 0 0
0.04598999 0.051757812 -0.38330078 0 0 0 0
0.048248291 0.051635742 -0.38232422 0 0 0 0
0.050628662 0.051635742 -0.38232422 0 0 0 0
0.052886963 0.051483154 -0.38134766 0 0 0 0
0.055236816 0.051483154 -0.38134766 0 0 0 0
0.057769775 0.051635742 -0.38232422 0 0 0 0
0.060150146 0.051635742 -0.38232422 0 0 0 0
0.062683105 0.051757812 -0.38330078 0 0 0 0
0.065246582 0.0519104 -0.38427734 0 0 0 0
0.067626953 0.0519104 -0.38427734 0 0 0 0
0.07019043 0.052032471 -0.38549805 0 0 0 0
0.072570801 0.052032471 -0.38549805 0 0 0 0
0.074951172 0.052032471 -0.38549805 0 0 0 0
0.077148438 0.0519104 -0.38427734 0 0 0 0
0.079345703 0.051757812 -0.38330078 0 0 0 0
0.081726074 0.051757812 -0.38330078 0 0 0 0
0.12719727 0.048248291 -0.35717773 0 0 0 0
0.12939453 0.048248291 -0.35717773 0 0 0 0
0.13171387 0.048248291 -0.35717773 0 0 0 0
0.13391113 0.048248291 -0.35717773 0 0 0 0
0.1361084 0.048248291 -0.35717773 0 0 0 0
0.13830566 0.048248291 -0.35717773 0 0 0 0
0.14050293 0.048248291 -0.35717773 0 0 0 0
0.14233398 0.048095703 -0.35620117 0 0 0 0
0.14453125 0.048095703 -0.35620117 0 0 0 0
0.14672852 0.048095703 -0.35620117 0 0 0 0
0.14904785 0.048095703 -0.35620117 0 0 0 0
0.15124512 0.048095703 -0.35620117 0 0 0 0
0.15344238 0.048095703 -0.35620117 0 0 0 0
0.15563965 0.048095703 -0.35620117 0 0 0 0
0.15783691 0.048095703 -0.35620117 0 0 0 0
0.16003418 0.048095703 -0.35620117 0 0 0 0
0.16223145 0.048095703 -0.35620117 0 0 0 0
0.16455078 0.048095703 -0.35620117 0 0 0 0
0.16674805 0.048095703 -0.35620117 0 0 0 0
0.16894531 0.048095703 -0.35620117 0 0 0 0
0.17114258 0.048095703 -0.35620117 0 0 0 0
0.17333984 0.048095703 -0.35620117 0 0 0 0
0.17553711 0.048095703 -0.35620117 0 0 0 0
0.17773438 0.048095703 -0.35620117 0 0 0 0
0.17944336 0.047973633 -0.35522461 0 0 0 0
0.1817627 0.047973633 -0.35522461 0 0 0 0
0.18395996 0.047973633 -0.35522461 0 0 0 0
0.18615723 0.047973633 -0.35522461 0 0 0 0
0.18835449 0.047973633 -0.35522461 0 0 0 0
0.19055176 0.047973633 -0.35522461 0 0 0 0
0.19274902 0.047973633 -0.35522461 0 0 0 0
0.19494629 0.047973633 -0.35522461 0 0 0 0
0.19714355 0.047973633 -0.35522461 0 0 0 0
0.19934082 0.047973633 -0.35522461 0 0 0 0
0.20153809 0.047973633 -0.35522461 0 0 0 0
0.20373535 0.047973633 -0.35522461 0 0 0 0
0.20605469 0.047973633 -0.35522461 0 0 0 0
0.20825195 0.047973633 -0.35522461 0 0 0 0
0.21044922 0.047973633 -0.35522461 0 0 0 0
0.21264648 0.047973633 -0.35522461 0 0 0 0
0.21484375 0.047973633 -0.35522461 0 0 0 0
0.21704102 0.047973633 -0.35522461 0 0 0 0
0.21923828 0.047973633 -0.35522461 0 0 0 0
0.028213501 0.051696777 -0.40136719 0 0 0 0
0.030487061 0.051330566 -0.3984375 0 0 0 0
0.032714844 0.050933838 -0.39550781 0 0 0 0
0.034881592 0.050537109 -0.39233398 0 0 0 0
0.037139893 0.050292969 -0.39038086 0 0 0 0
0.039245605 0.04989624 -0.38745117 0 0 0 0
0.041564941 0.04977417 -0.38647461 0 0 0 0
0.043731689 0.049499512 -0.38427734 0 0 0 0
0.04598999 0.049377441 -0.38330078 0 0 0 0
0.048248291 0.049255371 -0.38232422 0 0 0 0
0.050506592 0.049133301 -0.38134766 0 0 0 0
0.052886963 0.049133301 -0.38134766 0 0 0 0
0.055236816 0.049133301 -0.38134766 0 0 0 0
0.057617188 0.049133301 -0.38134766 0 0 0 0
0.060150146 0.049255371 -0.38232422 0 0 0 0
0.0625 0.049255371 -0.38232422 0 0 0 0
0.065063477 0.049377441 -0.38330078 0 0 0 0
0.067626953 0.049499512 -0.38427734 0 0 0 0
0.070007324 0.049499512 -0.38427734 0 0 0 0
0.072570801 0.0496521 -0.38549805 0 0 0 0
0.074951172 0.0496521 -0.38549805 0 0 0 0
0.125 0.046020508 -0.35717773 0 0 0 0
0.12719727 0.046020508 -0.35717773 0 0 0 0
0.12939453 0.046020508 -0.35717773 0 0 0 0
0.13171387 0.046020508 -0.35717773 0 0 0 0
0.13391113 0.046020508 -0.35717773 0 0 0 0
0.1361084 0.046020508 -0.35717773 0 0 0 0
0.13830566 0.046020508 -0.35717773 0 0 0 0
0.14050293 0.046020508 -0.35717773 0 0 0 0
0.14233398 0.045898438 -0.35620117 0 0 0 0
0.14453125 0.045898438 -0.35620117 0 0 0 0
0.14672852 0.045898438 -0.35620117 0 0 0 0
0.14904785 0.045898438 -0.35620117 0 0 0 0
0.15124512 0.045898438 -0.35620117 0 0 0 0
0.15344238 0.045898438 -0.35620117 0 0 0 0
0.15563965 0.045898438 -0.35620117 0 0 0 0
0.15783691 0.045898438 -0.35620117 0 0 0 0
0.16003418 0.045898438 -0.35620117 0 0 0 0
0.16223145 0.045898438 -0.35620117 0 0 0 0
0.16455078 0.045898438 -0.35620117 0 0 0 0
0.16674805 0.045898438 -0.35620117 0 0 0 0
0.16894531 0.045898438 -0.35620117 0 0 0 0
0.17114258 0.045898438 -0.35620117 0 0 0 0
0.17333984 0.045898438 -0.35620117 0 0 0 0
0.17553711 0.045898438 -0.35620117 0 0 0 0
0.17773438 0.045898438 -0.35620117 0 0 0 0
0.17944336 0.045776367 -0.35522461 0 0 0 0
0.1817627 0.045776367 -0.35522461 0 0 0 0
0.18395996 0.045776367 -0.35522461 0 0 0 0
0.18615723 0.045776367 -0.35522461 0 0 0 0
0.18835449 0.045776367 -0.35522461 0 0 0 0
0.19055176 0.045776367 -0.35522461 0 0 0 0
0.19226074 0.045623779 -0.35424805 0 0 0 0
0.19445801 0.045623779 -0.35424805 0 0 0 0
0.19665527 0.045623779 -0.35424805 0 0 0 0
0.19885254 0.045623779 -0.35424805 0 0 0 0
0.2010498 0.045623779 -0.35424805 0 0 0 0
0.20324707 0.045623779 -0.35424805 0 0 0 0
0.20544434 0.045623779 -0.35424805 0 0 0 0
0.2076416 0.045623779 -0.35424805 0 0 0 0
0.20983887 0.045623779 -0.35424805 0 0 0 0
0.21203613 0.045623779 -0.35424805 0 0 0 0
0.2142334 0.045623779 -0.35424805 0 0 0 0
0.21643066 0.045623779 -0.35424805 0 0 0 0
0.21862793 0.045623779 -0.35424805 0 0 0 0
0.028213501 0.049224854 -0.40136719 0 0 0 0
0.030487061 0.048858643 -0.3984375 0 0 0 0
0.032714844 0.048461914 -0.39550781 0 0 0 0
0.034881592 0.048095703 -0.39233398 0 0 0 0
0.037139893 0.047851562 -0.39038086 0 0 0 0
0.039367676 0.047607422 -0.38842773 0 0 0 0
0.041564941 0.047363281 -0.38647461 0 0 0 0
0.043731689 0.047119141 -0.38427734 0 0 0 0
0.04598999 0.04699707 -0.38330078 0 0 0 0
0.048248291 0.046875 -0.38232422 0 0 0 0
0.050506592 0.04675293 -0.38134766 0 0 0 0
0.052886963 0.04675293 -0.38134766 0 0 0 0
0.055236816 0.04675293 -0.38134766 0 0 0 0
0.057617188 0.04675293 -0.38134766 0 0 0 0
0.059997559 0.04675293 -0.38134766 0 0 0 0
0.0625 0.046875 -0.38232422 0 0 0 0
0.065063477 0.04699707 -0.38330078 0 0 0 0
0.067443848 0.04699707 -0.38330078 0 0 0 0
0.070007324 0.047119141 -0.38427734 0 0 0 0
0.072570801 0.047241211 -0.38549805 0 0 0 0
0.074951172 0.047241211 -0.38549805 0 0 0 0
0.12316895 0.043914795 -0.35839844 0 0 0 0
0.12536621 0.043914795 -0.35839844 0 0 0 0
0.12719727 0.043792725 -0.35717773 0 0 0 0
0.12939453 0.043792725 -0.35717773 0 0 0 0
0.13171387 0.043792725 -0.35717773 0 0 0 0
0.13391113 0.043792725 -0.35717773 0 0 0 0
0.1361084 0.043792725 -0.35717773 0 0 0 0
0.13830566 0.043792725 -0.35717773 0 0 0 0
0.14050293 0.043792725 -0.35717773 0 0 0 0
0.14233398 0.043670654 -0.35620117 0 0 0 0
0.14453125 0.043670654 -0.35620117 0 0 0 0
0.14672852 0.043670654 -0.35620117 0 0 0 0
0.14904785 0.043670654 -0.35620117 0 0 0 0
0.15124512 0.043670654 -0.35620117 0 0 0 0
0.15344238 0.043670654 -0.35620117 0 0 0 0
0.15563965 0.043670654 -0.35620117 0 0 0 0
0.15783691 0.043670654 -0.35620117 0 0 0 0
0.16003418 0.043670654 -0.35620117 0 0 0 0
0.16223145 0.043670654 -0.35620117 0 0 0 0
0.16455078 0.043670654 -0.35620117 0 0 0 0
0.16674805 0.043670654 -0.35620117 0 0 0 0
0.16894531 0.043670654 -0.35620117 0 0 0 0
0.17114258 0.043670654 -0.35620117 0 0 0 0
0.17333984 0.043670654 -0.35620117 0 0 0 0
0.17553711 0.043670654 -0.35620117 0 0 0 0
0.17724609 0.043548584 -0.35522461 0 0 0 0
0.17944336 0.043548584 -0.35522461 0 0 0 0
0.1817627 0.043548584 -0.35522461 0 0 0 0
0.18395996 0.043548584 -0.35522461 0 0 0 0
0.18615723 0.043548584 -0.35522461 0 0 0 0
0.18835449 0.043548584 -0.35522461 0 0 0 0
0.18994141 0.043426514 -0.35424805 0 0 0 0
0.19226074 0.043426514 -0.35424805 0 0 0 0
0.19445801 0.043426514 -0.35424805 0 0 0 0
0.19665527 0.043426514 -0.35424805 0 0 0 0
0.19885254 0.043426514 -0.35424805 0 0 0 0
0.2010498 0.043426514 -0.35424805 0 0 0 0
0.20324707 0.043426514 -0.35424805 0 0 0 0
0.20544434 0.043426514 -0.35424805 0 0 0 0
0.2076416 0.043426514 -0.35424805 0 0 0 0
0.20983887 0.043426514 -0.35424805 0 0 0 0
0.21203613 0.043426514 -0.35424805 0 0 0 0
0.2142334 0.043426514 -0.35424805 0 0 0 0
0.21643066 0.043426514 -0.35424805 0 0 0 0
0.21862793 0.043426514 -0.35424805 0 0 0 0
0.030487061 0.046356201 -0.3984375 0 0 0 0
0.032714844 0.046020508 -0.39550781 0 0 0 0
0.034881592 0.045654297 -0.39233398 0 0 0 0
0.037139893 0.045440674 -0.39038086 0 0 0 0
0.039367676 0.045196533 -0.38842773 0 0 0 0
0.041564941 0.044952393 -0.38647461 0 0 0 0
0.04385376 0.04486084 -0.38549805 0 0 0 0
0.04598999 0.044616699 -0.38330078 0 0 0 0
0.048248291 0.044494629 -0.38232422 0 0 0 0
0.050628662 0.044494629 -0.38232422 0 0 0 0
0.052886963 0.044372559 -0.38134766 0 0 0 0
0.055236816 0.044372559 -0.38134766 0 0 0 0
0.057617188 0.044372559 -0.38134766 0 0 0 0
0.059997559 0.044372559 -0.38134766 0 0 0 0
0.0625 0.044494629 -0.38232422 0 0 0 0
0.065063477 0.044616699 -0.38330078 0 0 0 0
0.067443848 0.044616699 -0.38330078 0 0 0 0
0.070007324 0.04473877 -0.38427734 0 0 0 0
0.072570801 0.04486084 -0.38549805 0 0 0 0
0.074951172 0.04486084 -0.38549805 0 0 0 0
0.12316895 0.041687012 -0.35839844 0 0 0 0
0.12536621 0.041687012 -0.35839844 0 0 0 0
0.12719727 0.041564941 -0.35717773 0 0 0 0
0.12939453 0.041564941 -0.35717773 0 0 0 0
0.13171387 0.041564941 -0.35717773 0 0 0 0
0.13391113 0.041564941 -0.35717773 0 0 0 0
0.1361084 0.041564941 -0.35717773 0 0 0 0
0.13830566 0.041564941 -0.35717773 0 0 0 0
0.14013672 0.041473389 -0.35620117 0 0 0 0
0.14233398 0.041473389 -0.35620117 0 0 0 0
0.14453125 0.041473389 -0.35620117 0 0 0 0
0.14672852 0.041473389 -0.35620117 0 0 0 0
0.14904785 0.041473389 -0.35620117 0 0 0 0
0.15124512 0.041473389 -0.35620117 0 0 0 0
0.15344238 0.041473389 -0.35620117 0 0 0 0
0.15563965 0.041473389 -0.35620117 0 0 0 0
0.15783691 0.041473389 -0.35620117 0 0 0 0
0.16003418 0.041473389 -0.35620117 0 0 0 0
0.16223145 0.041473389 -0.35620117 0 0 0 0
0.16455078 0.041473389 -0.35620117 0 0 0 0
0.16674805 0.041473389 -0.35620117 0 0 0 0
0.16894531 0.041473389 -0.35620117 0 0 0 0
0.17114258 0.041473389 -0.35620117 0 0 0 0
0.17333984 0.041473389 -0.35620117 0 0 0 0
0.17553711 0.041473389 -0.35620117 0 0 0 0
0.17724609 0.041351318 -0.35522461 0 0 0 0
0.17944336 0.041351318 -0.35522461 0 0 0 0
0.1817627 0.041351318 -0.35522461 0 0 0 0
0.18395996 0.041351318 -0.35522461 0 0 0 0
0.18615723 0.041351318 -0.35522461 0 0 0 0
0.18774414 0.041229248 -0.35424805 0 0 0 0
0.18994141 0.041229248 -0.35424805 0 0 0 0
0.19226074 0.041229248 -0.35424805 0 0 0 0
0.19445801 0.041229248 -0.35424805 0 0 0 0
0.19665527 0.041229248 -0.35424805 0 0 0 0
0.19885254 0.041229248 -0.35424805 0 0 0 0
0.2010498 0.041229248 -0.35424805 0 0 0 0
0.20324707 0.041229248 -0.35424805 0 0 0 0
0.20544434 0.041229248 -0.35424805 0 0 0 0
0.2076416 0.041229248 -0.35424805 0 0 0 0
0.20983887 0.041229248 -0.35424805 0 0 0 0
0.21203613 0.041229248 -0.35424805 0 0 0 0
0.2142334 0.041229248 -0.35424805 0 0 0 0
0.21643066 0.041229248 -0.35424805 0 0 0 0
0.21862793 0.041229248 -0.35424805 0 0 0 0
0.028152466 0.044128418 -0.40039062 0 0 0 0
0.030410767 0.043792725 -0.39746094 0 0 0 0
0.032714844 0.043548584 -0.39550781 0 0 0 0
0.034881592 0.043243408 -0.39233398 0 0 0 0
0.037139893 0.042999268 -0.39038086 0 0 0 0
0.039367676 0.042785645 -0.38842773 0 0 0 0
0.041656494 0.042663574 -0.38745117 0 0 0 0
0.04385376 0.042449951 -0.38549805 0 0 0 0
0.046112061 0.042358398 -0.38427734 0 0 0 0
0.048370361 0.042236328 -0.38330078 0 0 0 0
0.050628662 0.042114258 -0.38232422 0 0 0 0
0.053009033 0.042114258 -0.38232422 0 0 0 0
0.055236816 0.042022705 -0.38134766 0 0 0 0
0.057617188 0.042022705 -0.38134766 0 0 0 0
0.059997559 0.042022705 -0.38134766 0 0 0 0
0.0625 0.042114258 -0.38232422 0 0 0 0
0.065063477 0.042236328 -0.38330078 0 0 0 0
0.067443848 0.042236328 -0.38330078 0 0 0 0
0.070007324 0.042358398 -0.38427734 0 0 0 0
0.072570801 0.042449951 -0.38549805 0 0 0 0
0.075195312 0.042572021 -0.38647461 0 0 0 0
0.12316895 0.039459229 -0.35839844 0 0 0 0
0.12536621 0.039459229 -0.35839844 0 0 0 0
0.12719727 0.039367676 -0.35717773 0 0 0 0
0.12939453 0.039367676 -0.35717773 0 0 0 0
0.13171387 0.039367676 -0.35717773 0 0 0 0
0.13391113 0.039367676 -0.35717773 0 0 0 0
0.1361084 0.039367676 -0.35717773 0 0 0 0
0.13830566 0.039367676 -0.35717773 0 0 0 0
0.14013672 0.039245605 -0.35620117 0 0 0 0
0.14233398 0.039245605 -0.35620117 0 0 0 0
0.14453125 0.039245605 -0.35620117 0 0 0 0
0.14672852 0.039245605 -0.35620117 0 0 0 0
0.14904785 0.039245605 -0.35620117 0 0 0 0
0.15124512 0.039245605 -0.35620117 0 0 0 0
0.15344238 0.039245605 -0.35620117 0 0 0 0
0.15563965 0.039245605 -0.35620117 0 0 0 0
0.15783691 0.039245605 -0.35620117 0 0 0 0
0.16003418 0.039245605 -0.35620117 0 0 0 0
0.16223145 0.039245605 -0.35620117 0 0 0 0
0.16455078 0.039245605 -0.35620117 0 0 0 0
0.16674805 0.039245605 -0.35620117 0 0 0 0
0.16894531 0.039245605 -0.35620117 0 0 0 0
0.17114258 0.039245605 -0.35620117 0 0 0 0
0.17333984 0.039245605 -0.35620117 0 0 0 0
0.17504883 0.039123535 -0.35522461 0 0 0 0
0.17724609 0.039123535 -0.35522461 0 0 0 0
0.17944336 0.039123535 -0.35522461 0 0 0 0
0.1817627 0.039123535 -0.35522461 0 0 0 0
0.18395996 0.039123535 -0.35522461 0 0 0 0
0.18554688 0.039031982 -0.35424805 0 0 0 0
0.18774414 0.039031982 -0.35424805 0 0 0 0
0.18994141 0.039031982 -0.35424805 0 0 0 0
0.19226074 0.039031982 -0.35424805 0 0 0 0
0.19445801 0.039031982 -0.35424805 0 0 0 0
0.19665527 0.039031982 -0.35424805 0 0 0 0
0.19885254 0.039031982 -0.35424805 0 0 0 0
0.2010498 0.039031982 -0.35424805 0 0 0 0
0.20324707 0.039031982 -0.35424805 0 0 0 0
