ply
format ascii 1.0
comment PCL generated
element vertex 1055
property float x
property float y
property float z
property float nx
property float ny
property float nz
property float curvature
element face 0
element camera 0
property float view_px
property float view_py
property float view_pz
property float x_axisx
property float x_axisy
property float x_axisz
property float y_axisx
property float y_axisy
property float y_axisz
property float z_axisx
property float z_axisy
property float z_axisz
property float focal
property float scalex
property float scaley
property float centerx
property float centery
property int viewportx
property int viewporty
property float k1
property float k2
end_header
-0.0037269592 0.030303955 -0.35522461 0 0 0 0
-0.0015201569 0.030303955 -0.35522461 0 0 0 0
0.00068569183 0.030227661 -0.35424805 0 0 0 0
0.0028877258 0.030227661 -0.35424805 0 0 0 0
0.0050888062 0.030227661 -0.35424805 0 0 0 0
0.0072898865 0.030227661 -0.35424805 0 0 0 0
0.0094909668 0.030227661 -0.35424805 0 0 0 0
0.011695862 0.030227661 -0.35424805 0 0 0 0
0.013931274 0.030303955 -0.35522461 0 0 0 0
0.016143799 0.030303955 -0.35522461 0 0 0 0
0.0184021 0.030395508 -0.35620117 0 0 0 0
0.020675659 0.030487061 -0.35717773 0 0 0 0
0.022888184 0.030487061 -0.35717773 0 0 0 0
0.025177002 0.030563354 -0.35839844 0 0 0 0
0.027404785 0.030563354 -0.35839844 0 0 0 0
0.029632568 0.030563354 -0.35839844 0 0 0 0
0.031951904 0.030654907 -0.359375 0 0 0 0
0.034179688 0.030654907 -0.359375 0 0 0 0
0.041229248 0.032714844 -0.38330078 0 0 0 0
0.043518066 0.032623291 -0.38232422 0 0 0 0
0.045776367 0.032531738 -0.38134766 0 0 0 0
0.04800415 0.032440186 -0.38037109 0 0 0 0
0.050231934 0.032348633 -0.37939453 0 0 0 0
0.052459717 0.032287598 -0.37841797 0 0 0 0
0.05480957 0.032287598 -0.37841797 0 0 0 0
0.057006836 0.032196045 -0.37744141 0 0 0 0
0.059356689 0.032196045 -0.37744141 0 0 0 0
0.061706543 0.032196045 -0.37744141 0 0 0 0
0.064025879 0.032196045 -0.37744141 0 0 0 0
0.066345215 0.032196045 -0.37744141 0 0 0 0
-0.019454956 0.028503418 -0.36035156 0 0 0 0
-0.017211914 0.028503418 -0.36035156 0 0 0 0
-0.014976501 0.028503418 -0.36035156 0 0 0 0
-0.012702942 0.028427124 -0.359375 0 0 0 0
-0.010437012 0.028335571 -0.35839844 0 0 0 0
-0.0081863403 0.028259277 -0.35717773 0 0 0 0
-0.0059509277 0.028182983 -0.35620117 0 0 0 0
-0.0037384033 0.028182983 -0.35620117 0 0 0 0
-0.0015201569 0.028106689 -0.35522461 0 0 0 0
0.00068759918 0.028106689 -0.35522461 0 0 0 0
0.0028877258 0.028030396 -0.35424805 0 0 0 0
0.0050888062 0.028030396 -0.35424805 0 0 0 0
0.0072898865 0.028030396 -0.35424805 0 0 0 0
0.0094909668 0.028030396 -0.35424805 0 0 0 0
0.011695862 0.028030396 -0.35424805 0 0 0 0
0.013893127 0.028030396 -0.35424805 0 0 0 0
0.016143799 0.028106689 -0.35522461 0 0 0 0
0.018341064 0.028106689 -0.35522461 0 0 0 0
0.020614624 0.028182983 -0.35620117 0 0 0 0
0.022827148 0.028182983 -0.35620117 0 0 0 0
0.025115967 0.028259277 -0.35717773 0 0 0 0
0.027328491 0.028259277 -0.35717773 0 0 0 0
0.029556274 0.028259277 -0.35717773 0 0 0 0
0.031860352 0.028335571 -0.35839844 0 0 0 0
0.034179688 0.028427124 -0.359375 0 0 0 0
0.043609619 0.030319214 -0.38330078 0 0 0 0
0.04586792 0.03024292 -0.38232422 0 0 0 0
0.048126221 0.030166626 -0.38134766 0 0 0 0
0.050384521 0.030090332 -0.38037109 0 0 0 0
0.052581787 0.030014038 -0.37939453 0 0 0 0
0.054962158 0.030014038 -0.37939453 0 0 0 0
0.057312012 0.030014038 -0.37939453 0 0 0 0
0.059661865 0.030014038 -0.37939453 0 0 0 0
0.061859131 0.029922485 -0.37841797 0 0 0 0
0.064208984 0.029922485 -0.37841797 0 0 0 0
0.06652832 0.029922485 -0.37841797 0 0 0 0
-0.019500732 0.02633667 -0.36132812 0 0 0 0
-0.017211914 0.026260376 -0.36035156 0 0 0 0
-0.014976501 0.026260376 -0.36035156 0 0 0 0
-0.012702942 0.026184082 -0.359375 0 0 0 0
-0.010467529 0.026184082 -0.359375 0 0 0 0
-0.0082092285 0.026107788 -0.35839844 0 0 0 0
-0.0059700012 0.026046753 -0.35717773 0 0 0 0
-0.0037384033 0.025970459 -0.35620117 0 0 0 0
-0.0015201569 0.025894165 -0.35522461 0 0 0 0
0.00068759918 0.025894165 -0.35522461 0 0 0 0
0.0028877258 0.025817871 -0.35424805 0 0 0 0
0.0050888062 0.025817871 -0.35424805 0 0 0 0
0.0072898865 0.025817871 -0.35424805 0 0 0 0
0.0094909668 0.025817871 -0.35424805 0 0 0 0
0.011695862 0.025817871 -0.35424805 0 0 0 0
0.013893127 0.025817871 -0.35424805 0 0 0 0
0.016098022 0.025817871 -0.35424805 0 0 0 0
0.018341064 0.025894165 -0.35522461 0 0 0 0
0.020553589 0.025894165 -0.35522461 0 0 0 0
0.022766113 0.025894165 -0.35522461 0 0 0 0
0.025039673 0.025970459 -0.35620117 0 0 0 0
0.027252197 0.025970459 -0.35620117 0 0 0 0
0.029464722 0.025970459 -0.35620117 0 0 0 0
0.031768799 0.026046753 -0.35717773 0 0 0 0
0.034088135 0.026107788 -0.35839844 0 0 0 0
0.048126221 0.027801514 -0.38134766 0 0 0 0
0.050506592 0.027801514 -0.38134766 0 0 0 0
0.052734375 0.02772522 -0.38037109 0 0 0 0
0.055236816 0.027801514 -0.38134766 0 0 0 0
0.057617188 0.027801514 -0.38134766 0 0 0 0
0.059814453 0.02772522 -0.38037109 0 0 0 0
0.062194824 0.02772522 -0.38037109 0 0 0 0
0.06451416 0.02772522 -0.38037109 0 0 0 0
0.066894531 0.02772522 -0.38037109 0 0 0 0
-0.01725769 0.024093628 -0.36132812 0 0 0 0
-0.014976501 0.024017334 -0.36035156 0 0 0 0
-0.012733459 0.024017334 -0.36035156 0 0 0 0
-0.010467529 0.023956299 -0.359375 0 0 0 0
-0.0082092285 0.023880005 -0.35839844 0 0 0 0
-0.00598526 0.023880005 -0.35839844 0 0 0 0
-0.0037498474 0.02381897 -0.35717773 0 0 0 0
-0.0015239716 0.023757935 -0.35620117 0 0 0 0
0.00068759918 0.023681641 -0.35522461 0 0 0 0
0.0028953552 0.023681641 -0.35522461 0 0 0 0
0.0050888062 0.023620605 -0.35424805 0 0 0 0
0.0072898865 0.023620605 -0.35424805 0 0 0 0
0.0094909668 0.023620605 -0.35424805 0 0 0 0
0.011695862 0.023620605 -0.35424805 0 0 0 0
0.013893127 0.023620605 -0.35424805 0 0 0 0
0.016098022 0.023620605 -0.35424805 0 0 0 0
0.018295288 0.023620605 -0.35424805 0 0 0 0
0.020553589 0.023681641 -0.35522461 0 0 0 0
0.022766113 0.023681641 -0.35522461 0 0 0 0
0.024963379 0.023681641 -0.35522461 0 0 0 0
0.027175903 0.023681641 -0.35522461 0 0 0 0
0.029464722 0.023757935 -0.35620117 0 0 0 0
0.031768799 0.02381897 -0.35717773 0 0 0 0
0.052764893 0.026565552 -0.3984375 0 0 0 0
0.053833008 0.025894165 -0.38842773 0 0 0 0
0.055541992 0.025558472 -0.38330078 0 0 0 0
0.057769775 0.025497437 -0.38232422 0 0 0 0
0.060150146 0.025497437 -0.38232422 0 0 0 0
0.062347412 0.025421143 -0.38134766 0 0 0 0
0.064697266 0.025421143 -0.38134766 0 0 0 0
0.067077637 0.025421143 -0.38134766 0 0 0 0
0.069641113 0.025497437 -0.38232422 0 0 0 0
-0.014976501 0.021774292 -0.36035156 0 0 0 0
-0.012733459 0.021774292 -0.36035156 0 0 0 0
-0.010498047 0.021774292 -0.36035156 0 0 0 0
-0.0082321167 0.021713257 -0.359375 0 0 0 0
-0.00598526 0.02166748 -0.35839844 0 0 0 0
-0.0037498474 0.021606445 -0.35717773 0 0 0 0
-0.0015287399 0.021606445 -0.35717773 0 0 0 0
0.00068950653 0.02154541 -0.35620117 0 0 0 0
0.0028953552 0.021484375 -0.35522461 0 0 0 0
0.0051040649 0.021484375 -0.35522461 0 0 0 0
0.0072898865 0.02142334 -0.35424805 0 0 0 0
0.0094909668 0.02142334 -0.35424805 0 0 0 0
0.011695862 0.02142334 -0.35424805 0 0 0 0
0.013893127 0.02142334 -0.35424805 0 0 0 0
0.016098022 0.02142334 -0.35424805 0 0 0 0
0.018295288 0.02142334 -0.35424805 0 0 0 0
0.020492554 0.02142334 -0.35424805 0 0 0 0
0.022705078 0.02142334 -0.35424805 0 0 0 0
0.024963379 0.021484375 -0.35522461 0 0 0 0
0.027175903 0.021484375 -0.35522461 0 0 0 0
0.029388428 0.021484375 -0.35522461 0 0 0 0
0.052886963 0.024154663 -0.39941406 0 0 0 0
0.054534912 0.023788452 -0.39331055 0 0 0 0
0.055969238 0.023361206 -0.38647461 0 0 0 0
0.058074951 0.023239136 -0.38427734 0 0 0 0
0.060302734 0.023178101 -0.38330078 0 0 0 0
0.0625 0.023117065 -0.38232422 0 0 0 0
0.064880371 0.023117065 -0.38232422 0 0 0 0
0.067260742 0.023117065 -0.38232422 0 0 0 0
0.069641113 0.023117065 -0.38232422 0 0 0 0
0.07220459 0.023178101 -0.38330078 0 0 0 0
0.074584961 0.023178101 -0.38330078 0 0 0 0
-0.012733459 0.019546509 -0.36035156 0 0 0 0
-0.010498047 0.019546509 -0.36035156 0 0 0 0
-0.0082321167 0.019485474 -0.359375 0 0 0 0
-0.0060005188 0.019485474 -0.359375 0 0 0 0
-0.0037593842 0.019439697 -0.35839844 0 0 0 0
-0.0015287399 0.019378662 -0.35717773 0 0 0 0
0.00069141388 0.019378662 -0.35717773 0 0 0 0
0.0029029846 0.019317627 -0.35620117 0 0 0 0
0.0051040649 0.019271851 -0.35522461 0 0 0 0
0.00730896 0.019271851 -0.35522461 0 0 0 0
0.0094909668 0.019210815 -0.35424805 0 0 0 0
0.011695862 0.019210815 -0.35424805 0 0 0 0
0.013893127 0.019210815 -0.35424805 0 0 0 0
0.016098022 0.019210815 -0.35424805 0 0 0 0
0.018295288 0.019210815 -0.35424805 0 0 0 0
0.020492554 0.019210815 -0.35424805 0 0 0 0
0.022705078 0.019210815 -0.35424805 0 0 0 0
0.024902344 0.019210815 -0.35424805 0 0 0 0
0.027175903 0.019271851 -0.35522461 0 0 0 0
0.029388428 0.019271851 -0.35522461 0 0 0 0
0.052642822 0.021560669 -0.39746094 0 0 0 0
0.054412842 0.021286011 -0.39233398 0 0 0 0
0.056121826 0.021011353 -0.38745117 0 0 0 0
0.058227539 0.020904541 -0.38549805 0 0 0 0
0.060455322 0.020843506 -0.38427734 0 0 0 0
0.062683105 0.020797729 -0.38330078 0 0 0 0
0.064880371 0.020736694 -0.38232422 0 0 0 0
0.067260742 0.020736694 -0.38232422 0 0 0 0
0.069641113 0.020736694 -0.38232422 0 0 0 0
0.072021484 0.020736694 -0.38232422 0 0 0 0
0.074584961 0.020797729 -0.38330078 0 0 0 0
0.077392578 0.020904541 -0.38549805 0 0 0 0
0.080200195 0.021011353 -0.38745117 0 0 0 0
0.083679199 0.021286011 -0.39233398 0 0 0 0
0.086730957 0.021453857 -0.39550781 0 0 0 0
0.090148926 0.02166748 -0.39941406 0 0 0 0
-0.010498047 0.017303467 -0.36035156 0 0 0 0
-0.0082550049 0.017303467 -0.36035156 0 0 0 0
-0.0060005188 0.01725769 -0.359375 0 0 0 0
-0.0037708282 0.01725769 -0.359375 0 0 0 0
-0.0015325546 0.017211914 -0.35839844 0 0 0 0
0.00069141388 0.017150879 -0.35717773 0 0 0 0
0.002910614 0.017150879 -0.35717773 0 0 0 0
0.005115509 0.017105103 -0.35620117 0 0 0 0
0.00730896 0.017059326 -0.35522461 0 0 0 0
0.009513855 0.017059326 -0.35522461 0 0 0 0
0.011726379 0.017059326 -0.35522461 0 0 0 0
0.013893127 0.01701355 -0.35424805 0 0 0 0
0.016098022 0.01701355 -0.35424805 0 0 0 0
0.018295288 0.01701355 -0.35424805 0 0 0 0
0.020492554 0.01701355 -0.35424805 0 0 0 0
0.022705078 0.01701355 -0.35424805 0 0 0 0
0.024902344 0.01701355 -0.35424805 0 0 0 0
0.027099609 0.01701355 -0.35424805 0 0 0 0
0.050292969 0.019134521 -0.3984375 0 0 0 0
0.052368164 0.018997192 -0.39550781 0 0 0 0
0.054260254 0.018798828 -0.39135742 0 0 0 0
0.056121826 0.018600464 -0.38745117 0 0 0 0
0.058227539 0.018508911 -0.38549805 0 0 0 0
0.060455322 0.018463135 -0.38427734 0 0 0 0
0.062683105 0.018417358 -0.38330078 0 0 0 0
0.064880371 0.018356323 -0.38232422 0 0 0 0
0.067077637 0.018310547 -0.38134766 0 0 0 0
0.069641113 0.018356323 -0.38232422 0 0 0 0
0.072021484 0.018356323 -0.38232422 0 0 0 0
0.074584961 0.018417358 -0.38330078 0 0 0 0
0.077392578 0.018508911 -0.38549805 0 0 0 0
0.080200195 0.018600464 -0.38745117 0 0 0 0
0.083251953 0.018753052 -0.39038086 0 0 0 0
0.086303711 0.018890381 -0.39331055 0 0 0 0
0.089233398 0.018997192 -0.39550781 0 0 0 0
0.092163086 0.019088745 -0.39746094 0 0 0 0
-0.010528564 0.015106201 -0.36132812 0 0 0 0
-0.0082550049 0.015068054 -0.36035156 0 0 0 0
-0.0060195923 0.015068054 -0.36035156 0 0 0 0
-0.0037708282 0.015022278 -0.359375 0 0 0 0
-0.001537323 0.015022278 -0.359375 0 0 0 0
0.00069332123 0.014984131 -0.35839844 0 0 0 0
0.0029201508 0.014984131 -0.35839844 0 0 0 0
0.0051307678 0.014938354 -0.35717773 0 0 0 0
0.0073318481 0.014900208 -0.35620117 0 0 0 0
0.0095443726 0.014900208 -0.35620117 0 0 0 0
0.011726379 0.014854431 -0.35522461 0 0 0 0
0.013931274 0.014854431 -0.35522461 0 0 0 0
0.016098022 0.014816284 -0.35424805 0 0 0 0
0.018295288 0.014816284 -0.35424805 0 0 0 0
0.020492554 0.014816284 -0.35424805 0 0 0 0
0.022705078 0.014816284 -0.35424805 0 0 0 0
0.024902344 0.014816284 -0.35424805 0 0 0 0
0.047821045 0.016662598 -0.3984375 0 0 0 0
0.050018311 0.016571045 -0.39648438 0 0 0 0
0.052093506 0.016448975 -0.39331055 0 0 0 0
0.054138184 0.016326904 -0.39038086 0 0 0 0
0.056121826 0.016189575 -0.38745117 0 0 0 0
0.058227539 0.016113281 -0.38549805 0 0 0 0
0.060302734 0.016021729 -0.38330078 0 0 0 0
0.0625 0.015991211 -0.38232422 0 0 0 0
0.064697266 0.015945435 -0.38134766 0 0 0 0
0.067077637 0.015945435 -0.38134766 0 0 0 0
0.069458008 0.015945435 -0.38134766 0 0 0 0
0.071838379 0.015945435 -0.38134766 0 0 0 0
0.074401855 0.015991211 -0.38232422 0 0 0 0
0.077148438 0.016067505 -0.38427734 0 0 0 0
0.079956055 0.016159058 -0.38647461 0 0 0 0
0.082824707 0.016235352 -0.38842773 0 0 0 0
0.085632324 0.016326904 -0.39038086 0 0 0 0
0.088562012 0.016403198 -0.39233398 0 0 0 0
0.091430664 0.016494751 -0.39453125 0 0 0 0
0.094360352 0.016571045 -0.39648438 0 0 0 0
-0.0082778931 0.012863159 -0.36132812 0 0 0 0
-0.0060195923 0.012825012 -0.36035156 0 0 0 0
-0.003780365 0.012825012 -0.36035156 0 0 0 0
-0.0015411377 0.012825012 -0.36035156 0 0 0 0
0.00069522858 0.012794495 -0.359375 0 0 0 0
0.0029201508 0.012756348 -0.35839844 0 0 0 0
0.0051460266 0.012756348 -0.35839844 0 0 0 0
0.0073509216 0.012718201 -0.35717773 0 0 0 0
0.0095443726 0.012687683 -0.35620117 0 0 0 0
0.011756897 0.012687683 -0.35620117 0 0 0 0
0.013931274 0.012649536 -0.35522461 0 0 0 0
0.016143799 0.012649536 -0.35522461 0 0 0 0
0.018295288 0.012611389 -0.35424805 0 0 0 0
0.020492554 0.012611389 -0.35424805 0 0 0 0
0.022705078 0.012611389 -0.35424805 0 0 0 0
0.045440674 0.014221191 -0.39941406 0 0 0 0
0.047698975 0.014152527 -0.39746094 0 0 0 0
0.04977417 0.014045715 -0.39453125 0 0 0 0
0.051971436 0.013969421 -0.39233398 0 0 0 0
0.053985596 0.01386261 -0.3894043 0 0 0 0
0.055969238 0.013755798 -0.38647461 0 0 0 0
0.058074951 0.013687134 -0.38427734 0 0 0 0
0.060302734 0.013648987 -0.38330078 0 0 0 0
0.0625 0.01361084 -0.38232422 0 0 0 0
0.064697266 0.013580322 -0.38134766 0 0 0 0
0.066894531 0.013542175 -0.38037109 0 0 0 0
0.069274902 0.013542175 -0.38037109 0 0 0 0
0.071838379 0.013580322 -0.38134766 0 0 0 0
0.074401855 0.01361084 -0.38232422 0 0 0 0
0.076965332 0.013648987 -0.38330078 0 0 0 0
0.079772949 0.013717651 -0.38549805 0 0 0 0
0.082580566 0.013793945 -0.38745117 0 0 0 0
0.085205078 0.013824463 -0.38842773 0 0 0 0
0.08807373 0.013900757 -0.39038086 0 0 0 0
0.091003418 0.013969421 -0.39233398 0 0 0 0
0.09362793 0.014007568 -0.39331055 0 0 0 0
-0.0060195923 0.0105896 -0.36035156 0 0 0 0
-0.003780365 0.0105896 -0.36035156 0 0 0 0
-0.0015411377 0.0105896 -0.36035156 0 0 0 0
0.00069713593 0.0105896 -0.36035156 0 0 0 0
0.0029277802 0.010559082 -0.359375 0 0 0 0
0.0051612854 0.010559082 -0.359375 0 0 0 0
0.0073738098 0.010528564 -0.35839844 0 0 0 0
0.0095672607 0.010498047 -0.35717773 0 0 0 0
0.011756897 0.010467529 -0.35620117 0 0 0 0
0.013969421 0.010467529 -0.35620117 0 0 0 0
0.016143799 0.010437012 -0.35522461 0 0 0 0
0.018295288 0.010414124 -0.35424805 0 0 0 0
0.020492554 0.010414124 -0.35424805 0 0 0 0
0.045318604 0.011711121 -0.3984375 0 0 0 0
0.047454834 0.011619568 -0.39550781 0 0 0 0
0.0496521 0.011558533 -0.39331055 0 0 0 0
0.051818848 0.011505127 -0.39135742 0 0 0 0
0.053833008 0.011413574 -0.38842773 0 0 0 0
0.055969238 0.011352539 -0.38647461 0 0 0 0
0.058074951 0.011299133 -0.38427734 0 0 0 0
0.060150146 0.011238098 -0.38232422 0 0 0 0
0.062347412 0.011207581 -0.38134766 0 0 0 0
0.06451416 0.011177063 -0.38037109 0 0 0 0
0.066894531 0.011177063 -0.38037109 0 0 0 0
0.069274902 0.011177063 -0.38037109 0 0 0 0
0.071655273 0.011177063 -0.38037109 0 0 0 0
0.07421875 0.011207581 -0.38134766 0 0 0 0
0.076782227 0.011238098 -0.38232422 0 0 0 0
0.079528809 0.011299133 -0.38427734 0 0 0 0
0.08215332 0.011322021 -0.38549805 0 0 0 0
0.085021973 0.011383057 -0.38745117 0 0 0 0
0.087646484 0.011413574 -0.38842773 0 0 0 0
0.090026855 0.011413574 -0.38842773 0 0 0 0
0.092712402 0.011444092 -0.3894043 0 0 0 0
0.09387207 0.011299133 -0.38427734 0 0 0 0
-0.0037918091 0.0083694458 -0.36132812 0 0 0 0
-0.0015459061 0.0083694458 -0.36132812 0 0 0 0
0.00069904327 0.0083694458 -0.36132812 0 0 0 0
0.0029354095 0.0083465576 -0.36035156 0 0 0 0
0.0051612854 0.0083236694 -0.359375 0 0 0 0
0.0073928833 0.0083236694 -0.359375 0 0 0 0
0.0095977783 0.0083007812 -0.35839844 0 0 0 0
0.011795044 0.0082778931 -0.35717773 0 0 0 0
0.013969421 0.0082550049 -0.35620117 0 0 0 0
0.016189575 0.0082550049 -0.35620117 0 0 0 0
0.018341064 0.0082321167 -0.35522461 0 0 0 0
0.04510498 0.009185791 -0.39648438 0 0 0 0
0.047332764 0.0091400146 -0.39453125 0 0 0 0
0.049530029 0.0090942383 -0.39233398 0 0 0 0
0.051696777 0.0090484619 -0.39038086 0 0 0 0
0.053833008 0.0090026855 -0.38842773 0 0 0 0
0.05581665 0.0089263916 -0.38549805 0 0 0 0
0.058074951 0.0089035034 -0.38427734 0 0 0 0
0.060150146 0.0088577271 -0.38232422 0 0 0 0
0.062347412 0.0088348389 -0.38134766 0 0 0 0
0.06451416 0.0088119507 -0.38037109 0 0 0 0
0.066711426 0.0087890625 -0.37939453 0 0 0 0
0.069091797 0.0087890625 -0.37939453 0 0 0 0
0.071655273 0.0088119507 -0.38037109 0 0 0 0
0.073974609 0.0088119507 -0.38037109 0 0 0 0
0.076782227 0.0088577271 -0.38232422 0 0 0 0
0.079345703 0.0088806152 -0.38330078 0 0 0 0
0.081970215 0.0089035034 -0.38427734 0 0 0 0
0.084533691 0.0089263916 -0.38549805 0 0 0 0
0.087158203 0.0089569092 -0.38647461 0 0 0 0
0.089599609 0.0089569092 -0.38647461 0 0 0 0
0.09197998 0.0089569092 -0.38647461 0 0 0 0
0.09362793 0.0088806152 -0.38330078 0 0 0 0
0.09552002 0.0088348389 -0.38134766 0 0 0 0
0.09765625 0.0088119507 -0.38037109 0 0 0 0
-0.0015459061 0.0061264038 -0.36132812 0 0 0 0
0.00069904327 0.0061264038 -0.36132812 0 0 0 0
0.0029354095 0.006111145 -0.36035156 0 0 0 0
0.0051727295 0.006111145 -0.36035156 0 0 0 0
0.0073928833 0.0060920715 -0.359375 0 0 0 0
0.0095977783 0.0060768127 -0.35839844 0 0 0 0
0.011825562 0.0060768127 -0.35839844 0 0 0 0
0.014015198 0.006061554 -0.35717773 0 0 0 0
0.016189575 0.0060424805 -0.35620117 0 0 0 0
0.042755127 0.0067405701 -0.39746094 0 0 0 0
0.04498291 0.0067062378 -0.39550781 0 0 0 0
0.047210693 0.0066719055 -0.39331055 0 0 0 0
0.049407959 0.0066375732 -0.39135742 0 0 0 0
0.051574707 0.006603241 -0.3894043 0 0 0 0
0.053710938 0.0065689087 -0.38745117 0 0 0 0
0.05581665 0.0065383911 -0.38549805 0 0 0 0
0.057922363 0.0065040588 -0.38330078 0 0 0 0
0.060150146 0.0064849854 -0.38232422 0 0 0 0
0.062347412 0.0064697266 -0.38134766 0 0 0 0
0.06451416 0.0064506531 -0.38037109 0 0 0 0
0.066711426 0.0064353943 -0.37939453 0 0 0 0
0.069091797 0.0064353943 -0.37939453 0 0 0 0
0.071472168 0.0064353943 -0.37939453 0 0 0 0
0.073974609 0.0064506531 -0.38037109 0 0 0 0
0.076538086 0.0064697266 -0.38134766 0 0 0 0
0.079162598 0.0064849854 -0.38232422 0 0 0 0
0.081726074 0.0065040588 -0.38330078 0 0 0 0
0.084350586 0.0065193176 -0.38427734 0 0 0 0
0.086975098 0.0065383911 -0.38549805 0 0 0 0
0.089355469 0.0065383911 -0.38549805 0 0 0 0
0.091491699 0.0065193176 -0.38427734 0 0 0 0
0.093383789 0.0064849854 -0.38232422 0 0 0 0
0.09552002 0.0064697266 -0.38134766 0 0 0 0
0.09765625 0.0064506531 -0.38037109 0 0 0 0
0.099731445 0.0064353943 -0.37939453 0 0 0 0
0.00069904327 0.0038833618 -0.36132812 0 0 0 0
0.0029449463 0.0038833618 -0.36132812 0 0 0 0
0.0051727295 0.0038719177 -0.36035156 0 0 0 0
0.0074119568 0.0038719177 -0.36035156 0 0 0 0
0.0096282959 0.003862381 -0.359375 0 0 0 0
0.011825562 0.0038509369 -0.35839844 0 0 0 0
0.040374756 0.0042800903 -0.3984375 0 0 0 0
0.042633057 0.0042610168 -0.39648438 0 0 0 0
0.04486084 0.0042381287 -0.39453125 0 0 0 0
0.047088623 0.0042152405 -0.39233398 0 0 0 0
0.049285889 0.004196167 -0.39038086 0 0 0 0
0.051574707 0.0041847229 -0.3894043 0 0 0 0
0.053710938 0.0041618347 -0.38745117 0 0 0 0
0.05581665 0.0041427612 -0.38549805 0 0 0 0
0.057922363 0.004119873 -0.38330078 0 0 0 0
0.060150146 0.004108429 -0.38232422 0 0 0 0
0.062194824 0.0040855408 -0.38037109 0 0 0 0
0.06439209 0.0040779114 -0.37939453 0 0 0 0
0.066711426 0.0040779114 -0.37939453 0 0 0 0
0.069091797 0.0040779114 -0.37939453 0 0 0 0
0.071472168 0.0040779114 -0.37939453 0 0 0 0
0.073974609 0.0040855408 -0.38037109 0 0 0 0
0.07635498 0.0040855408 -0.38037109 0 0 0 0
0.079162598 0.004108429 -0.38232422 0 0 0 0
0.081726074 0.004119873 -0.38330078 0 0 0 0
0.084350586 0.0041313171 -0.38427734 0 0 0 0
0.086730957 0.0041313171 -0.38427734 0 0 0 0
0.089111328 0.0041313171 -0.38427734 0 0 0 0
0.091491699 0.0041313171 -0.38427734 0 0 0 0
0.093383789 0.004108429 -0.38232422 0 0 0 0
0.095275879 0.0040855408 -0.38037109 0 0 0 0
0.09765625 0.0040855408 -0.38037109 0 0 0 0
0.099731445 0.0040779114 -0.37939453 0 0 0 0
0.0051727295 0.0016336441 -0.36035156 0 0 0 0
0.0074119568 0.0016336441 -0.36035156 0 0 0 0
0.040283203 0.0018014908 -0.39746094 0 0 0 0
0.042419434 0.0017881393 -0.39453125 0 0 0 0
0.044647217 0.0017795563 -0.39233398 0 0 0 0
0.046966553 0.0017747879 -0.39135742 0 0 0 0
0.049133301 0.0017652512 -0.3894043 0 0 0 0
0.051422119 0.0017604828 -0.38842773 0 0 0 0
0.053710938 0.0017566681 -0.38745117 0 0 0 0
0.05581665 0.0017471313 -0.38549805 0 0 0 0
0.057922363 0.0017385483 -0.38330078 0 0 0 0
0.060150146 0.0017337799 -0.38232422 0 0 0 0
0.062194824 0.0017242432 -0.38037109 0 0 0 0
0.06439209 0.0017204285 -0.37939453 0 0 0 0
0.066711426 0.0017204285 -0.37939453 0 0 0 0
0.069091797 0.0017204285 -0.37939453 0 0 0 0
0.071472168 0.0017204285 -0.37939453 0 0 0 0
0.073791504 0.0017204285 -0.37939453 0 0 0 0
0.07635498 0.0017242432 -0.38037109 0 0 0 0
0.078918457 0.0017290115 -0.38134766 0 0 0 0
0.081542969 0.0017337799 -0.38232422 0 0 0 0
0.084106445 0.0017385483 -0.38330078 0 0 0 0
0.086730957 0.001742363 -0.38427734 0 0 0 0
0.089111328 0.001742363 -0.38427734 0 0 0 0
0.091491699 0.001742363 -0.38427734 0 0 0 0
0.093139648 0.0017290115 -0.38134766 0 0 0 0
0.095275879 0.0017242432 -0.38037109 0 0 0 0
0.097351074 0.0017204285 -0.37939453 0 0 0 0
0.099731445 0.0017204285 -0.37939453 0 0 0 0
0.04006958 -0.00066423416 -0.39550781 0 0 0 0
0.042327881 -0.0006608963 -0.39331055 0 0 0 0
0.044525146 -0.00065755844 -0.39135742 0 0 0 0
0.046844482 -0.00065565109 -0.39038086 0 0 0 0
0.049133301 -0.00065422058 -0.3894043 0 0 0 0
0.051422119 -0.00065231323 -0.38842773 0 0 0 0
0.05355835 -0.00064897537 -0.38647461 0 0 0 0
0.05581665 -0.00064754486 -0.38549805 0 0 0 0
0.057922363 -0.000644207 -0.38330078 0 0 0 0
0.060150146 -0.00064229965 -0.38232422 0 0 0 0
0.062194824 -0.00063896179 -0.38037109 0 0 0 0
0.06439209 -0.00063705444 -0.37939453 0 0 0 0
0.066711426 -0.00063705444 -0.37939453 0 0 0 0
0.069091797 -0.00063705444 -0.37939453 0 0 0 0
0.071472168 -0.00063705444 -0.37939453 0 0 0 0
0.073791504 -0.00063705444 -0.37939453 0 0 0 0
0.07635498 -0.00063896179 -0.38037109 0 0 0 0
0.078918457 -0.00064086914 -0.38134766 0 0 0 0
0.081542969 -0.00064229965 -0.38232422 0 0 0 0
0.084106445 -0.000644207 -0.38330078 0 0 0 0
0.086730957 -0.00064563751 -0.38427734 0 0 0 0
0.089111328 -0.00064563751 -0.38427734 0 0 0 0
0.091491699 -0.00064563751 -0.38427734 0 0 0 0
0.093139648 -0.00064086914 -0.38134766 0 0 0 0
0.095275879 -0.00063896179 -0.38037109 0 0 0 0
0.09765625 -0.00063896179 -0.38037109 0 0 0 0
0.099731445 -0.00063705444 -0.37939453 0 0 0 0
0.039978027 -0.003112793 -0.39453125 0 0 0 0
0.042205811 -0.0030975342 -0.39233398 0 0 0 0
0.044433594 -0.0030822754 -0.39038086 0 0 0 0
0.046722412 -0.003074646 -0.3894043 0 0 0 0
0.04901123 -0.0030651093 -0.38842773 0 0 0 0
0.051300049 -0.0030574799 -0.38745117 0 0 0 0
0.05355835 -0.0030498505 -0.38647461 0 0 0 0
0.05581665 -0.0030422211 -0.38549805 0 0 0 0
0.057922363 -0.0030269623 -0.38330078 0 0 0 0
0.060150146 -0.0030174255 -0.38232422 0 0 0 0
0.062347412 -0.0030097961 -0.38134766 0 0 0 0
0.06451416 -0.0030021667 -0.38037109 0 0 0 0
0.066711426 -0.0029945374 -0.37939453 0 0 0 0
0.069091797 -0.0029945374 -0.37939453 0 0 0 0
0.071472168 -0.0029945374 -0.37939453 0 0 0 0
0.073791504 -0.0029945374 -0.37939453 0 0 0 0
0.07635498 -0.0030021667 -0.38037109 0 0 0 0
0.078918457 -0.0030097961 -0.38134766 0 0 0 0
0.081542969 -0.0030174255 -0.38232422 0 0 0 0
0.084350586 -0.0030345917 -0.38427734 0 0 0 0
0.086975098 -0.0030422211 -0.38549805 0 0 0 0
0.089599609 -0.0030498505 -0.38647461 0 0 0 0
0.09197998 -0.0030498505 -0.38647461 0 0 0 0
0.093383789 -0.0030174255 -0.38232422 0 0 0 0
0.095275879 -0.0030021667 -0.38037109 0 0 0 0
0.09765625 -0.0030021667 -0.38037109 0 0 0 0
0.037811279 -0.005607605 -0.39746094 0 0 0 0
0.039855957 -0.0055503845 -0.39331055 0 0 0 0
0.042114258 -0.0055198669 -0.39135742 0 0 0 0
0.044433594 -0.0055084229 -0.39038086 0 0 0 0
0.046722412 -0.0054931641 -0.3894043 0 0 0 0
0.04901123 -0.0054779053 -0.38842773 0 0 0 0
0.051300049 -0.0054664612 -0.38745117 0 0 0 0
0.05355835 -0.0054512024 -0.38647461 0 0 0 0
0.05581665 -0.0054359436 -0.38549805 0 0 0 0
0.058074951 -0.0054206848 -0.38427734 0 0 0 0
0.060150146 -0.0053939819 -0.38232422 0 0 0 0
0.062347412 -0.0053787231 -0.38134766 0 0 0 0
0.06451416 -0.0053672791 -0.38037109 0 0 0 0
0.066711426 -0.0053520203 -0.37939453 0 0 0 0
0.069091797 -0.0053520203 -0.37939453 0 0 0 0
0.071472168 -0.0053520203 -0.37939453 0 0 0 0
0.073974609 -0.0053672791 -0.38037109 0 0 0 0
0.076538086 -0.0053787231 -0.38134766 0 0 0 0
0.079162598 -0.0053939819 -0.38232422 0 0 0 0
0.081726074 -0.0054092407 -0.38330078 0 0 0 0
0.084533691 -0.0054359436 -0.38549805 0 0 0 0
0.087158203 -0.0054512024 -0.38647461 0 0 0 0
0.090026855 -0.0054779053 -0.38842773 0 0 0 0
0.092956543 -0.0055084229 -0.39038086 0 0 0 0
0.096862793 -0.0055923462 -0.39648438 0 0 0 0
0.037719727 -0.0080566406 -0.39648438 0 0 0 0
0.039764404 -0.0079727173 -0.39233398 0 0 0 0
0.042114258 -0.0079498291 -0.39135742 0 0 0 0
0.044311523 -0.0079116821 -0.3894043 0 0 0 0
0.046722412 -0.0079116821 -0.3894043 0 0 0 0
0.04901123 -0.0078887939 -0.38842773 0 0 0 0
0.051422119 -0.0078887939 -0.38842773 0 0 0 0
0.053710938 -0.0078735352 -0.38745117 0 0 0 0
0.055969238 -0.007850647 -0.38647461 0 0 0 0
0.058074951 -0.0078125 -0.38427734 0 0 0 0
0.060302734 -0.0077896118 -0.38330078 0 0 0 0
0.0625 -0.0077705383 -0.38232422 0 0 0 0
0.064697266 -0.0077514648 -0.38134766 0 0 0 0
0.066894531 -0.0077285767 -0.38037109 0 0 0 0
0.069274902 -0.0077285767 -0.38037109 0 0 0 0
0.071655273 -0.0077285767 -0.38037109 0 0 0 0
0.07421875 -0.0077514648 -0.38134766 0 0 0 0
0.076538086 -0.0077514648 -0.38134766 0 0 0 0
0.079162598 -0.0077705383 -0.38232422 0 0 0 0
0.081970215 -0.0078125 -0.38427734 0 0 0 0
0.084777832 -0.007850647 -0.38647461 0 0 0 0
0.087402344 -0.0078735352 -0.38745117 0 0 0 0
0.090515137 -0.0079345703 -0.39038086 0 0 0 0
0.093383789 -0.0079727173 -0.39233398 0 0 0 0
-0.040374756 -0.0097427368 -0.36743164 0 0 0 0
-0.038085938 -0.0097427368 -0.36743164 0 0 0 0
-0.035797119 -0.0097427368 -0.36743164 0 0 0 0
-0.033508301 -0.0097427368 -0.36743164 0 0 0 0
-0.03125 -0.0097427368 -0.36743164 0 0 0 0
0.037719727 -0.010520935 -0.39648438 0 0 0 0
0.039855957 -0.010437012 -0.39331055 0 0 0 0
0.042114258 -0.010383606 -0.39135742 0 0 0 0
0.044433594 -0.010360718 -0.39038086 0 0 0 0
0.046722412 -0.0103302 -0.3894043 0 0 0 0
0.049133301 -0.0103302 -0.3894043 0 0 0 0
0.051574707 -0.0103302 -0.3894043 0 0 0 0
0.053833008 -0.010307312 -0.38842773 0 0 0 0
0.056121826 -0.010276794 -0.38745117 0 0 0 0
0.058227539 -0.010223389 -0.38549805 0 0 0 0
0.060455322 -0.0102005 -0.38427734 0 0 0 0
0.062683105 -0.010169983 -0.38330078 0 0 0 0
0.064880371 -0.010147095 -0.38232422 0 0 0 0
0.067077637 -0.010116577 -0.38134766 0 0 0 0
0.069458008 -0.010116577 -0.38134766 0 0 0 0
0.071838379 -0.010116577 -0.38134766 0 0 0 0
0.074401855 -0.010147095 -0.38232422 0 0 0 0
0.076965332 -0.010169983 -0.38330078 0 0 0 0
0.079528809 -0.0102005 -0.38427734 0 0 0 0
0.08215332 -0.010223389 -0.38549805 0 0 0 0
0.085021973 -0.010276794 -0.38745117 0 0 0 0
0.08782959 -0.0103302 -0.3894043 0 0 0 0
0.090759277 -0.010383606 -0.39135742 0 0 0 0
0.09362793 -0.010437012 -0.39331055 0 0 0 0
-0.044921875 -0.012031555 -0.36743164 0 0 0 0
-0.042663574 -0.012031555 -0.36743164 0 0 0 0
-0.040374756 -0.012031555 -0.36743164 0 0 0 0
-0.038085938 -0.012031555 -0.36743164 0 0 0 0
-0.035797119 -0.012031555 -0.36743164 0 0 0 0
-0.033508301 -0.012031555 -0.36743164 0 0 0 0
-0.03125 -0.012031555 -0.36743164 0 0 0 0
-0.028961182 -0.012031555 -0.36743164 0 0 0 0
0.039978027 -0.012916565 -0.39453125 0 0 0 0
0.042327881 -0.012886047 -0.39331055 0 0 0 0
0.044647217 -0.0128479 -0.39233398 0 0 0 0
0.046966553 -0.012817383 -0.39135742 0 0 0 0
0.049407959 -0.012817383 -0.39135742 0 0 0 0
0.051696777 -0.012786865 -0.39038086 0 0 0 0
0.053985596 -0.012748718 -0.3894043 0 0 0 0
0.056274414 -0.012718201 -0.38842773 0 0 0 0
0.058532715 -0.012687683 -0.38745117 0 0 0 0
0.060760498 -0.012657166 -0.38647461 0 0 0 0
0.062805176 -0.012588501 -0.38427734 0 0 0 0
0.065246582 -0.012588501 -0.38427734 0 0 0 0
0.067443848 -0.012557983 -0.38330078 0 0 0 0
0.069824219 -0.012557983 -0.38330078 0 0 0 0
0.07220459 -0.012557983 -0.38330078 0 0 0 0
0.074768066 -0.012588501 -0.38427734 0 0 0 0
0.077148438 -0.012588501 -0.38427734 0 0 0 0
0.079772949 -0.012619019 -0.38549805 0 0 0 0
0.082397461 -0.012657166 -0.38647461 0 0 0 0
0.085205078 -0.012718201 -0.38842773 0 0 0 0
0.08807373 -0.012786865 -0.39038086 0 0 0 0
0.091003418 -0.0128479 -0.39233398 0 0 0 0
0.094116211 -0.012947083 -0.39550781 0 0 0 0
-0.047210693 -0.014312744 -0.36743164 0 0 0 0
-0.044921875 -0.014312744 -0.36743164 0 0 0 0
-0.042663574 -0.014312744 -0.36743164 0 0 0 0
-0.040252686 -0.014274597 -0.36621094 0 0 0 0
-0.037994385 -0.014274597 -0.36621094 0 0 0 0
-0.035705566 -0.014274597 -0.36621094 0 0 0 0
-0.033508301 -0.014312744 -0.36743164 0 0 0 0
-0.03125 -0.014312744 -0.36743164 0 0 0 0
-0.028961182 -0.014312744 -0.36743164 0 0 0 0
-0.026748657 -0.014350891 -0.3684082 0 0 0 0
0.04019165 -0.015449524 -0.39648438 0 0 0 0
0.042419434 -0.015365601 -0.39453125 0 0 0 0
0.04486084 -0.015365601 -0.39453125 0 0 0 0
0.047210693 -0.015327454 -0.39331055 0 0 0 0
0.0496521 -0.015327454 -0.39331055 0 0 0 0
0.051971436 -0.015289307 -0.39233398 0 0 0 0
0.054412842 -0.015289307 -0.39233398 0 0 0 0
0.056549072 -0.015213013 -0.39038086 0 0 0 0
0.058837891 -0.015174866 -0.3894043 0 0 0 0
0.060943604 -0.015090942 -0.38745117 0 0 0 0
0.063171387 -0.015052795 -0.38647461 0 0 0 0
0.065368652 -0.015014648 -0.38549805 0 0 0 0
0.067810059 -0.015014648 -0.38549805 0 0 0 0
0.07019043 -0.015014648 -0.38549805 0 0 0 0
0.072570801 -0.015014648 -0.38549805 0 0 0 0
0.074951172 -0.015014648 -0.38549805 0 0 0 0
0.077575684 -0.015052795 -0.38647461 0 0 0 0
0.080200195 -0.015090942 -0.38745117 0 0 0 0
0.082824707 -0.015136719 -0.38842773 0 0 0 0
0.085449219 -0.015174866 -0.3894043 0 0 0 0
0.088317871 -0.01525116 -0.39135742 0 0 0 0
0.091186523 -0.015327454 -0.39331055 0 0 0 0
0.094116211 -0.015403748 -0.39550781 0 0 0 0
-0.0496521 -0.01663208 -0.3684082 0 0 0 0
-0.047210693 -0.016586304 -0.36743164 0 0 0 0
-0.044921875 -0.016586304 -0.36743164 0 0 0 0
-0.042541504 -0.016540527 -0.36621094 0 0 0 0
-0.040252686 -0.016540527 -0.36621094 0 0 0 0
-0.037994385 -0.016540527 -0.36621094 0 0 0 0
-0.035705566 -0.016540527 -0.36621094 0 0 0 0
-0.033416748 -0.016540527 -0.36621094 0 0 0 0
-0.03125 -0.016586304 -0.36743164 0 0 0 0
-0.028961182 -0.016586304 -0.36743164 0 0 0 0
-0.026748657 -0.01663208 -0.3684082 0 0 0 0
-0.024459839 -0.01663208 -0.3684082 0 0 0 0
0.04510498 -0.017913818 -0.39648438 0 0 0 0
0.047576904 -0.017913818 -0.39648438 0 0 0 0
0.04989624 -0.017868042 -0.39550781 0 0 0 0
0.052368164 -0.017868042 -0.39550781 0 0 0 0
0.0546875 -0.017822266 -0.39453125 0 0 0 0
0.056854248 -0.017730713 -0.39233398 0 0 0 0
0.059143066 -0.017684937 -0.39135742 0 0 0 0
0.061248779 -0.017593384 -0.3894043 0 0 0 0
0.063476562 -0.017547607 -0.38842773 0 0 0 0
0.065734863 -0.017501831 -0.38745117 0 0 0 0
0.068115234 -0.017501831 -0.38745117 0 0 0 0
0.070556641 -0.017501831 -0.38745117 0 0 0 0
0.072937012 -0.017501831 -0.38745117 0 0 0 0
0.075378418 -0.017501831 -0.38745117 0 0 0 0
0.07800293 -0.017547607 -0.38842773 0 0 0 0
0.080383301 -0.017547607 -0.38842773 0 0 0 0
0.083007812 -0.017593384 -0.3894043 0 0 0 0
0.085632324 -0.01763916 -0.39038086 0 0 0 0
0.088562012 -0.017730713 -0.39233398 0 0 0 0
0.091430664 -0.017822266 -0.39453125 0 0 0 0
-0.0496521 -0.018920898 -0.3684082 0 0 0 0
-0.047210693 -0.018875122 -0.36743164 0 0 0 0
-0.044921875 -0.018875122 -0.36743164 0 0 0 0
-0.042541504 -0.018829346 -0.36621094 0 0 0 0
-0.040252686 -0.018829346 -0.36621094 0 0 0 0
-0.037994385 -0.018829346 -0.36621094 0 0 0 0
-0.035705566 -0.018829346 -0.36621094 0 0 0 0
-0.033416748 -0.018829346 -0.36621094 0 0 0 0
-0.03125 -0.018875122 -0.36743164 0 0 0 0
-0.028961182 -0.018875122 -0.36743164 0 0 0 0
-0.026748657 -0.018920898 -0.3684082 0 0 0 0
-0.024536133 -0.018981934 -0.36938477 0 0 0 0
-0.022232056 -0.018981934 -0.36938477 0 0 0 0
0.054962158 -0.020370483 -0.39648438 0 0 0 0
0.057128906 -0.020263672 -0.39453125 0 0 0 0
0.059448242 -0.020217896 -0.39331055 0 0 0 0
0.061553955 -0.020111084 -0.39135742 0 0 0 0
0.063659668 -0.020004272 -0.3894043 0 0 0 0
0.066101074 -0.020004272 -0.3894043 0 0 0 0
0.06829834 -0.019958496 -0.38842773 0 0 0 0
0.070739746 -0.019958496 -0.38842773 0 0 0 0
0.073120117 -0.019958496 -0.38842773 0 0 0 0
0.075744629 -0.020004272 -0.3894043 0 0 0 0
0.078186035 -0.020004272 -0.3894043 0 0 0 0
0.080566406 -0.020004272 -0.3894043 0 0 0 0
0.083251953 -0.020065308 -0.39038086 0 0 0 0
0.085876465 -0.020111084 -0.39135742 0 0 0 0
0.088562012 -0.02015686 -0.39233398 0 0 0 0
0.091430664 -0.020263672 -0.39453125 0 0 0 0
-0.0496521 -0.021209717 -0.3684082 0 0 0 0
-0.047210693 -0.02116394 -0.36743164 0 0 0 0
-0.044921875 -0.02116394 -0.36743164 0 0 0 0
-0.042541504 -0.021102905 -0.36621094 0 0 0 0
-0.040252686 -0.021102905 -0.36621094 0 0 0 0
-0.037994385 -0.021102905 -0.36621094 0 0 0 0
-0.035705566 -0.021102905 -0.36621094 0 0 0 0
-0.033416748 -0.021102905 -0.36621094 0 0 0 0
-0.031158447 -0.021102905 -0.36621094 0 0 0 0
-0.028961182 -0.02116394 -0.36743164 0 0 0 0
-0.026748657 -0.021209717 -0.3684082 0 0 0 0
-0.024536133 -0.021270752 -0.36938477 0 0 0 0
-0.022232056 -0.021270752 -0.36938477 0 0 0 0
0.057434082 -0.022827148 -0.39648438 0 0 0 0
0.059570312 -0.022720337 -0.39453125 0 0 0 0
0.061706543 -0.022598267 -0.39233398 0 0 0 0
0.063964844 -0.02255249 -0.39135742 0 0 0 0
0.066223145 -0.022491455 -0.39038086 0 0 0 0
0.068481445 -0.02243042 -0.3894043 0 0 0 0
0.070922852 -0.02243042 -0.3894043 0 0 0 0
0.073547363 -0.022491455 -0.39038086 0 0 0 0
0.075927734 -0.022491455 -0.39038086 0 0 0 0
0.078369141 -0.022491455 -0.39038086 0 0 0 0
0.080810547 -0.022491455 -0.39038086 0 0 0 0
0.083435059 -0.02255249 -0.39135742 0 0 0 0
0.085876465 -0.02255249 -0.39135742 0 0 0 0
0.088562012 -0.022598267 -0.39233398 0 0 0 0
0.091430664 -0.022720337 -0.39453125 0 0 0 0
-0.052062988 -0.023574829 -0.36938477 0 0 0 0
-0.0496521 -0.023498535 -0.3684082 0 0 0 0
-0.047210693 -0.0234375 -0.36743164 0 0 0 0
-0.044921875 -0.0234375 -0.36743164 0 0 0 0
-0.042541504 -0.023376465 -0.36621094 0 0 0 0
-0.040252686 -0.023376465 -0.36621094 0 0 0 0
-0.037994385 -0.023376465 -0.36621094 0 0 0 0
-0.035705566 -0.023376465 -0.36621094 0 0 0 0
-0.033416748 -0.023376465 -0.36621094 0 0 0 0
-0.031158447 -0.023376465 -0.36621094 0 0 0 0
-0.028961182 -0.0234375 -0.36743164 0 0 0 0
-0.026748657 -0.023498535 -0.3684082 0 0 0 0
-0.024536133 -0.023574829 -0.36938477 0 0 0 0
-0.022232056 -0.023574829 -0.36938477 0 0 0 0
-0.019989014 -0.023635864 -0.37036133 0 0 0 0
0.0597229 -0.025238037 -0.39550781 0 0 0 0
0.061889648 -0.025100708 -0.39331055 0 0 0 0
0.064147949 -0.025039673 -0.39233398 0 0 0 0
0.06640625 -0.024978638 -0.39135742 0 0 0 0
0.068664551 -0.024917603 -0.39038086 0 0 0 0
0.071105957 -0.024917603 -0.39038086 0 0 0 0
0.073547363 -0.024917603 -0.39038086 0 0 0 0
0.076171875 -0.024978638 -0.39135742 0 0 0 0
0.078552246 -0.024978638 -0.39135742 0 0 0 0
0.080993652 -0.024978638 -0.39135742 0 0 0 0
0.083435059 -0.024978638 -0.39135742 0 0 0 0
0.086120605 -0.025039673 -0.39233398 0 0 0 0
0.088745117 -0.025100708 -0.39331055 0 0 0 0
0.091430664 -0.025177002 -0.39453125 0 0 0 0
0.094116211 -0.025238037 -0.39550781 0 0 0 0
-0.052062988 -0.025863647 -0.36938477 0 0 0 0
-0.0496521 -0.025787354 -0.3684082 0 0 0 0
-0.047363281 -0.025787354 -0.3684082 0 0 0 0
-0.044921875 -0.025726318 -0.36743164 0 0 0 0
-0.042541504 -0.025650024 -0.36621094 0 0 0 0
-0.040252686 -0.025650024 -0.36621094 0 0 0 0
-0.037994385 -0.025650024 -0.36621094 0 0 0 0
-0.035705566 -0.025650024 -0.36621094 0 0 0 0
-0.033416748 -0.025650024 -0.36621094 0 0 0 0
-0.031158447 -0.025650024 -0.36621094 0 0 0 0
-0.028961182 -0.025726318 -0.36743164 0 0 0 0
-0.026748657 -0.025787354 -0.3684082 0 0 0 0
-0.024459839 -0.025787354 -0.3684082 0 0 0 0
-0.022232056 -0.025863647 -0.36938477 0 0 0 0
-0.019943237 -0.025863647 -0.36938477 0 0 0 0
0.062042236 -0.027618408 -0.39453125 0 0 0 0
0.064331055 -0.027557373 -0.39331055 0 0 0 0
0.066589355 -0.027481079 -0.39233398 0 0 0 0
0.068847656 -0.027404785 -0.39135742 0 0 0 0
0.071289062 -0.027404785 -0.39135742 0 0 0 0
0.073730469 -0.027404785 -0.39135742 0 0 0 0
0.076171875 -0.027404785 -0.39135742 0 0 0 0
0.078796387 -0.027481079 -0.39233398 0 0 0 0
0.081237793 -0.027481079 -0.39233398 0 0 0 0
0.083679199 -0.027481079 -0.39233398 0 0 0 0
0.086120605 -0.027481079 -0.39233398 0 0 0 0
0.088562012 -0.027481079 -0.39233398 0 0 0 0
0.091186523 -0.027557373 -0.39331055 0 0 0 0
0.094116211 -0.027694702 -0.39550781 0 0 0 0
-0.052062988 -0.028167725 -0.36938477 0 0 0 0
-0.04977417 -0.028167725 -0.36938477 0 0 0 0
-0.047363281 -0.028076172 -0.3684082 0 0 0 0
-0.044921875 -0.027999878 -0.36743164 0 0 0 0
-0.042541504 -0.027923584 -0.36621094 0 0 0 0
-0.040252686 -0.027923584 -0.36621094 0 0 0 0
-0.037994385 -0.027923584 -0.36621094 0 0 0 0
-0.035705566 -0.027923584 -0.36621094 0 0 0 0
-0.033416748 -0.027923584 -0.36621094 0 0 0 0
-0.031158447 -0.027923584 -0.36621094 0 0 0 0
-0.028961182 -0.027999878 -0.36743164 0 0 0 0
-0.026748657 -0.028076172 -0.3684082 0 0 0 0
-0.024459839 -0.028076172 -0.3684082 0 0 0 0
-0.022232056 -0.028167725 -0.36938477 0 0 0 0
-0.019943237 -0.028167725 -0.36938477 0 0 0 0
0.062194824 -0.030151367 -0.39550781 0 0 0 0
0.064331055 -0.029998779 -0.39331055 0 0 0 0
0.066589355 -0.029922485 -0.39233398 0 0 0 0
0.068847656 -0.029846191 -0.39135742 0 0 0 0
0.071289062 -0.029846191 -0.39135742 0 0 0 0
0.073913574 -0.029922485 -0.39233398 0 0 0 0
0.07635498 -0.029922485 -0.39233398 0 0 0 0
0.078796387 -0.029922485 -0.39233398 0 0 0 0
0.081237793 -0.029922485 -0.39233398 0 0 0 0
0.083679199 -0.029922485 -0.39233398 0 0 0 0
0.086120605 -0.029922485 -0.39233398 0 0 0 0
0.088562012 -0.029922485 -0.39233398 0 0 0 0
0.091186523 -0.029998779 -0.39331055 0 0 0 0
0.09387207 -0.030075073 -0.39453125 0 0 0 0
-0.054656982 -0.03062439 -0.37133789 0 0 0 0
-0.052215576 -0.030532837 -0.37036133 0 0 0 0
-0.04977417 -0.030456543 -0.36938477 0 0 0 0
-0.047363281 -0.030380249 -0.3684082 0 0 0 0
-0.045043945 -0.030380249 -0.3684082 0 0 0 0
-0.042663574 -0.030288696 -0.36743164 0 0 0 0
-0.040252686 -0.030212402 -0.36621094 0 0 0 0
-0.037994385 -0.030212402 -0.36621094 0 0 0 0
-0.035705566 -0.030212402 -0.36621094 0 0 0 0
-0.033416748 -0.030212402 -0.36621094 0 0 0 0
-0.031158447 -0.030212402 -0.36621094 0 0 0 0
-0.028961182 -0.030288696 -0.36743164 0 0 0 0
-0.026672363 -0.030288696 -0.36743164 0 0 0 0
-0.024459839 -0.030380249 -0.3684082 0 0 0 0
-0.022171021 -0.030380249 -0.3684082 0 0 0 0
-0.019882202 -0.030380249 -0.3684082 0 0 0 0
0.062194824 -0.032592773 -0.39550781 0 0 0 0
0.064331055 -0.032440186 -0.39331055 0 0 0 0
0.066589355 -0.032348633 -0.39233398 0 0 0 0
0.069030762 -0.032348633 -0.39233398 0 0 0 0
0.071472168 -0.032348633 -0.39233398 0 0 0 0
0.073913574 -0.032348633 -0.39233398 0 0 0 0
0.07635498 -0.032348633 -0.39233398 0 0 0 0
0.078796387 -0.032348633 -0.39233398 0 0 0 0
0.081237793 -0.032348633 -0.39233398 0 0 0 0
0.083679199 -0.032348633 -0.39233398 0 0 0 0
0.086120605 -0.032348633 -0.39233398 0 0 0 0
0.088562012 -0.032348633 -0.39233398 0 0 0 0
0.091003418 -0.032348633 -0.39233398 0 0 0 0
0.09362793 -0.032440186 -0.39331055 0 0 0 0
0.096313477 -0.032531738 -0.39453125 0 0 0 0
-0.054656982 -0.032928467 -0.37133789 0 0 0 0
-0.052215576 -0.032836914 -0.37036133 0 0 0 0
-0.04989624 -0.032836914 -0.37036133 0 0 0 0
-0.047485352 -0.032745361 -0.36938477 0 0 0 0
-0.045043945 -0.032653809 -0.3684082 0 0 0 0
-0.042663574 -0.032562256 -0.36743164 0 0 0 0
-0.040374756 -0.032562256 -0.36743164 0 0 0 0
-0.037994385 -0.032470703 -0.36621094 0 0 0 0
-0.035705566 -0.032470703 -0.36621094 0 0 0 0
-0.033416748 -0.032470703 -0.36621094 0 0 0 0
-0.03125 -0.032562256 -0.36743164 0 0 0 0
-0.028961182 -0.032562256 -0.36743164 0 0 0 0
-0.026672363 -0.032562256 -0.36743164 0 0 0 0
-0.024398804 -0.032562256 -0.36743164 0 0 0 0
-0.022109985 -0.032562256 -0.36743164 0 0 0 0
-0.019836426 -0.032562256 -0.36743164 0 0 0 0
-0.017501831 -0.032470703 -0.36621094 0 0 0 0
-0.015228271 -0.032470703 -0.36621094 0 0 0 0
0.062194824 -0.035064697 -0.39550781 0 0 0 0
0.064331055 -0.034881592 -0.39331055 0 0 0 0
0.066589355 -0.034790039 -0.39233398 0 0 0 0
0.069030762 -0.034790039 -0.39233398 0 0 0 0
0.071472168 -0.034790039 -0.39233398 0 0 0 0
0.073913574 -0.034790039 -0.39233398 0 0 0 0
0.07635498 -0.034790039 -0.39233398 0 0 0 0
0.078979492 -0.034881592 -0.39331055 0 0 0 0
0.081420898 -0.034881592 -0.39331055 0 0 0 0
0.083679199 -0.034790039 -0.39233398 0 0 0 0
0.086120605 -0.034790039 -0.39233398 0 0 0 0
0.088317871 -0.034698486 -0.39135742 0 0 0 0
0.090759277 -0.034698486 -0.39135742 0 0 0 0
0.093200684 -0.034698486 -0.39135742 0 0 0 0
0.095825195 -0.034790039 -0.39233398 0 0 0 0
0.098571777 -0.034881592 -0.39331055 0 0 0 0
0.10101318 -0.034881592 -0.39331055 0 0 0 0
-0.054656982 -0.035217285 -0.37133789 0 0 0 0
-0.052215576 -0.035125732 -0.37036133 0 0 0 0
-0.04989624 -0.035125732 -0.37036133 0 0 0 0
-0.047485352 -0.03503418 -0.36938477 0 0 0 0
-0.045196533 -0.03503418 -0.36938477 0 0 0 0
-0.042755127 -0.034942627 -0.3684082 0 0 0 0
-0.040374756 -0.034851074 -0.36743164 0 0 0 0
-0.038085938 -0.034851074 -0.36743164 0 0 0 0
-0.035797119 -0.034851074 -0.36743164 0 0 0 0
-0.033508301 -0.034851074 -0.36743164 0 0 0 0
-0.03125 -0.034851074 -0.36743164 0 0 0 0
-0.028961182 -0.034851074 -0.36743164 0 0 0 0
-0.026672363 -0.034851074 -0.36743164 0 0 0 0
-0.024398804 -0.034851074 -0.36743164 0 0 0 0
-0.022109985 -0.034851074 -0.36743164 0 0 0 0
-0.019836426 -0.034851074 -0.36743164 0 0 0 0
-0.017501831 -0.034759521 -0.36621094 0 0 0 0
-0.015228271 -0.034759521 -0.36621094 0 0 0 0
-0.012947083 -0.034759521 -0.36621094 0 0 0 0
0.064331055 -0.037322998 -0.39331055 0 0 0 0
0.066589355 -0.037231445 -0.39233398 0 0 0 0
0.068847656 -0.037139893 -0.39135742 0 0 0 0
0.071289062 -0.037139893 -0.39135742 0 0 0 0
0.073913574 -0.037231445 -0.39233398 0 0 0 0
0.07635498 -0.037231445 -0.39233398 0 0 0 0
0.078979492 -0.037322998 -0.39331055 0 0 0 0
0.081420898 -0.037322998 -0.39331055 0 0 0 0
0.083679199 -0.037231445 -0.39233398 0 0 0 0
0.086120605 -0.037231445 -0.39233398 0 0 0 0
0.088317871 -0.037139893 -0.39135742 0 0 0 0
0.090515137 -0.03704834 -0.39038086 0 0 0 0
0.092956543 -0.03704834 -0.39038086 0 0 0 0
0.095336914 -0.03704834 -0.39038086 0 0 0 0
0.09777832 -0.03704834 -0.39038086 0 0 0 0
0.10021973 -0.03704834 -0.39038086 0 0 0 0
0.10235596 -0.036956787 -0.3894043 0 0 0 0
-0.05480957 -0.037628174 -0.37231445 0 0 0 0
-0.052337646 -0.037536621 -0.37133789 0 0 0 0
-0.050048828 -0.037536621 -0.37133789 0 0 0 0
-0.047607422 -0.037445068 -0.37036133 0 0 0 0
-0.045196533 -0.037322998 -0.36938477 0 0 0 0
-0.042877197 -0.037322998 -0.36938477 0 0 0 0
-0.040466309 -0.037231445 -0.3684082 0 0 0 0
-0.038085938 -0.037139893 -0.36743164 0 0 0 0
-0.035797119 -0.037139893 -0.36743164 0 0 0 0
-0.033508301 -0.037139893 -0.36743164 0 0 0 0
-0.03125 -0.037139893 -0.36743164 0 0 0 0
-0.028961182 -0.037139893 -0.36743164 0 0 0 0
-0.026672363 -0.037139893 -0.36743164 0 0 0 0
-0.024398804 -0.037139893 -0.36743164 0 0 0 0
-0.022109985 -0.037139893 -0.36743164 0 0 0 0
-0.019775391 -0.037017822 -0.36621094 0 0 0 0
-0.017501831 -0.037017822 -0.36621094 0 0 0 0
-0.015228271 -0.037017822 -0.36621094 0 0 0 0
-0.012947083 -0.037017822 -0.36621094 0 0 0 0
0.062042236 -0.039886475 -0.39453125 0 0 0 0
0.064147949 -0.039672852 -0.39233398 0 0 0 0
0.06640625 -0.039581299 -0.39135742 0 0 0 0
0.068847656 -0.039581299 -0.39135742 0 0 0 0
0.071289062 -0.039581299 -0.39135742 0 0 0 0
0.073730469 -0.039581299 -0.39135742 0 0 0 0
0.07635498 -0.039672852 -0.39233398 0 0 0 0
0.078979492 -0.039764404 -0.39331055 0 0 0 0
0.081420898 -0.039764404 -0.39331055 0 0 0 0
0.083679199 -0.039672852 -0.39233398 0 0 0 0
0.086120605 -0.039672852 -0.39233398 0 0 0 0
0.088317871 -0.039581299 -0.39135742 0 0 0 0
0.090515137 -0.039459229 -0.39038086 0 0 0 0
0.092712402 -0.039367676 -0.3894043 0 0 0 0
0.095092773 -0.039367676 -0.3894043 0 0 0 0
0.097290039 -0.039276123 -0.38842773 0 0 0 0
0.09967041 -0.039276123 -0.38842773 0 0 0 0
0.10186768 -0.039154053 -0.38745117 0 0 0 0
-0.052337646 -0.039855957 -0.37133789 0 0 0 0
-0.050048828 -0.039855957 -0.37133789 0 0 0 0
-0.047729492 -0.039855957 -0.37133789 0 0 0 0
-0.045318604 -0.039733887 -0.37036133 0 0 0 0
-0.042877197 -0.039642334 -0.36938477 0 0 0 0
-0.040588379 -0.039642334 -0.36938477 0 0 0 0
-0.03817749 -0.039520264 -0.3684082 0 0 0 0
-0.035888672 -0.039520264 -0.3684082 0 0 0 0
-0.033508301 -0.039428711 -0.36743164 0 0 0 0
-0.03125 -0.039428711 -0.36743164 0 0 0 0
-0.028961182 -0.039428711 -0.36743164 0 0 0 0
-0.026672363 -0.039428711 -0.36743164 0 0 0 0
-0.024398804 -0.039428711 -0.36743164 0 0 0 0
-0.02204895 -0.039306641 -0.36621094 0 0 0 0
-0.019775391 -0.039306641 -0.36621094 0 0 0 0
-0.017501831 -0.039306641 -0.36621094 0 0 0 0
-0.015228271 -0.039306641 -0.36621094 0 0 0 0
-0.012947083 -0.039306641 -0.36621094 0 0 0 0
-0.010643005 -0.03918457 -0.36523438 0 0 0 0
0.061889648 -0.042205811 -0.39331055 0 0 0 0
0.064147949 -0.042114258 -0.39233398 0 0 0 0
0.06640625 -0.041992188 -0.39135742 0 0 0 0
0.068664551 -0.041900635 -0.39038086 0 0 0 0
0.071105957 -0.041900635 -0.39038086 0 0 0 0
0.073730469 -0.041992188 -0.39135742 0 0 0 0
0.07635498 -0.042114258 -0.39233398 0 0 0 0
0.078979492 -0.042205811 -0.39331055 0 0 0 0
0.081420898 -0.042205811 -0.39331055 0 0 0 0
0.083862305 -0.042205811 -0.39331055 0 0 0 0
0.086120605 -0.042114258 -0.39233398 0 0 0 0
0.088317871 -0.041992188 -0.39135742 0 0 0 0
0.090515137 -0.041900635 -0.39038086 0 0 0 0
0.092712402 -0.041778564 -0.3894043 0 0 0 0
0.094848633 -0.041687012 -0.38842773 0 0 0 0
0.097045898 -0.041564941 -0.38745117 0 0 0 0
0.099182129 -0.041473389 -0.38647461 0 0 0 0
0.10131836 -0.041351318 -0.38549805 0 0 0 0
-0.052337646 -0.042144775 -0.37133789 0 0 0 0
-0.050170898 -0.042266846 -0.37231445 0 0 0 0
-0.047729492 -0.042144775 -0.37133789 0 0 0 0
-0.045440674 -0.042144775 -0.37133789 0 0 0 0
-0.042999268 -0.042053223 -0.37036133 0 0 0 0
-0.040588379 -0.041931152 -0.36938477 0 0 0 0
-0.038299561 -0.041931152 -0.36938477 0 0 0 0
-0.035888672 -0.041809082 -0.3684082 0 0 0 0
-0.033599854 -0.041809082 -0.3684082 0 0 0 0
-0.031311035 -0.041809082 -0.3684082 0 0 0 0
-0.028961182 -0.041687012 -0.36743164 0 0 0 0
-0.026672363 -0.041687012 -0.36743164 0 0 0 0
-0.024398804 -0.041687012 -0.36743164 0 0 0 0
-0.022109985 -0.041687012 -0.36743164 0 0 0 0
-0.019836426 -0.041687012 -0.36743164 0 0 0 0
-0.017547607 -0.041687012 -0.36743164 0 0 0 0
-0.015266418 -0.041687012 -0.36743164 0 0 0 0
-0.012985229 -0.041687012 -0.36743164 0 0 0 0
0.061889648 -0.044647217 -0.39331055 0 0 0 0
0.063964844 -0.044433594 -0.39135742 0 0 0 0
0.066223145 -0.044311523 -0.39038086 0 0 0 0
0.068481445 -0.044219971 -0.3894043 0 0 0 0
0.070922852 -0.044219971 -0.3894043 0 0 0 0
0.073547363 -0.044311523 -0.39038086 0 0 0 0
0.076171875 -0.044433594 -0.39135742 0 0 0 0
0.078979492 -0.044647217 -0.39331055 0 0 0 0
0.081604004 -0.044769287 -0.39453125 0 0 0 0
0.083862305 -0.044647217 -0.39331055 0 0 0 0
0.086303711 -0.044647217 -0.39331055 0 0 0 0
0.088562012 -0.044555664 -0.39233398 0 0 0 0
0.090759277 -0.044433594 -0.39135742 0 0 0 0
